-0.012194 -0.068554 0.031019
0.003511 -0.064864 0.032768
0.005111 -0.058891 0.032523
-0.013498 -0.062339 0.032472
0.022796 -0.061923 0.032003
-0.026819 -0.070016 0.029396
0.029549 -0.055277 0.033599
-0.019694 -0.065145 0.032899
0.003179 -0.050762 0.033777
-0.017371 -0.071755 0.030730
-0.014381 -0.055168 0.034241
-0.021251 -0.059120 0.030639
-0.005188 -0.073811 0.028875
0.012496 -0.061792 0.032696
0.007083 -0.073043 0.028055
0.004949 -0.054516 0.034074
-0.020986 -0.051827 0.033940
-0.005868 -0.065310 0.032984
0.008868 -0.068067 0.029669
-0.002920 -0.061270 0.032530
-0.008240 -0.059414 0.032997
0.028690 -0.066056 0.032002
-0.024832 -0.040882 0.036270
-0.042120 -0.043984 0.034658
-0.040345 -0.049184 0.033974
-0.020409 -0.044183 0.033587
-0.001062 -0.056944 0.032288
-0.044694 -0.052418 0.033270
-0.006552 -0.042054 0.035482
-0.005115 -0.052737 0.034292
-0.018789 -0.056257 0.032119
-0.004507 -0.045419 0.035318
-0.026709 -0.054832 0.032658
-0.014610 -0.052179 0.034267
-0.013600 -0.046964 0.033592
-0.028185 -0.050225 0.033926
-0.000560 -0.049357 0.033271
-0.037875 -0.055731 0.031070
0.004058 -0.044335 0.034609
-0.033382 -0.052188 0.033970
-0.014422 -0.040229 0.035200
-0.030704 -0.057615 0.032345
-0.028112 -0.044205 0.035182
-0.034213 -0.047318 0.032650
-0.020554 -0.059428 0.030947
-0.008050 -0.049536 0.033887
-0.011775 -0.058275 0.030127
-0.013775 -0.043595 0.035186
-0.034488 -0.040942 0.034908
-0.022305 -0.051888 0.033900
-0.010744 -0.054224 0.031114
-0.019718 -0.049247 0.033802
-0.023753 -0.047723 0.033856
0.003243 -0.052532 0.033340
-0.060910 -0.008780 -0.000253
-0.083186 -0.009927 0.011269
-0.078872 -0.008742 0.008503
-0.061801 -0.013555 0.019752
-0.048650 -0.008055 0.006157
-0.085036 -0.007758 0.004157
-0.053421 -0.008167 0.002579
-0.059198 -0.009413 -0.005868
-0.059949 -0.008223 0.006098
-0.050953 -0.007890 -0.002563
-0.065589 -0.008753 0.007545
-0.062352 -0.008243 0.003925
-0.054999 -0.010909 0.014102
-0.072507 -0.008261 0.002172
-0.046223 -0.010706 0.014660
-0.076938 -0.010925 0.015672
-0.040980 -0.008549 0.009635
-0.078931 -0.007772 -0.000783
-0.057581 -0.009883 0.009744
-0.068110 -0.007439 -0.001838
-0.074138 -0.010012 0.012292
-0.070862 -0.013634 0.017962
-0.067001 -0.007678 0.003924
-0.050864 -0.009401 0.010572
-0.064537 -0.008663 0.011618
-0.069220 -0.008878 0.009243
-0.075613 -0.008932 0.004851
-0.070778 -0.008779 -0.005053
-0.054161 -0.012848 0.018618
-0.061372 -0.010851 0.015178
-0.067968 -0.012177 0.015877
-0.043952 -0.007881 0.001627
-0.036250 -0.074100 -0.012645
-0.062360 -0.083664 0.004626
-0.054599 -0.083983 -0.000231
-0.031489 -0.082077 0.015595
-0.015300 -0.082060 -0.000922
-0.063026 -0.081883 -0.003719
-0.017838 -0.076210 -0.006119
-0.025698 -0.079781 -0.014771
-0.029121 -0.082707 -0.002585
-0.014709 -0.080840 -0.012628
-0.040858 -0.083166 -0.001496
-0.027167 -0.081690 -0.008239
-0.023581 -0.082512 0.008027
-0.046019 -0.082462 -0.006468
-0.009618 -0.082325 0.009655
-0.051590 -0.082172 0.010171
-0.002287 -0.081341 0.001957
-0.055631 -0.080396 -0.011537
-0.027235 -0.070487 0.003312
-0.045706 -0.080693 -0.010913
-0.047123 -0.083778 0.004169
-0.044160 -0.081562 0.015506
-0.036448 -0.083235 -0.004460
-0.017141 -0.082525 0.003634
-0.027340 -0.083801 0.002879
-0.036739 -0.082974 0.001384
-0.052464 -0.073204 -0.002948
-0.040807 -0.079427 -0.015713
-0.019882 -0.081104 0.015272
-0.034746 -0.082187 0.007256
-0.042473 -0.082773 0.009768
-0.007507 -0.081456 -0.005651
0.049391 -0.050219 0.051031
0.022119 -0.050285 0.079167
0.029408 -0.049545 0.072887
0.048943 -0.050374 0.091083
0.064474 -0.049064 0.066073
0.020614 -0.049632 0.067027
0.059121 -0.050670 0.060511
0.053465 -0.049580 0.041867
0.051846 -0.049863 0.065756
0.062245 -0.049922 0.050526
0.041811 -0.049725 0.067303
0.052950 -0.049312 0.057668
0.056334 -0.049914 0.082967
0.037958 -0.049217 0.058868
0.066688 -0.051318 0.082561
0.031469 -0.049444 0.086536
0.070883 -0.050901 0.072026
0.026284 -0.049531 0.055349
0.057006 -0.051259 0.071359
0.036650 -0.048305 0.051626
0.038059 -0.049448 0.078663
0.037766 -0.049800 0.093298
0.046170 -0.047578 0.061490
0.062789 -0.049649 0.076056
0.051335 -0.048451 0.074511
0.043469 -0.049495 0.073945
0.034060 -0.050720 0.064524
0.039522 -0.049479 0.041937
0.059629 -0.050302 0.090608
0.048138 -0.049799 0.082420
0.042175 -0.050815 0.085832
0.069056 -0.050653 0.058311
-0.000967 -0.036714 0.034049
-0.013945 -0.039785 0.032906
-0.013397 -0.044371 0.032564
0.002823 -0.039651 0.032525
0.016677 -0.052154 0.033079
-0.015510 -0.048254 0.033225
0.013725 -0.037107 0.033159
0.013791 -0.048389 0.034338
0.003247 -0.051199 0.032947
0.014231 -0.041495 0.033901
-0.003236 -0.050561 0.032680
0.006443 -0.047389 0.033752
0.007096 -0.042586 0.032843
-0.003764 -0.045732 0.033236
0.018315 -0.044666 0.032839
-0.011160 -0.051052 0.031913
0.022117 -0.039842 0.033377
-0.007079 -0.047522 0.033946
0.006482 -0.034962 0.032590
-0.005535 -0.052911 0.033281
-0.004863 -0.040258 0.033457
-0.007872 -0.043257 0.031434
0.001714 -0.054292 0.031849
0.012167 -0.045059 0.033220
0.008385 -0.053513 0.031322
0.008087 -0.039086 0.033128
-0.007866 -0.036872 0.032696
0.000561 -0.047895 0.034018
0.009553 -0.050014 0.032302
0.002498 -0.044945 0.033227
-0.000675 -0.042832 0.033348
0.021401 -0.048225 0.033278
-0.043282 -0.009317 0.011222
-0.061231 -0.013964 0.019574
-0.057721 -0.013304 0.019216
-0.043208 -0.019117 0.026093
-0.032363 -0.012591 0.020087
-0.063087 -0.011374 0.016195
-0.036711 -0.009920 0.013444
-0.041014 -0.007914 0.007488
-0.042606 -0.012275 0.017698
-0.033556 -0.008561 0.009655
-0.047251 -0.012815 0.019146
-0.044385 -0.010224 0.015915
-0.037477 -0.014986 0.021619
-0.050989 -0.010108 0.013924
-0.029896 -0.015320 0.022681
-0.057012 -0.016695 0.023895
-0.025151 -0.011842 0.018616
-0.057768 -0.008816 0.011602
-0.039751 -0.013094 0.017189
-0.048698 -0.008324 0.011855
-0.053905 -0.013438 0.019343
-0.051447 -0.019730 0.025694
-0.048969 -0.012291 0.020071
-0.033600 -0.012517 0.018164
-0.045413 -0.015547 0.023523
-0.048773 -0.011496 0.015973
-0.055072 -0.010951 0.014259
-0.051350 -0.008269 0.007928
-0.037065 -0.018432 0.025566
-0.044279 -0.015387 0.021896
-0.050721 -0.017100 0.023414
-0.029238 -0.009677 0.014103
-0.097094 -0.013603 -0.014889
-0.128591 -0.015617 -0.018571
-0.125145 -0.023300 -0.024344
-0.085745 -0.015652 -0.017463
-0.050892 -0.039317 -0.029226
-0.133401 -0.030709 -0.026530
-0.062559 -0.014431 -0.016088
-0.060181 -0.032708 -0.027528
-0.083937 -0.035365 -0.029000
-0.057856 -0.019929 -0.021014
-0.100430 -0.034714 -0.028126
-0.076877 -0.029013 -0.026916
-0.074305 -0.021371 -0.023386
-0.103658 -0.025511 -0.025584
-0.048833 -0.021566 -0.023955
-0.119439 -0.035032 -0.029356
-0.036027 -0.017679 -0.020439
-0.112963 -0.029034 -0.025359
-0.076880 -0.011477 -0.013300
-0.109038 -0.040300 -0.028171
-0.104004 -0.018245 -0.021033
-0.112585 -0.019301 -0.023231
-0.090176 -0.042599 -0.030033
-0.062349 -0.024701 -0.025448
-0.071503 -0.042117 -0.031108
-0.076797 -0.016857 -0.019631
-0.112417 -0.013041 -0.014559
-0.091933 -0.030953 -0.026199
-0.069365 -0.031576 -0.027006
-0.087268 -0.023206 -0.025112
-0.094359 -0.019217 -0.021643
-0.039111 -0.031005 -0.026678
0.030347 -0.063209 0.039048
-0.013309 -0.066849 0.044386
-0.001739 -0.070800 0.041023
0.039230 -0.067646 0.056267
0.066490 -0.073452 0.037467
-0.018766 -0.072226 0.038374
0.058245 -0.064501 0.039876
0.053579 -0.075423 0.032884
0.038493 -0.071878 0.038068
0.065968 -0.070939 0.036418
0.022049 -0.073703 0.039485
0.045270 -0.070926 0.036354
0.050214 -0.070046 0.045981
0.018004 -0.070731 0.038414
0.073605 -0.070243 0.047857
0.004175 -0.070513 0.048844
0.087569 -0.069485 0.040934
0.002435 -0.071633 0.036426
0.046523 -0.062140 0.041802
0.008275 -0.073711 0.034531
0.016181 -0.068595 0.042969
0.016298 -0.069047 0.058985
0.029850 -0.074532 0.034981
0.062206 -0.071143 0.041626
0.046990 -0.072811 0.038799
0.037833 -0.067596 0.041293
0.008877 -0.062576 0.040799
0.029272 -0.074197 0.031613
0.056426 -0.068260 0.058401
0.033192 -0.070713 0.045999
0.025265 -0.066185 0.048437
0.079314 -0.072753 0.036658
-0.011104 -0.030136 0.032859
-0.024201 -0.032632 0.032862
-0.023250 -0.036945 0.033446
-0.007347 -0.032835 0.032124
0.007003 -0.044013 0.034713
-0.026335 -0.040574 0.034356
0.003825 -0.030618 0.032520
0.004348 -0.040160 0.035174
-0.006485 -0.043387 0.034057
0.005316 -0.033760 0.033695
-0.012482 -0.042423 0.033942
-0.003240 -0.039516 0.034724
-0.002314 -0.034820 0.032898
-0.014043 -0.038318 0.033992
0.008855 -0.037110 0.033199
-0.021281 -0.043004 0.033330
0.012559 -0.032793 0.033147
-0.017838 -0.039688 0.034595
-0.003163 -0.028886 0.031574
-0.015321 -0.044947 0.035072
-0.014283 -0.032827 0.033348
-0.017877 -0.035777 0.032326
-0.007815 -0.046366 0.034075
0.002369 -0.037097 0.033786
-0.001201 -0.045416 0.033153
-0.001871 -0.032026 0.032758
-0.018990 -0.029929 0.031935
-0.009215 -0.039549 0.034811
0.000110 -0.042130 0.033235
-0.007092 -0.037054 0.033619
-0.010783 -0.035856 0.033287
0.011928 -0.040553 0.034155
-0.024003 -0.012384 0.017618
-0.039643 -0.014999 0.021675
-0.037717 -0.019091 0.025874
-0.021439 -0.016315 0.022134
-0.006600 -0.025124 0.032606
-0.041454 -0.022740 0.029961
-0.009770 -0.013037 0.018482
-0.009354 -0.019239 0.029302
-0.019792 -0.024666 0.030827
-0.004504 -0.014681 0.022398
-0.025499 -0.022683 0.029598
-0.016582 -0.019802 0.028350
-0.014398 -0.017051 0.024259
-0.027901 -0.018878 0.026828
-0.002348 -0.018620 0.026243
-0.036065 -0.025322 0.031149
0.002921 -0.015275 0.022879
-0.033675 -0.018672 0.027853
-0.016898 -0.012026 0.015167
-0.029823 -0.024612 0.032573
-0.031031 -0.014974 0.022066
-0.031808 -0.019959 0.025757
-0.023230 -0.027912 0.033647
-0.008575 -0.016790 0.025237
-0.015523 -0.027451 0.032299
-0.017243 -0.014426 0.019892
-0.033563 -0.012100 0.017119
-0.023758 -0.017679 0.027120
-0.013147 -0.023236 0.029567
-0.021869 -0.018901 0.026118
-0.027530 -0.017354 0.024158
0.000142 -0.021709 0.029591
0.073539 -0.065660 0.090091
0.036278 -0.066604 0.088890
0.045272 -0.072491 0.088748
0.085189 -0.065306 0.101876
0.096580 -0.089469 0.093038
0.034862 -0.084109 0.087087
0.089749 -0.065772 0.093365
0.093878 -0.083734 0.088965
0.083471 -0.086779 0.087855
0.094316 -0.069982 0.089108
0.069270 -0.085831 0.088290
0.085406 -0.078413 0.087207
0.088331 -0.070434 0.090111
0.068774 -0.073697 0.086507
0.097705 -0.071133 0.097470
0.055390 -0.086649 0.092845
0.099847 -0.069968 0.093149
0.053451 -0.078043 0.085885
0.082964 -0.062762 0.094068
0.059746 -0.090264 0.088551
0.061635 -0.067724 0.088974
0.065760 -0.072216 0.100319
0.075920 -0.094792 0.091228
0.095464 -0.075729 0.089512
0.089293 -0.093679 0.093114
0.082072 -0.068121 0.088880
0.052027 -0.063352 0.090856
0.072597 -0.078742 0.084441
0.093229 -0.082350 0.101966
0.080036 -0.074788 0.089501
0.071193 -0.066471 0.091577
0.097807 -0.078965 0.092760
0.005299 -0.043278 0.035374
-0.006515 -0.046030 0.033842
-0.005327 -0.050116 0.033159
0.008403 -0.046363 0.033321
0.022827 -0.056611 0.032503
-0.008561 -0.052699 0.033123
0.019095 -0.043647 0.034554
0.019645 -0.052907 0.034100
0.009464 -0.055692 0.032324
0.019999 -0.047221 0.034371
0.004028 -0.054818 0.032473
0.012437 -0.052319 0.033834
0.013166 -0.048464 0.033200
0.002906 -0.050986 0.033551
0.023597 -0.050404 0.033152
-0.004163 -0.055509 0.031476
0.027698 -0.046066 0.033977
-0.000079 -0.052507 0.033642
0.012150 -0.042033 0.034344
0.001703 -0.056854 0.032734
0.002612 -0.046306 0.034397
-0.001173 -0.048948 0.032220
0.008063 -0.058675 0.031427
0.017433 -0.050337 0.033526
0.014420 -0.057637 0.030739
0.013571 -0.045334 0.034378
-0.001031 -0.043208 0.034173
0.007195 -0.052738 0.034013
0.015386 -0.054374 0.031736
0.008772 -0.050367 0.033420
0.006036 -0.049285 0.033676
0.027168 -0.053095 0.033022
0.071244 -0.052862 0.063395
0.056155 -0.050794 0.085507
0.059716 -0.054353 0.090992
0.060693 -0.054442 0.092042
0.071139 -0.063174 0.077283
0.060217 -0.062478 0.084778
0.069399 -0.053741 0.070587
0.075599 -0.060822 0.059585
0.071667 -0.060647 0.074117
0.074619 -0.055774 0.064513
0.068598 -0.060905 0.080186
0.071875 -0.054600 0.068592
0.066221 -0.053378 0.081908
0.068935 -0.053011 0.073939
0.065882 -0.057162 0.085659
0.061812 -0.062997 0.093834
0.071641 -0.056751 0.073314
0.065855 -0.053385 0.073629
0.064163 -0.053276 0.079245
0.069151 -0.062716 0.069883
0.064863 -0.051787 0.078618
0.060078 -0.054721 0.098138
0.067243 -0.064541 0.076164
0.069175 -0.055899 0.079363
0.062892 -0.063414 0.084956
0.068431 -0.053817 0.075338
0.062243 -0.051956 0.074622
0.071610 -0.055664 0.064740
0.066810 -0.062252 0.086690
0.064499 -0.055164 0.084962
0.061246 -0.052469 0.088209
0.074489 -0.060492 0.068299
0.007715 -0.071005 0.021882
-0.023070 -0.073212 0.032108
-0.015981 -0.079282 0.028936
0.015982 -0.069428 0.035929
0.037624 -0.082616 0.022480
-0.026285 -0.082469 0.024812
0.031031 -0.070733 0.029812
0.026756 -0.085753 0.008045
0.013898 -0.082168 0.023336
0.033971 -0.078875 0.016079
0.001661 -0.084167 0.024851
0.021292 -0.082805 0.019264
0.021503 -0.077361 0.031706
-0.002914 -0.079900 0.023660
0.041394 -0.074542 0.033264
-0.008191 -0.080444 0.027673
0.052250 -0.076643 0.028961
-0.013564 -0.082639 0.019010
0.020719 -0.068448 0.032516
-0.008320 -0.083502 0.010916
-0.001284 -0.074242 0.031960
-0.004103 -0.075613 0.034045
0.008962 -0.083034 0.014787
0.034577 -0.079986 0.029372
0.022100 -0.081983 0.023658
0.016641 -0.073858 0.029784
-0.007419 -0.069101 0.031121
0.006763 -0.083885 0.004472
0.028231 -0.076378 0.033769
0.009236 -0.079122 0.030550
0.006440 -0.071071 0.034312
0.046845 -0.083023 0.021211
-0.004077 -0.054888 0.036433
-0.027211 -0.058436 0.034776
-0.025078 -0.067037 0.032815
0.003333 -0.058512 0.034447
0.031095 -0.078063 0.026957
-0.031437 -0.072161 0.030413
0.022501 -0.056629 0.035229
0.023638 -0.077523 0.025393
0.004138 -0.076383 0.027362
0.025329 -0.063103 0.033037
-0.006159 -0.075310 0.029414
0.009899 -0.072555 0.031184
0.012283 -0.065490 0.032977
-0.008185 -0.067783 0.032384
0.030908 -0.065865 0.033030
-0.020546 -0.075834 0.027346
0.041355 -0.061297 0.034350
-0.015221 -0.072002 0.031341
0.010801 -0.055310 0.035141
-0.014580 -0.078867 0.023722
-0.007841 -0.060677 0.035089
-0.017310 -0.064349 0.032083
0.001492 -0.080128 0.022158
0.022483 -0.068834 0.032613
0.015187 -0.078680 0.023868
0.013597 -0.059396 0.034432
-0.015172 -0.055171 0.035238
-0.002830 -0.074312 0.020988
0.015739 -0.072040 0.029789
0.001418 -0.068299 0.032457
-0.000559 -0.063221 0.033857
0.038055 -0.072841 0.031097
-0.000538 -0.020819 0.027439
-0.014839 -0.023471 0.029235
-0.014133 -0.027682 0.031285
0.003314 -0.023610 0.028211
0.018299 -0.035439 0.035020
-0.016685 -0.032106 0.033607
0.015617 -0.021126 0.027462
0.016081 -0.031192 0.034702
0.004160 -0.035086 0.034189
0.018074 -0.024430 0.030544
-0.002267 -0.033887 0.033485
0.007800 -0.030822 0.033600
0.008948 -0.025647 0.030265
-0.004074 -0.029371 0.032377
0.021660 -0.027748 0.031177
-0.011758 -0.034529 0.033554
0.025940 -0.023721 0.029876
-0.007999 -0.030762 0.033673
0.007894 -0.019408 0.025590
-0.005577 -0.036955 0.035686
-0.005505 -0.023740 0.029583
-0.008028 -0.026692 0.029804
0.002257 -0.038136 0.035081
0.014669 -0.027502 0.031648
0.009697 -0.037200 0.033877
0.009401 -0.022745 0.028356
-0.009396 -0.020662 0.026836
0.001437 -0.030540 0.034189
0.011094 -0.033506 0.032872
0.003288 -0.027669 0.031394
-0.001245 -0.026251 0.030526
0.024742 -0.032169 0.033723
0.047617 -0.050764 0.041353
0.012920 -0.052072 0.067946
0.024205 -0.050835 0.060570
0.048917 -0.051652 0.079255
0.065213 -0.053162 0.054954
0.009794 -0.051137 0.054713
0.059366 -0.051201 0.050304
0.053918 -0.050599 0.031385
0.051019 -0.049984 0.053951
0.062339 -0.051018 0.040517
0.039235 -0.050286 0.056143
0.052621 -0.050224 0.047457
0.057095 -0.050683 0.071236
0.036133 -0.050229 0.048217
0.068596 -0.052420 0.070207
0.026915 -0.050205 0.074954
0.072520 -0.051654 0.060546
0.019584 -0.050617 0.043444
0.056686 -0.051544 0.059694
0.031707 -0.048615 0.040591
0.036070 -0.050315 0.066134
0.036401 -0.051060 0.082684
0.044460 -0.054161 0.049542
0.063743 -0.050198 0.063407
0.052205 -0.054015 0.064261
0.043183 -0.050295 0.061641
0.029749 -0.051450 0.053053
0.037723 -0.050449 0.030372
0.061429 -0.050925 0.080687
0.047947 -0.050414 0.069682
0.040809 -0.051750 0.073750
0.070295 -0.051431 0.047237
-0.062277 -0.048070 -0.027838
-0.091922 -0.053907 -0.027209
-0.088395 -0.063023 -0.024895
-0.054881 -0.054380 -0.026247
-0.023969 -0.075628 -0.017047
-0.095347 -0.068803 -0.021594
-0.030887 -0.048907 -0.028071
-0.030801 -0.067847 -0.021444
-0.050636 -0.072993 -0.019722
-0.025459 -0.056338 -0.025617
-0.065004 -0.071670 -0.020447
-0.046268 -0.067447 -0.022868
-0.042977 -0.059456 -0.025851
-0.067338 -0.064436 -0.023931
-0.019646 -0.063048 -0.025024
-0.083779 -0.074532 -0.019502
-0.008494 -0.055466 -0.026016
-0.078652 -0.065952 -0.023415
-0.047195 -0.046490 -0.028228
-0.073199 -0.073448 -0.017233
-0.073938 -0.054919 -0.026427
-0.075591 -0.062445 -0.026089
-0.059455 -0.076974 -0.013932
-0.033391 -0.062686 -0.025311
-0.041781 -0.077535 -0.016387
-0.044526 -0.053375 -0.028042
-0.080693 -0.048285 -0.028527
-0.059621 -0.064903 -0.024113
-0.038845 -0.072383 -0.021198
-0.054863 -0.062977 -0.024637
-0.063551 -0.058487 -0.026107
-0.011642 -0.069339 -0.021102
0.068208 -0.051778 0.057826
0.049345 -0.050564 0.081217
0.053837 -0.050344 0.076986
0.062800 -0.053569 0.089827
0.073974 -0.054067 0.069122
0.050620 -0.049700 0.072104
0.071129 -0.053464 0.064036
0.069550 -0.051856 0.050385
0.068449 -0.052588 0.068985
0.074101 -0.053338 0.056230
0.062859 -0.051892 0.071125
0.067723 -0.051567 0.062857
0.067216 -0.053331 0.082097
0.059816 -0.050146 0.064902
0.072429 -0.056845 0.081648
0.054670 -0.051076 0.086928
0.076221 -0.056610 0.073337
0.054624 -0.049384 0.062455
0.067161 -0.053283 0.073816
0.062672 -0.049996 0.060065
0.058461 -0.050618 0.078347
0.057753 -0.052296 0.092845
0.065601 -0.050254 0.067434
0.071375 -0.053955 0.076313
0.064876 -0.051225 0.076682
0.060938 -0.051116 0.074111
0.056895 -0.050972 0.068307
0.060923 -0.050294 0.053473
0.068901 -0.054891 0.088065
0.062302 -0.052290 0.081944
0.059405 -0.052905 0.085145
0.076981 -0.055953 0.061921
0.011087 -0.049844 0.035573
-0.006365 -0.052792 0.033544
-0.004635 -0.057969 0.032223
0.015809 -0.053360 0.032382
0.035700 -0.066534 0.030172
-0.009357 -0.061475 0.031538
0.029480 -0.050747 0.034373
0.031199 -0.061933 0.032505
0.017345 -0.065138 0.030036
0.031578 -0.054491 0.034040
0.009092 -0.063918 0.030532
0.021222 -0.060673 0.032461
0.022595 -0.055958 0.032062
0.007717 -0.058933 0.032111
0.036063 -0.058380 0.031741
-0.002906 -0.065093 0.028962
0.041329 -0.052990 0.033390
0.002785 -0.061222 0.032447
0.021310 -0.049108 0.034064
0.005017 -0.066723 0.030414
0.007415 -0.053128 0.033781
0.001616 -0.056173 0.030582
0.014663 -0.068683 0.028510
0.028644 -0.058395 0.032264
0.024190 -0.067629 0.027858
0.022498 -0.052456 0.033967
0.001951 -0.050149 0.033953
0.013823 -0.061131 0.032509
0.025552 -0.063190 0.029290
0.016457 -0.058149 0.032051
0.012195 -0.056513 0.032673
0.040556 -0.061695 0.031601
-0.008078 -0.010527 0.014924
-0.026329 -0.013948 0.020197
-0.023632 -0.017714 0.024988
-0.005424 -0.016703 0.022523
0.010264 -0.022783 0.031764
-0.028420 -0.020264 0.028512
0.006309 -0.011343 0.016232
0.005612 -0.015059 0.025007
-0.004244 -0.021904 0.029416
0.012935 -0.011983 0.019369
-0.010905 -0.020029 0.027662
-0.001288 -0.016409 0.025789
0.002299 -0.016297 0.023053
-0.013131 -0.015947 0.024369
0.014975 -0.017383 0.025185
-0.022140 -0.023527 0.030356
0.021749 -0.013697 0.021406
-0.020827 -0.015174 0.024682
-0.000681 -0.011371 0.013060
-0.015754 -0.020001 0.030041
-0.017454 -0.013938 0.020183
-0.016686 -0.020412 0.026073
-0.009388 -0.025163 0.032949
0.008867 -0.014778 0.022903
-0.000416 -0.025576 0.031642
-0.003412 -0.013287 0.017501
-0.018956 -0.010885 0.014748
-0.010065 -0.013461 0.022632
0.003530 -0.021703 0.029003
-0.007170 -0.017573 0.024956
-0.013615 -0.016630 0.023077
0.017429 -0.018170 0.027217
-0.027422 -0.008446 0.002114
-0.047637 -0.010293 0.012529
-0.043864 -0.008906 0.009932
-0.029209 -0.014001 0.020071
-0.016717 -0.007767 0.007690
-0.048815 -0.007805 0.006003
-0.021059 -0.007987 0.004357
-0.026575 -0.008481 -0.003358
-0.026868 -0.008204 0.007350
-0.018822 -0.007436 -0.000503
-0.032211 -0.009058 0.009309
-0.029648 -0.008003 0.006026
-0.022509 -0.011083 0.014896
-0.038313 -0.008121 0.003959
-0.014651 -0.010862 0.015424
-0.042290 -0.011353 0.016375
-0.009652 -0.008536 0.010683
-0.043765 -0.007343 0.001572
-0.025167 -0.010019 0.011110
-0.033409 -0.007110 0.000319
-0.039932 -0.010188 0.013448
-0.037071 -0.013982 0.018625
-0.033425 -0.007567 0.006019
-0.018847 -0.009362 0.011315
-0.031434 -0.008891 0.012866
-0.035792 -0.008939 0.009920
-0.041039 -0.008939 0.006547
-0.036908 -0.008270 -0.002405
-0.022038 -0.013116 0.019076
-0.028417 -0.011196 0.015843
-0.034523 -0.012519 0.016596
-0.012570 -0.007558 0.003673
0.010315 -0.023013 0.028604
-0.002198 -0.025754 0.030224
-0.001611 -0.029702 0.031924
0.013751 -0.025753 0.029109
0.028020 -0.037083 0.034940
-0.004049 -0.033797 0.033798
0.025334 -0.023431 0.028676
0.025616 -0.032904 0.034719
0.014601 -0.036778 0.034051
0.027408 -0.026635 0.031111
0.008815 -0.035394 0.033556
0.018026 -0.032704 0.033821
0.018790 -0.027700 0.030842
0.007093 -0.031273 0.032756
0.030818 -0.029796 0.031695
0.000375 -0.036178 0.033699
0.034790 -0.025911 0.030574
0.003723 -0.032617 0.033776
0.018125 -0.021759 0.027147
0.006054 -0.038311 0.035443
0.006356 -0.025772 0.030565
0.003630 -0.028747 0.030656
0.013166 -0.039808 0.035005
0.023950 -0.029463 0.032150
0.019843 -0.038708 0.033822
0.019434 -0.024773 0.029450
0.002349 -0.022808 0.028183
0.012199 -0.032461 0.034307
0.021218 -0.035155 0.033067
0.013885 -0.029716 0.031887
0.010001 -0.028545 0.031138
0.033957 -0.033990 0.033745
-0.026891 -0.049765 -0.031837
-0.085884 -0.063177 -0.022802
-0.068843 -0.075192 -0.012150
-0.012715 -0.059995 0.007897
0.019411 -0.082883 -0.011309
-0.084069 -0.076508 -0.017702
0.014927 -0.047476 -0.028831
0.003177 -0.075115 -0.020354
-0.011029 -0.079489 -0.017536
0.026544 -0.059652 -0.030088
-0.040319 -0.079795 -0.016976
-0.008085 -0.068288 -0.026262
0.001361 -0.067359 -0.017001
-0.038816 -0.066123 -0.025996
0.033873 -0.067581 -0.004007
-0.055685 -0.082888 0.001697
0.054551 -0.060977 -0.025882
-0.065027 -0.066543 -0.026085
-0.011272 -0.044988 -0.024187
-0.053298 -0.074557 -0.016212
-0.053761 -0.063778 -0.025789
-0.044594 -0.074425 0.013448
-0.029549 -0.081040 -0.009464
0.017862 -0.070300 -0.023511
-0.008211 -0.084226 0.001086
-0.017599 -0.058231 -0.030518
-0.061125 -0.048253 -0.029401
-0.030097 -0.066258 -0.026674
0.007583 -0.078597 0.013404
-0.027927 -0.076394 -0.012787
-0.043879 -0.058652 -0.012426
0.034536 -0.073258 -0.021635
0.026017 -0.042517 0.035122
0.014018 -0.045545 0.033871
0.015168 -0.049709 0.033200
0.029056 -0.045813 0.033260
0.043178 -0.056366 0.032581
0.011776 -0.052448 0.033278
0.039558 -0.042889 0.034420
0.040197 -0.052559 0.034052
0.030225 -0.055662 0.032339
0.040324 -0.046652 0.034264
0.024908 -0.054622 0.032542
0.033088 -0.051999 0.033761
0.033772 -0.047962 0.033183
0.023653 -0.050647 0.033451
0.043898 -0.049937 0.033163
0.016332 -0.055505 0.031672
0.047750 -0.045445 0.033908
0.020554 -0.052251 0.033609
0.032754 -0.041202 0.034220
0.022436 -0.056974 0.032732
0.023315 -0.045804 0.034274
0.019551 -0.048505 0.032337
0.028663 -0.058962 0.031573
0.037861 -0.049945 0.033498
0.035049 -0.057724 0.030932
0.034285 -0.044750 0.034254
0.019541 -0.042444 0.034048
0.028026 -0.052380 0.033972
0.035870 -0.054208 0.031805
0.029531 -0.049897 0.033347
0.026712 -0.048811 0.033628
0.047348 -0.052719 0.032972
0.036109 -0.058198 0.035671
0.010408 -0.060592 0.032281
0.014445 -0.068506 0.029969
0.045493 -0.062050 0.031396
0.076261 -0.079275 0.023693
0.005356 -0.073690 0.028080
0.065638 -0.060103 0.032878
0.068155 -0.077554 0.027083
0.046504 -0.077863 0.024877
0.069288 -0.065600 0.032494
0.035024 -0.077658 0.026306
0.052650 -0.073925 0.028410
0.054940 -0.067588 0.030495
0.032308 -0.069674 0.029676
0.077887 -0.068593 0.029176
0.017052 -0.077808 0.024310
0.088113 -0.063951 0.031553
0.025211 -0.074713 0.029873
0.052969 -0.059732 0.033223
0.025883 -0.080013 0.024148
0.032137 -0.063134 0.032365
0.022470 -0.066504 0.029260
0.042313 -0.080527 0.020800
0.065630 -0.070358 0.029370
0.058007 -0.080338 0.020864
0.055755 -0.062540 0.032332
0.024307 -0.059017 0.033426
0.039852 -0.076348 0.025651
0.059720 -0.075282 0.026065
0.043922 -0.069804 0.029272
0.039792 -0.065862 0.031299
0.085269 -0.075761 0.028011
-0.004040 -0.068433 -0.025032
-0.034187 -0.083523 -0.009845
-0.025224 -0.084894 -0.010372
0.002838 -0.082611 0.004269
0.020022 -0.083152 -0.010739
-0.034355 -0.082142 -0.014901
0.019148 -0.070226 -0.020167
0.010670 -0.078834 -0.023111
0.004957 -0.082877 -0.013538
0.024607 -0.077752 -0.024183
-0.010601 -0.083978 -0.012441
0.006366 -0.079752 -0.020297
0.011962 -0.083178 -0.005600
-0.012815 -0.080407 -0.018534
0.028454 -0.083431 -0.001384
-0.021142 -0.084913 0.000393
0.037711 -0.080327 -0.012272
-0.025709 -0.077667 -0.022494
0.005898 -0.066414 -0.012551
-0.017161 -0.080043 -0.019242
-0.017496 -0.082830 -0.011709
-0.010821 -0.084221 0.006428
-0.005052 -0.084047 -0.011493
0.019594 -0.082103 -0.010798
0.006130 -0.085641 -0.003932
-0.001820 -0.080654 -0.015085
-0.022913 -0.069071 -0.017978
-0.007162 -0.076443 -0.025129
0.015767 -0.083790 0.005829
-0.004073 -0.083658 -0.005501
-0.012929 -0.081406 -0.003604
0.028937 -0.080066 -0.016891
-0.003285 -0.070153 -0.024894
-0.033530 -0.083804 -0.010227
-0.024755 -0.084687 -0.011119
0.003026 -0.083853 0.003107
0.021043 -0.082903 -0.010609
-0.034228 -0.081948 -0.015358
0.019087 -0.072432 -0.020424
0.010933 -0.078319 -0.023682
0.005626 -0.082635 -0.013722
0.025161 -0.077923 -0.024041
-0.009926 -0.083688 -0.012862
0.006646 -0.079838 -0.020251
0.012747 -0.083337 -0.006078
-0.012328 -0.080352 -0.018721
0.028916 -0.083855 -0.002188
-0.021355 -0.084788 -0.000374
0.038330 -0.080502 -0.012180
-0.025615 -0.077577 -0.022682
0.007086 -0.068870 -0.013366
-0.016770 -0.079723 -0.019460
-0.017155 -0.083275 -0.011721
-0.010533 -0.084544 0.005569
-0.004878 -0.083748 -0.011337
0.020143 -0.082088 -0.011211
0.006581 -0.085429 -0.004444
-0.001794 -0.081362 -0.015099
-0.022013 -0.071237 -0.018212
-0.007510 -0.076191 -0.025582
0.016343 -0.083822 0.005164
-0.003034 -0.083494 -0.006199
-0.012033 -0.082826 -0.004399
0.029834 -0.079866 -0.016818
0.024773 -0.023337 0.028791
0.012319 -0.026282 0.030331
0.012858 -0.030499 0.031955
0.028162 -0.025984 0.029286
0.041876 -0.038252 0.034777
0.010460 -0.034811 0.033755
0.039260 -0.023670 0.028885
0.039727 -0.034040 0.034569
0.029208 -0.038009 0.033956
0.040939 -0.027273 0.031189
0.023651 -0.036537 0.033621
0.032469 -0.033653 0.033824
0.033159 -0.028086 0.030949
0.021860 -0.032096 0.032691
0.044367 -0.030469 0.031890
0.015073 -0.037500 0.033593
0.047619 -0.026297 0.030706
0.018415 -0.033615 0.033747
0.032218 -0.021867 0.027440
0.020919 -0.039938 0.035258
0.021118 -0.026172 0.030745
0.018149 -0.029175 0.030640
0.027786 -0.041481 0.034782
0.037883 -0.030432 0.032228
0.034229 -0.040150 0.033721
0.033884 -0.025152 0.029642
0.016908 -0.023033 0.028419
0.026838 -0.033441 0.034163
0.035340 -0.036152 0.033037
0.028506 -0.030287 0.031927
0.024664 -0.029060 0.031278
0.047100 -0.034844 0.033571
0.082080 -0.056277 0.047521
0.067712 -0.057388 0.071609
0.070345 -0.063442 0.076084
0.074109 -0.053250 0.082216
0.080039 -0.064870 0.060984
0.067104 -0.067686 0.066036
0.080694 -0.053917 0.056991
0.085263 -0.065903 0.038081
0.081386 -0.064317 0.056449
0.084400 -0.058849 0.050557
0.078676 -0.065185 0.061767
0.082362 -0.062002 0.049649
0.079106 -0.058011 0.066598
0.080015 -0.059727 0.056553
0.076958 -0.058636 0.074812
0.071018 -0.065651 0.082317
0.082075 -0.058630 0.058685
0.074608 -0.064391 0.056651
0.077235 -0.051352 0.066948
0.076445 -0.067546 0.048628
0.077927 -0.055167 0.063395
0.072742 -0.060018 0.088428
0.073818 -0.067787 0.057341
0.080538 -0.061558 0.066990
0.071918 -0.065976 0.068390
0.079873 -0.054598 0.063663
0.074883 -0.052351 0.060965
0.080743 -0.065504 0.044257
0.076723 -0.062769 0.077251
0.076509 -0.061514 0.067993
0.076563 -0.053112 0.074286
0.082801 -0.062424 0.052240
0.031975 -0.061008 0.034927
0.006260 -0.062791 0.032754
0.010379 -0.070932 0.029712
0.041027 -0.062114 0.033046
0.068800 -0.079713 0.020746
0.001982 -0.076020 0.026045
0.059824 -0.062547 0.033259
0.060421 -0.081325 0.020664
0.040826 -0.079058 0.022575
0.062815 -0.068792 0.029792
0.030789 -0.078957 0.024708
0.047298 -0.076243 0.026214
0.049726 -0.070027 0.030368
0.027527 -0.071889 0.028937
0.070125 -0.067872 0.030186
0.015858 -0.077496 0.023252
0.080613 -0.067031 0.030942
0.020158 -0.076262 0.027543
0.048770 -0.061740 0.034530
0.020536 -0.081594 0.018188
0.029507 -0.065524 0.032651
0.018330 -0.067181 0.030818
0.038379 -0.082226 0.015826
0.061151 -0.073014 0.028606
0.052356 -0.081027 0.018253
0.050226 -0.065062 0.032133
0.021211 -0.060101 0.034539
0.033266 -0.079218 0.016278
0.053080 -0.073532 0.026008
0.037561 -0.072076 0.028536
0.036214 -0.066269 0.032103
0.075711 -0.076846 0.026362
0.060139 -0.067532 0.038767
0.020637 -0.067323 0.059814
0.032490 -0.067108 0.052840
0.061511 -0.065426 0.067953
0.077018 -0.065737 0.048829
0.018590 -0.068476 0.047172
0.072240 -0.066658 0.046594
0.069830 -0.068742 0.032553
0.063306 -0.067147 0.048133
0.075905 -0.066990 0.037461
0.050711 -0.068525 0.048690
0.067453 -0.067455 0.042818
0.067896 -0.065300 0.061154
0.047302 -0.067770 0.043201
0.078070 -0.064500 0.060706
0.035926 -0.065999 0.062212
0.082425 -0.064414 0.052312
0.030483 -0.068348 0.040773
0.070255 -0.066469 0.052668
0.042115 -0.068077 0.038138
0.045953 -0.066595 0.057071
0.044689 -0.065446 0.069948
0.057753 -0.067459 0.043879
0.076087 -0.066171 0.055560
0.064752 -0.066581 0.053830
0.057174 -0.066363 0.054067
0.039372 -0.066933 0.048262
0.052690 -0.068691 0.030839
0.072017 -0.064148 0.068069
0.058118 -0.066218 0.060112
0.052008 -0.066011 0.063574
0.080448 -0.066342 0.042422
0.028087 -0.060315 0.032566
0.000634 -0.062898 0.032834
0.005030 -0.071386 0.029434
0.037597 -0.061439 0.033597
0.061475 -0.079431 0.022458
-0.003072 -0.077279 0.026049
0.054959 -0.061297 0.034220
0.054433 -0.081784 0.019545
0.036455 -0.079325 0.023284
0.056381 -0.068797 0.027761
0.026323 -0.079367 0.024788
0.042405 -0.077205 0.026491
0.044740 -0.070680 0.030148
0.023679 -0.073177 0.029055
0.062882 -0.067460 0.031423
0.012649 -0.078596 0.022722
0.073285 -0.067120 0.031574
0.015001 -0.076389 0.026243
0.043487 -0.059544 0.034770
0.017309 -0.081143 0.017595
0.024071 -0.065799 0.032838
0.013901 -0.068179 0.030352
0.033800 -0.082586 0.017260
0.055988 -0.073839 0.028689
0.047909 -0.081226 0.019456
0.046476 -0.065534 0.032131
0.016081 -0.059291 0.034656
0.029707 -0.077822 0.013244
0.048201 -0.073207 0.026344
0.033729 -0.073107 0.028040
0.032364 -0.066172 0.031972
0.067814 -0.076745 0.028126
0.015819 -0.012407 0.016730
-0.001277 -0.014661 0.020801
0.001192 -0.019133 0.025585
0.018555 -0.016790 0.021956
0.033118 -0.025062 0.032841
-0.003451 -0.022470 0.029717
0.029629 -0.013062 0.017781
0.030520 -0.018719 0.028715
0.020244 -0.024372 0.030624
0.035497 -0.014638 0.021704
0.014664 -0.022415 0.029284
0.023238 -0.019354 0.027822
0.025936 -0.016980 0.023970
0.011687 -0.018428 0.026234
0.037624 -0.018957 0.026346
0.002585 -0.025336 0.031017
0.042339 -0.015431 0.022661
0.004862 -0.018060 0.027016
0.022795 -0.012141 0.014238
0.009698 -0.024215 0.032351
0.008248 -0.014657 0.021389
0.007629 -0.020404 0.025654
0.016122 -0.027904 0.033765
0.031691 -0.016775 0.024871
0.024039 -0.027693 0.032556
0.022129 -0.014352 0.019386
0.005152 -0.011801 0.016135
0.015548 -0.016764 0.026059
0.026731 -0.023118 0.029564
0.018020 -0.018577 0.025716
0.011834 -0.017404 0.023723
0.039747 -0.021478 0.029381
-0.017883 -0.039633 -0.034071
-0.094542 -0.057180 -0.025844
-0.073626 -0.068423 -0.014193
0.000413 -0.055594 0.010465
0.040757 -0.074850 -0.019382
-0.095812 -0.067003 -0.023879
0.033204 -0.036144 -0.032362
0.021266 -0.070218 -0.024085
0.000650 -0.071256 -0.024627
0.048987 -0.053649 -0.033432
-0.035189 -0.072105 -0.023050
0.006511 -0.059224 -0.032166
0.018658 -0.060512 -0.019363
-0.033653 -0.057982 -0.032397
0.059386 -0.062667 -0.003300
-0.058123 -0.074243 0.003077
0.082047 -0.053999 -0.029536
-0.066703 -0.060318 -0.028587
0.002144 -0.033167 -0.026150
-0.053098 -0.066975 -0.021752
-0.052817 -0.058038 -0.029701
-0.039754 -0.068267 0.014779
-0.020165 -0.071639 -0.016999
0.039624 -0.063223 -0.028578
0.006510 -0.075363 -0.002085
-0.007185 -0.050764 -0.034637
-0.062815 -0.037179 -0.032503
-0.017389 -0.059529 -0.027744
0.027992 -0.070277 0.014204
-0.018680 -0.070306 -0.011159
-0.040284 -0.049626 -0.010264
0.060488 -0.066279 -0.026997
0.072749 -0.052547 0.037875
0.057330 -0.051388 0.054786
0.061655 -0.051141 0.050504
0.070054 -0.053003 0.062118
0.078676 -0.052121 0.046906
0.057368 -0.050733 0.047045
0.075626 -0.053067 0.042611
0.072704 -0.051439 0.031479
0.073151 -0.051918 0.046191
0.078188 -0.052379 0.036585
0.068991 -0.051632 0.047664
0.072013 -0.051573 0.042430
0.074550 -0.052479 0.056419
0.065124 -0.051037 0.042058
0.080032 -0.053787 0.056353
0.062952 -0.050904 0.059108
0.083683 -0.053688 0.050247
0.060702 -0.050286 0.040022
0.073256 -0.053794 0.050070
0.068040 -0.050348 0.038770
0.065502 -0.051229 0.053741
0.065640 -0.051862 0.063982
0.069309 -0.050371 0.044277
0.077629 -0.052511 0.052102
0.069741 -0.050744 0.051625
0.066940 -0.051551 0.049716
0.063804 -0.052225 0.044808
0.065712 -0.050911 0.032679
0.075688 -0.052637 0.062102
0.069926 -0.052044 0.056370
0.067486 -0.053004 0.058453
0.081962 -0.053086 0.041502
-0.060185 -0.015846 -0.016528
-0.091715 -0.011022 -0.006344
-0.087634 -0.012786 -0.011373
-0.053463 -0.008602 -0.000884
-0.024331 -0.016092 -0.018278
-0.096479 -0.015891 -0.016467
-0.037981 -0.012902 -0.013287
-0.041366 -0.024292 -0.024525
-0.053928 -0.013975 -0.016740
-0.031984 -0.018286 -0.018375
-0.067010 -0.016386 -0.018153
-0.044657 -0.016646 -0.018632
-0.041952 -0.009627 -0.008050
-0.073844 -0.014817 -0.016601
-0.023056 -0.010421 -0.005883
-0.081041 -0.008821 -0.010144
-0.011981 -0.011764 -0.010879
-0.084505 -0.018381 -0.019557
-0.042256 -0.011567 -0.009442
-0.077906 -0.021797 -0.022989
-0.070336 -0.010684 -0.009756
-0.074508 -0.008400 -0.002887
-0.058915 -0.018538 -0.021495
-0.027646 -0.011684 -0.010412
-0.048391 -0.013716 -0.018978
-0.057331 -0.011184 -0.009544
-0.077646 -0.012156 -0.010514
-0.063609 -0.024690 -0.025596
-0.036892 -0.008124 -0.003738
-0.054247 -0.010139 -0.008630
-0.062452 -0.010155 -0.005923
-0.016450 -0.018339 -0.018305
-0.012081 -0.012074 -0.009647
-0.039518 -0.008664 0.001894
-0.033998 -0.008844 -0.000325
-0.011268 -0.009995 0.009818
0.008306 -0.009175 -0.004195
-0.041528 -0.008760 -0.004768
0.000747 -0.010391 -0.006278
-0.005385 -0.014296 -0.013964
-0.009518 -0.008862 -0.003175
0.004542 -0.012382 -0.010970
-0.018730 -0.009461 -0.003580
-0.007114 -0.010736 -0.006566
-0.002502 -0.008739 0.005001
-0.025384 -0.010431 -0.006739
0.010562 -0.009688 0.004930
-0.030898 -0.008474 0.006071
0.018517 -0.009158 0.000484
-0.034313 -0.011204 -0.009886
-0.004570 -0.009270 0.000320
-0.024567 -0.011776 -0.011259
-0.025824 -0.008773 0.003273
-0.023697 -0.009936 0.008621
-0.015404 -0.010329 -0.007809
0.004729 -0.008914 0.001349
-0.010298 -0.007849 0.000015
-0.018765 -0.009111 0.000832
-0.029088 -0.009981 -0.003975
-0.020590 -0.014610 -0.014671
0.000259 -0.009768 0.009103
-0.011425 -0.008548 0.005488
-0.018501 -0.009930 0.005584
0.015478 -0.010820 -0.007170
-0.040749 -0.013503 -0.015060
-0.072077 -0.014212 -0.017072
-0.068418 -0.020526 -0.022672
-0.030045 -0.013618 -0.015715
0.004509 -0.033811 -0.027923
-0.076899 -0.026374 -0.025684
-0.007802 -0.013821 -0.015321
-0.005917 -0.029031 -0.027008
-0.028225 -0.029575 -0.027908
-0.002181 -0.018169 -0.020107
-0.044401 -0.029376 -0.027019
-0.021356 -0.024867 -0.025995
-0.018382 -0.018338 -0.022029
-0.048178 -0.022010 -0.024618
0.005659 -0.018433 -0.021710
-0.062538 -0.028550 -0.027992
0.019653 -0.016097 -0.018724
-0.058042 -0.025252 -0.024784
-0.020634 -0.011167 -0.012798
-0.053189 -0.034808 -0.027700
-0.047937 -0.016435 -0.020218
-0.056557 -0.016192 -0.021610
-0.034287 -0.036290 -0.029177
-0.006016 -0.021026 -0.023737
-0.016734 -0.035297 -0.030316
-0.022904 -0.015425 -0.018598
-0.056207 -0.012360 -0.013782
-0.036619 -0.027533 -0.025855
-0.013495 -0.025312 -0.025356
-0.031606 -0.020003 -0.023568
-0.038751 -0.016670 -0.019858
0.015488 -0.026969 -0.025213
-0.059396 -0.032154 -0.024995
-0.089586 -0.037176 -0.026742
-0.086276 -0.045557 -0.026893
-0.051257 -0.038289 -0.026672
-0.021149 -0.058109 -0.024393
-0.093912 -0.051958 -0.026290
-0.028878 -0.033632 -0.025584
-0.026569 -0.051004 -0.025496
-0.048764 -0.055625 -0.025626
-0.024565 -0.040149 -0.025344
-0.062693 -0.054596 -0.025735
-0.043179 -0.050071 -0.025763
-0.040310 -0.042444 -0.026250
-0.064691 -0.047390 -0.026701
-0.017941 -0.046773 -0.027494
-0.081555 -0.056427 -0.026283
-0.008680 -0.038777 -0.026008
-0.075167 -0.050487 -0.026031
-0.043458 -0.030394 -0.024916
-0.070188 -0.057806 -0.024042
-0.067170 -0.037913 -0.025990
-0.073461 -0.043966 -0.028171
-0.055406 -0.059823 -0.023056
-0.031893 -0.046586 -0.026795
-0.039764 -0.060169 -0.025019
-0.041356 -0.037368 -0.026424
-0.078126 -0.031694 -0.026149
-0.055683 -0.049420 -0.025955
-0.035790 -0.055450 -0.027271
-0.050700 -0.045668 -0.026629
-0.058873 -0.042574 -0.026495
-0.009400 -0.051635 -0.025619
0.045919 -0.033360 0.033593
0.032053 -0.036288 0.033199
0.033422 -0.040538 0.033290
0.049736 -0.036421 0.032577
0.063420 -0.047095 0.034076
0.029627 -0.043954 0.033977
0.060403 -0.033862 0.033222
0.060968 -0.043411 0.034886
0.050607 -0.046700 0.033558
0.061498 -0.037307 0.033949
0.044650 -0.045846 0.033486
0.053537 -0.042868 0.034462
0.054601 -0.038499 0.033078
0.043024 -0.041920 0.033650
0.065005 -0.040656 0.033244
0.035223 -0.046413 0.032824
0.068539 -0.036030 0.033473
0.038971 -0.043217 0.034191
0.053678 -0.032017 0.032588
0.041573 -0.048081 0.034365
0.042711 -0.036444 0.033625
0.038788 -0.039255 0.032284
0.048921 -0.049427 0.033471
0.058978 -0.040941 0.033722
0.055491 -0.048585 0.032685
0.055107 -0.035608 0.033435
0.037777 -0.033084 0.032533
0.047884 -0.042961 0.034652
0.056720 -0.045344 0.032728
0.050079 -0.040649 0.033539
0.046338 -0.039430 0.033512
0.067982 -0.043679 0.033685
0.041451 -0.031002 0.034244
0.026189 -0.034526 0.034403
0.027258 -0.039673 0.034432
0.045775 -0.034572 0.033329
0.063422 -0.047603 0.034646
0.024163 -0.043353 0.034837
0.058760 -0.032118 0.034059
0.060205 -0.042987 0.035611
0.047496 -0.047199 0.034077
0.061133 -0.035350 0.035154
0.039883 -0.045784 0.034290
0.050975 -0.042658 0.035236
0.052139 -0.036954 0.033853
0.038305 -0.040553 0.034584
0.064943 -0.039817 0.033772
0.029734 -0.046538 0.033611
0.069076 -0.034880 0.034361
0.033320 -0.042688 0.035039
0.051410 -0.030433 0.033369
0.036403 -0.049060 0.035103
0.038368 -0.034447 0.034564
0.033544 -0.037758 0.033583
0.045335 -0.050548 0.034184
0.057205 -0.039568 0.034446
0.053259 -0.049447 0.033170
0.052171 -0.033829 0.034102
0.032116 -0.030897 0.033529
0.043834 -0.042304 0.035481
0.054799 -0.045657 0.033373
0.046652 -0.039389 0.034370
0.042368 -0.037862 0.034061
0.068627 -0.043379 0.034719
0.062027 -0.043462 0.034929
0.043902 -0.046148 0.033256
0.046303 -0.050994 0.032445
0.066882 -0.047128 0.032096
0.088417 -0.058671 0.031614
0.041071 -0.053570 0.032645
0.082149 -0.044421 0.033781
0.084239 -0.053752 0.033606
0.068440 -0.057377 0.031250
0.085274 -0.047798 0.033985
0.059894 -0.056588 0.031605
0.072428 -0.053789 0.033159
0.074398 -0.049429 0.032550
0.058474 -0.051994 0.032798
0.090360 -0.051716 0.031797
0.047335 -0.057346 0.030630
0.096633 -0.046950 0.033243
0.053068 -0.054093 0.033251
0.073658 -0.043293 0.033156
0.055704 -0.058771 0.032427
0.058061 -0.046505 0.033578
0.052225 -0.049420 0.031185
0.065278 -0.060778 0.030921
0.080750 -0.050841 0.032601
0.075586 -0.060099 0.029875
0.074352 -0.046197 0.033597
0.052020 -0.043445 0.033377
0.064922 -0.054016 0.033705
0.077863 -0.056453 0.030520
0.067578 -0.051021 0.032308
0.063104 -0.050026 0.032646
0.095648 -0.054789 0.032538
-0.004945 -0.012060 -0.013723
-0.035253 -0.007430 0.000666
-0.029183 -0.008103 -0.003510
-0.002765 -0.008098 0.008858
0.020244 -0.008309 -0.009886
-0.038061 -0.008757 -0.008579
0.010085 -0.009030 -0.009993
0.005561 -0.017043 -0.018128
-0.001437 -0.008300 -0.007993
0.014346 -0.012794 -0.014657
-0.012196 -0.009448 -0.009144
0.002801 -0.010286 -0.012541
0.006833 -0.006799 0.002857
-0.018719 -0.010082 -0.010217
0.021255 -0.007246 0.002451
-0.025674 -0.005721 0.004129
0.031283 -0.007198 -0.003195
-0.029163 -0.012026 -0.013612
0.006069 -0.007381 -0.005095
-0.021144 -0.012612 -0.015651
-0.018567 -0.007778 0.000017
-0.016987 -0.007776 0.008340
-0.006167 -0.009906 -0.014200
0.016227 -0.007195 -0.002390
-0.000072 -0.005811 -0.005167
-0.009023 -0.007840 -0.002300
-0.022440 -0.009042 -0.006985
-0.011439 -0.017053 -0.019103
0.010553 -0.006907 0.008583
-0.002755 -0.006787 0.002911
-0.011484 -0.007646 0.004725
0.027675 -0.011309 -0.012711
0.074847 -0.052838 0.033490
0.059154 -0.051327 0.052014
0.063576 -0.051260 0.048676
0.072784 -0.053521 0.060779
0.081246 -0.054212 0.044442
0.059778 -0.051138 0.044151
0.077906 -0.053551 0.039631
0.075706 -0.052854 0.026424
0.075431 -0.053039 0.043573
0.080863 -0.053422 0.032482
0.070724 -0.052402 0.044600
0.074581 -0.052261 0.038366
0.076073 -0.053124 0.054714
0.067437 -0.051355 0.038983
0.081905 -0.055232 0.054962
0.065269 -0.051065 0.057331
0.085526 -0.055523 0.047840
0.062538 -0.050623 0.036693
0.075762 -0.054105 0.047520
0.069686 -0.051296 0.034610
0.067510 -0.051325 0.051160
0.068398 -0.052689 0.063186
0.072842 -0.051407 0.040988
0.079877 -0.053947 0.050112
0.072964 -0.051960 0.049516
0.069317 -0.051901 0.047461
0.065858 -0.052273 0.042062
0.067808 -0.051494 0.028030
0.077978 -0.053920 0.061143
0.071633 -0.052428 0.053671
0.069282 -0.053055 0.056562
0.084299 -0.055348 0.037264
0.058744 -0.075239 0.023800
0.036511 -0.074595 0.026477
0.040839 -0.078155 0.022219
0.063832 -0.071375 0.028572
0.081263 -0.079887 0.017588
0.031427 -0.080112 0.020160
0.074623 -0.074847 0.025496
0.073577 -0.083386 0.011839
0.063442 -0.080140 0.018634
0.077161 -0.079653 0.019592
0.056346 -0.081014 0.019051
0.068355 -0.080564 0.019274
0.069208 -0.076769 0.023606
0.050971 -0.079565 0.021817
0.083032 -0.074433 0.025019
0.045086 -0.077221 0.020974
0.091563 -0.076591 0.023682
0.045944 -0.081370 0.019294
0.068986 -0.071010 0.027625
0.048552 -0.081694 0.014002
0.053730 -0.076059 0.024415
0.047691 -0.073184 0.027528
0.060628 -0.081959 0.013416
0.078020 -0.078950 0.022113
0.070177 -0.080176 0.015870
0.065483 -0.076423 0.025008
0.048841 -0.072403 0.027883
0.058150 -0.083275 0.010830
0.073412 -0.073745 0.025522
0.060643 -0.077070 0.022596
0.059200 -0.074339 0.025987
0.087054 -0.080198 0.019049
0.044973 -0.038740 0.036614
0.022289 -0.043057 0.036314
0.024555 -0.050329 0.034738
0.050817 -0.043338 0.035018
0.076882 -0.060089 0.031748
0.018810 -0.054721 0.033795
0.069152 -0.040953 0.035998
0.071635 -0.056708 0.031267
0.052966 -0.059045 0.031481
0.073113 -0.045621 0.035171
0.042620 -0.057649 0.032807
0.057872 -0.054478 0.034139
0.059896 -0.048057 0.034559
0.040489 -0.051273 0.034545
0.077704 -0.049836 0.034396
0.028681 -0.058847 0.031682
0.086206 -0.044610 0.035593
0.032656 -0.054141 0.034215
0.058914 -0.039239 0.035920
0.036198 -0.061794 0.030501
0.040820 -0.044447 0.036022
0.032542 -0.047605 0.034175
0.049745 -0.063817 0.029104
0.067828 -0.050939 0.034458
0.062063 -0.061881 0.029328
0.060140 -0.043691 0.035733
0.032546 -0.039413 0.035790
0.046620 -0.054571 0.028906
0.063170 -0.056261 0.032188
0.050751 -0.050705 0.034354
0.046850 -0.047597 0.034855
0.084059 -0.054710 0.033720
-0.023442 -0.028055 -0.024782
-0.053732 -0.032030 -0.026976
-0.050464 -0.040729 -0.028147
-0.015465 -0.033008 -0.026878
0.016053 -0.053762 -0.027029
-0.057968 -0.047139 -0.028211
0.008306 -0.029017 -0.025282
0.010163 -0.046671 -0.028064
-0.012773 -0.050605 -0.028138
0.012610 -0.035233 -0.026561
-0.027469 -0.049538 -0.028117
-0.007109 -0.045086 -0.028233
-0.004172 -0.038144 -0.027722
-0.029214 -0.042278 -0.028450
0.019771 -0.041078 -0.028461
-0.045839 -0.052398 -0.028473
0.031013 -0.033713 -0.026458
-0.039346 -0.044880 -0.028082
-0.007560 -0.025919 -0.025036
-0.034569 -0.053346 -0.026771
-0.031980 -0.033657 -0.026928
-0.037993 -0.039093 -0.029287
-0.019484 -0.055875 -0.026578
0.005142 -0.041236 -0.028272
-0.002791 -0.055867 -0.027820
-0.005275 -0.032450 -0.027099
-0.040812 -0.027881 -0.026016
-0.019459 -0.045296 -0.028157
0.000390 -0.050310 -0.028578
-0.015513 -0.040913 -0.027702
-0.023263 -0.036841 -0.027689
0.028864 -0.046587 -0.027640
-0.017243 -0.055664 -0.086712
-0.043626 -0.059718 -0.042907
-0.036160 -0.062485 -0.050297
-0.022330 -0.060994 -0.035202
0.000400 -0.062668 -0.061157
-0.040772 -0.060200 -0.057480
-0.006270 -0.057123 -0.072156
-0.006153 -0.059022 -0.100075
-0.012053 -0.060725 -0.066694
0.004158 -0.057031 -0.088654
-0.026730 -0.061601 -0.062611
-0.012627 -0.058766 -0.079268
-0.014556 -0.061355 -0.045896
-0.024816 -0.057392 -0.074265
0.000321 -0.062161 -0.046501
-0.033936 -0.063740 -0.037004
0.011620 -0.060526 -0.057397
-0.035604 -0.057156 -0.077915
-0.014458 -0.056998 -0.056780
-0.025131 -0.057434 -0.083920
-0.029718 -0.058133 -0.054007
-0.032041 -0.063773 -0.028565
-0.019010 -0.061631 -0.067914
-0.004155 -0.060525 -0.056230
-0.017223 -0.064355 -0.051054
-0.020604 -0.058654 -0.061050
-0.029002 -0.056287 -0.066860
-0.024103 -0.055551 -0.099352
-0.007040 -0.065375 -0.036387
-0.024992 -0.061917 -0.048443
-0.029473 -0.059114 -0.042806
0.008256 -0.061032 -0.076257
0.040741 -0.082742 -0.009256
0.008509 -0.083867 0.007039
0.016633 -0.083235 0.002681
0.043632 -0.082850 0.015590
0.065099 -0.082612 0.001564
0.005096 -0.082767 -0.001035
0.055674 -0.083496 -0.003244
0.050548 -0.081269 -0.014057
0.045130 -0.082891 -0.000132
0.061031 -0.082157 -0.009669
0.032843 -0.083739 0.000039
0.047783 -0.083198 -0.004561
0.052616 -0.082853 0.009850
0.028082 -0.083104 -0.005735
0.068428 -0.083469 0.010568
0.019495 -0.082439 0.010763
0.077072 -0.082930 0.004905
0.014461 -0.082493 -0.008211
0.053576 -0.084411 0.002765
0.025305 -0.081720 -0.010413
0.027740 -0.083441 0.006628
0.027497 -0.082316 0.015391
0.037683 -0.081841 -0.003359
0.061371 -0.083225 0.006512
0.047063 -0.082498 0.004715
0.036643 -0.083363 0.004908
0.022295 -0.083786 -0.001881
0.031682 -0.081172 -0.016398
0.057787 -0.082111 0.015533
0.042075 -0.082714 0.009152
0.034493 -0.083552 0.011665
0.071649 -0.082869 -0.004011
-0.003227 -0.030497 -0.029124
-0.039564 -0.034401 -0.029964
-0.035323 -0.043918 -0.030949
0.005290 -0.034956 -0.029573
0.040777 -0.057581 -0.028115
-0.044443 -0.050779 -0.029840
0.032078 -0.030444 -0.029069
0.033537 -0.051030 -0.030597
0.009206 -0.054427 -0.029503
0.037884 -0.037971 -0.030215
-0.008204 -0.053767 -0.029929
0.015016 -0.048416 -0.031348
0.018665 -0.041177 -0.030905
-0.010896 -0.045795 -0.031266
0.045968 -0.043405 -0.031153
-0.029932 -0.057047 -0.029344
0.059162 -0.035382 -0.029674
-0.022515 -0.048363 -0.030632
0.013850 -0.027304 -0.029085
-0.017010 -0.057439 -0.027881
-0.015441 -0.036608 -0.030525
-0.021151 -0.043130 -0.031766
0.000778 -0.059491 -0.026865
0.029526 -0.044592 -0.031338
0.020218 -0.060494 -0.028353
0.016494 -0.034804 -0.031016
-0.023684 -0.029852 -0.029599
0.000779 -0.049129 -0.030856
0.023510 -0.054644 -0.029325
0.004296 -0.044115 -0.030467
-0.004936 -0.039059 -0.030634
0.054828 -0.050448 -0.029985
0.061728 -0.025719 0.029907
0.048714 -0.028660 0.030841
0.049514 -0.032780 0.032055
0.065483 -0.028575 0.030166
0.079163 -0.040010 0.034688
0.046430 -0.036672 0.033687
0.076569 -0.026172 0.029796
0.076921 -0.036126 0.034712
0.066246 -0.039578 0.033949
0.078119 -0.029639 0.031775
0.060488 -0.038499 0.033577
0.069429 -0.035571 0.033993
0.070353 -0.030552 0.031469
0.058688 -0.034359 0.032945
0.081754 -0.032784 0.032194
0.051417 -0.039125 0.033491
0.085376 -0.028655 0.031240
0.054786 -0.035648 0.033839
0.069503 -0.024554 0.028652
0.057485 -0.041242 0.035229
0.057995 -0.028821 0.031277
