-0.108026 -0.032583 0.314771
-0.348163 -0.022508 0.126263
-0.081857 -0.032208 0.311946
-0.080956 -0.035850 0.295256
-0.315582 -0.026703 0.103252
-0.061180 -0.035974 0.280873
-0.057459 -0.032123 0.268624
-0.061083 -0.039829 0.261945
-0.309454 -0.031386 0.075008
-0.332751 -0.031660 0.049741
-0.291754 -0.031270 0.070265
-0.077343 -0.048843 0.211861
-0.352857 -0.038066 0.003753
-0.055730 -0.044292 0.228363
-0.335315 -0.042074 0.010143
-0.343396 -0.028926 0.007669
-0.032473 -0.040174 0.237255
-0.288598 -0.036103 0.043239
-0.055032 -0.048222 0.213463
-0.326400 -0.028619 0.013606
-0.306965 -0.045802 0.016167
-0.341301 -0.023921 -0.008298
-0.291674 -0.045381 0.020758
-0.296036 -0.032437 0.022180
-0.307105 -0.023996 0.016008
-0.270521 -0.035959 0.038767
-0.026565 -0.044030 0.218590
-0.037720 -0.041993 0.209505
-0.278520 -0.045070 0.023103
-0.320688 -0.019950 0.000615
-0.282695 -0.032209 0.024686
-0.287301 -0.031024 0.020696
-0.303962 -0.049257 -0.001249
-0.326349 -0.002221 0.000747
-0.324642 -0.034789 -0.017083
-0.042196 -0.048862 0.192081
-0.343876 0.038016 0.000699
-0.306140 -0.032029 -0.002668
-0.331897 0.020030 0.001030
-0.293574 -0.019583 0.012105
-0.272151 -0.058302 0.011075
-0.308287 -0.015432 0.001675
-0.318515 0.018258 0.006883
-0.272518 -0.041916 0.014105
-0.355549 0.069625 0.000822
-0.252292 -0.044436 0.028239
-0.361314 0.087773 0.001003
-0.343196 0.060332 0.001449
-0.253753 -0.062064 0.013400
-0.319381 0.024346 0.002097
-0.337321 0.044353 -0.003813
-0.367561 0.106049 0.000693
-0.020513 -0.048257 0.193671
-0.010126 -0.044319 0.202603
-0.301534 0.006591 0.002899
-0.246398 -0.027431 0.028840
-0.342322 0.078130 0.002413
-0.289913 -0.006559 0.003274
-0.324434 0.055408 0.002902
-0.228108 -0.056710 0.025066
-0.228944 -0.043944 0.030583
-0.245523 -0.020796 0.026796
-0.306805 0.033010 0.003378
-0.272694 -0.057673 -0.012842
-0.265229 -0.015056 0.012756
-0.312479 0.046313 0.003419
-0.230612 -0.065643 0.015331
-0.027818 -0.056795 0.172483
-0.294171 -0.005833 -0.007639
-0.342236 0.100443 0.002508
-0.251233 -0.059139 -0.003035
-0.053389 -0.058175 0.147675
-0.277686 0.006523 0.004497
-0.212181 -0.043606 0.031791
-0.224446 -0.027173 0.029602
-0.243848 -0.014863 0.018864
-0.020674 -0.040599 0.175196
-0.283315 0.023970 0.004439
-0.216061 -0.069559 0.013584
-0.312811 0.072806 0.003040
-0.202888 -0.064512 0.023723
-0.289946 -0.037012 -0.031835
-0.213351 -0.052933 0.020309
-0.319953 0.086376 0.001448
-0.001364 -0.048369 0.180623
-0.260592 -0.002159 0.005101
-0.301596 0.063715 0.002827
-0.289433 0.045889 0.003837
-0.196298 -0.047435 0.032181
-0.025644 -0.053470 0.157064
-0.180202 -0.038835 0.046462
-0.249433 -0.010744 0.005374
-0.012987 -0.052830 0.163496
-0.202902 -0.026920 0.030352
-0.275342 0.000418 -0.014383
-0.194142 -0.073055 0.014849
-0.255004 -0.035368 -0.017700
-0.194682 -0.078981 0.007898
-0.273823 0.041307 0.002470
-0.176952 -0.059398 0.030711
-0.216386 -0.014689 0.019872
-0.262323 0.028125 0.003002
-0.185153 -0.034870 0.033316
-0.336232 -0.016082 -0.077860
-0.239038 -0.002141 0.004818
-0.251471 0.019390 0.002867
-0.180303 -0.076919 0.012673
-0.235172 -0.048053 -0.017843
-0.227670 -0.010650 0.005594
-0.193925 -0.027850 0.022959
-0.000440 -0.054374 0.155236
-0.240814 -0.008376 -0.006483
0.003530 -0.052670 0.157739
-0.162698 -0.071696 0.022701
-0.193371 -0.073310 -0.003560
0.014328 -0.045449 0.162003
-0.154647 -0.046569 0.033641
-0.219813 -0.052672 -0.021153
-0.144561 -0.066871 0.027031
-0.161481 -0.026447 0.031154
-0.161856 -0.031050 0.027372
-0.209422 -0.006361 0.001728
-0.212073 -0.014996 -0.005528
-0.190877 -0.010442 0.012326
-0.161192 -0.069461 0.005581
-0.020633 -0.042315 0.124419
-0.173868 -0.014421 0.021291
-0.148912 -0.080378 0.006996
0.009276 -0.045193 0.142084
0.020159 -0.052795 0.145972
0.000425 -0.042514 0.134199
-0.007550 -0.058223 0.121502
-0.141585 -0.035086 0.029290
-0.200462 -0.002666 -0.002362
-0.141656 -0.026230 0.031066
-0.125125 -0.045992 0.033663
0.008872 -0.057438 0.127878
-0.120092 -0.074612 0.019947
-0.140867 -0.050115 0.014951
-0.153816 -0.014304 0.021113
-0.030597 -0.060361 0.092183
-0.134301 -0.054874 0.013563
-0.221800 -0.028259 -0.044639
0.015448 -0.047233 0.126884
-0.113985 -0.054690 0.026583
-0.143866 -0.077487 -0.006948
-0.033671 -0.068436 0.080592
-0.117593 -0.072654 0.014451
-0.022680 -0.055845 0.092137
-0.122182 -0.026018 0.030940
-0.193468 -0.041923 -0.032308
-0.102304 -0.069788 0.024807
0.005998 -0.061974 0.109922
-0.095645 -0.055398 0.035893
-0.171228 -0.063740 -0.025666
0.021522 -0.075224 0.115187
-0.101334 -0.049500 0.033301
0.021708 -0.055653 0.121513
-0.143622 -0.072992 -0.011145
0.028445 -0.046594 0.126732
0.002535 -0.047111 0.106384
-0.106947 -0.029800 0.032068
0.046525 -0.080614 0.123589
-0.015500 -0.067790 0.081901
-0.010453 -0.063206 0.086422
-0.015125 -0.094482 0.068459
0.042784 -0.095652 0.110134
-0.124343 -0.014131 0.020850
0.001095 -0.046053 0.098997
-0.089983 -0.077969 0.014615
-0.082444 -0.049099 0.033307
-0.154128 -0.023692 -0.011451
-0.078267 -0.069043 0.025362
0.066142 -0.086620 0.123659
0.001617 -0.097495 0.067710
-0.073904 -0.054643 0.029888
-0.039188 -0.063599 0.051709
0.039737 -0.060870 0.111804
-0.079075 -0.025981 0.037957
0.013846 -0.053321 0.094268
-0.083340 -0.029502 0.031947
-0.068475 -0.048802 0.033314
-0.174419 -0.026659 -0.038122
0.060992 -0.066546 0.121389
-0.089683 -0.082858 0.000353
-0.105111 -0.014019 0.020640
0.013851 -0.104335 0.066865
-0.070226 -0.077231 0.016004
-0.145510 -0.040072 -0.026186
-0.006975 -0.095333 0.053152
0.042788 -0.070231 0.100498
-0.048089 -0.075701 0.029246
0.074559 -0.097550 0.110615
0.018533 -0.044467 0.093266
-0.013762 -0.062012 0.059533
-0.101773 -0.071277 -0.011435
-0.083510 -0.072558 0.001190
0.086058 -0.075575 0.125009
0.034178 -0.058825 0.093992
0.009859 -0.105790 0.052506
0.049140 -0.050407 0.107259
-0.132547 -0.051863 -0.031585
-0.016061 -0.068749 0.048047
-0.071575 -0.021584 0.028497
0.093946 -0.092566 0.118353
-0.044276 -0.064137 0.028245
0.006669 -0.053562 0.068597
0.067574 -0.056597 0.112085
-0.055624 -0.029152 0.031810
-0.041040 -0.048219 0.033323
0.052138 -0.063117 0.094655
0.002050 -0.057805 0.058809
-0.130677 -0.016343 -0.025481
0.084586 -0.067865 0.110549
-0.081899 -0.009978 0.012450
0.086436 -0.059514 0.111217
-0.046424 -0.031591 0.024501
-0.107591 -0.009542 -0.012720
0.096655 -0.093884 0.101315
0.055435 -0.051035 0.089757
0.100187 -0.065584 0.115798
-0.018464 -0.051544 0.033684
-0.112128 -0.032612 -0.029298
-0.004040 -0.048179 0.044623
-0.033025 -0.028867 0.031696
-0.047016 -0.078049 -0.002602
0.084333 -0.084843 0.092213
-0.098479 -0.055265 -0.033308
-0.019472 -0.079828 0.013253
0.030109 -0.062263 0.057052
0.024509 -0.061044 0.053809
-0.000816 -0.061038 0.032349
-0.012286 -0.048479 0.029714
-0.058655 -0.009882 0.012175
-0.036408 -0.073289 -0.000718
0.041451 -0.052738 0.066967
-0.000829 -0.045678 0.038413
-0.044681 -0.013668 0.019948
-0.091671 -0.031515 -0.024643
0.027185 -0.070462 0.046052
-0.005152 -0.039847 0.033875
-0.021783 -0.021126 0.028060
0.099074 -0.074007 0.090836
0.007751 -0.050946 0.033621
0.070203 -0.055646 0.076550
0.018209 -0.079143 0.027452
0.006384 -0.064967 0.024338
0.000724 -0.030309 0.034632
0.043392 -0.054272 0.054463
-0.057642 -0.062621 -0.026379
0.064941 -0.051686 0.069968
0.019064 -0.059993 0.031750
-0.008562 -0.021004 0.027955
-0.031351 -0.009768 0.011848
0.011481 -0.032051 0.032570
-0.026880 -0.057112 -0.009725
0.029122 -0.050459 0.033542
0.034785 -0.067933 0.027752
-0.009328 -0.070766 -0.009294
-0.008775 -0.071908 -0.009857
0.028546 -0.031807 0.032474
0.084362 -0.058722 0.061089
0.040418 -0.063764 0.021944
0.078496 -0.066701 0.049230
0.043211 -0.068169 0.021311
0.021689 -0.020726 0.027688
-0.008958 -0.050099 -0.009411
0.069497 -0.052585 0.047363
-0.047889 -0.015286 -0.024846
-0.021246 -0.005029 -0.001034
-0.034776 -0.033972 -0.025529
-0.040583 -0.047096 -0.037896
0.054421 -0.042480 0.033814
0.047981 -0.042698 0.027986
0.056749 -0.054363 0.029086
-0.002939 -0.018587 0.000374
0.079438 -0.052148 0.045843
0.069080 -0.079678 0.021849
0.051017 -0.050877 0.020614
-0.017667 -0.046295 -0.028797
-0.038628 -0.066345 -0.054302
0.051124 -0.083639 0.002569
0.004648 -0.050222 -0.019549
0.066530 -0.034912 0.033308
0.078930 -0.052965 0.033662
0.064363 -0.041793 0.027853
0.057342 -0.053096 0.017423
0.051153 -0.020455 0.027435
0.092776 -0.066929 0.037382
0.011281 -0.067515 -0.024857
-0.028470 -0.029529 -0.038837
0.078198 -0.049739 0.031113
-0.003996 -0.072036 -0.042855
0.029993 -0.009513 0.011128
0.067078 -0.065144 0.012203
0.013962 -0.074551 -0.036273
0.077705 -0.027470 0.031141
0.042813 -0.061529 -0.011794
0.103873 -0.082221 0.023040
0.057477 -0.063229 -0.004738
0.098901 -0.045244 0.033450
-0.006529 -0.065050 -0.055547
0.070083 -0.016641 0.023895
0.028037 -0.058166 -0.027585
0.061283 -0.023927 0.013343
0.098184 -0.079103 0.014496
-0.015393 -0.049358 -0.057914
0.051133 -0.009426 0.010880
0.120487 -0.053264 0.040326
0.030026 -0.047040 -0.025207
-0.006031 -0.057582 -0.058073
0.054633 -0.042291 -0.005913
0.118697 -0.074058 0.024789
-0.043411 -0.053955 -0.088196
0.118231 -0.052044 0.032610
-0.003989 -0.062622 -0.063601
0.012468 -0.038735 -0.041021
0.091261 -0.062289 0.005833
-0.036153 -0.053267 -0.086810
0.072128 -0.072046 -0.015221
0.067756 -0.009357 0.010665
-0.020490 -0.055008 -0.079488
0.114059 -0.030584 0.032035
0.046560 -0.058447 -0.033274
0.052221 -0.049709 -0.025393
0.098328 -0.016429 0.023578
-0.004523 -0.046789 -0.068678
0.032132 -0.054958 -0.045013
0.123234 -0.083768 0.008888
0.137623 -0.051563 0.032689
0.138006 -0.069827 0.024454
0.133810 -0.081425 0.014428
0.043189 -0.054049 -0.041134
-0.044110 -0.058730 -0.110269
0.140325 -0.077372 0.018384
0.088138 -0.009273 0.010274
0.087539 -0.022849 0.003050
-0.000810 -0.031368 -0.067765
-0.034547 -0.065501 -0.110573
0.134683 -0.027699 0.033903
-0.003718 -0.035907 -0.075306
0.049028 -0.063535 -0.049563
0.155375 -0.061872 0.029571
0.036274 -0.037290 -0.048870
0.149485 -0.040627 0.033704
0.045658 -0.055385 -0.050742
0.021868 -0.029543 -0.058191
0.081711 -0.052356 -0.025444
0.027757 -0.040767 -0.061119
0.122491 -0.066989 -0.003324
0.042634 -0.050526 -0.055845
0.093195 -0.051153 -0.020579
0.108162 -0.009191 0.009898
0.048288 -0.048845 -0.053957
0.040543 -0.020335 -0.046358
0.138937 -0.019648 0.026678
0.094074 -0.067940 -0.030308
-0.017169 -0.049840 -0.107000
0.165429 -0.076498 0.016747
0.062290 -0.065896 -0.055581
0.004798 -0.040974 -0.089104
0.140822 -0.056971 0.002332
0.163757 -0.029875 0.031729
0.180906 -0.064696 0.027990
0.160950 -0.081032 0.005152
0.179160 -0.047036 0.033149
-0.000991 -0.051089 -0.103703
0.100536 -0.052237 -0.027525
0.038038 -0.049705 -0.074924
0.161179 -0.017750 0.030712
0.043221 -0.049030 -0.072149
0.029919 -0.040364 -0.078322
0.125110 -0.045129 -0.010251
0.170760 -0.045638 0.021649
0.151939 -0.066275 -0.004853
0.181456 -0.079952 0.009426
0.065036 -0.027985 -0.053571
0.093830 -0.061919 -0.047293
0.047578 -0.092419 -0.096500
0.038726 -0.049592 -0.084672
-0.030790 -0.053881 -0.138739
0.200414 -0.056981 0.031415
0.139475 -0.009063 0.009313
0.190274 -0.036375 0.033478
0.093487 -0.046885 -0.042689
0.027336 -0.035137 -0.086909
0.011041 -0.056243 -0.110406
-0.001301 -0.064610 -0.125910
0.076628 -0.058922 -0.064372
0.035148 -0.062215 -0.097000
0.158192 -0.012487 0.017614
-0.000836 -0.041181 -0.115375
0.186403 -0.061410 0.013130
0.001786 -0.044810 -0.117354
0.200760 -0.079058 0.011681
0.137622 -0.007278 -0.002031
-0.030147 -0.046437 -0.146180
0.032909 -0.062236 -0.107400
0.178915 -0.015826 0.022675
0.071738 -0.091196 -0.092171
0.204167 -0.041510 0.027002
-0.019556 -0.044948 -0.141400
0.032956 -0.062965 -0.111527
0.225061 -0.059756 0.030408
-0.000409 -0.060963 -0.137871
0.207639 -0.029248 0.031488
-0.037509 -0.054580 -0.164707
0.014955 -0.048211 -0.123429
0.172176 -0.065152 -0.014591
-0.048722 -0.044613 -0.170843
0.126438 -0.034940 -0.035248
0.219561 -0.078202 0.013657
0.230041 -0.070231 0.024013
0.040664 -0.036523 -0.101364
0.166601 -0.008161 0.004796
0.162759 -0.005422 -0.000094
0.200865 -0.015662 0.022429
0.053473 -0.066459 -0.112374
-0.021055 -0.050389 -0.162306
-0.054358 -0.034470 -0.180354
0.229217 -0.032315 0.032360
0.097651 -0.090236 -0.092602
0.105871 -0.020821 -0.054881
0.237838 -0.077397 0.015194
0.240074 -0.042241 0.033594
0.249087 -0.062486 0.029175
0.021184 -0.040489 -0.129571
0.056485 -0.054830 -0.110291
-0.046750 -0.044605 -0.186869
0.174367 -0.047135 -0.022771
-0.031686 -0.045219 -0.177138
0.026912 -0.052526 -0.136180
-0.039918 -0.052760 -0.187939
0.218810 -0.015527 0.022229
0.069082 -0.053971 -0.107329
-0.022099 -0.037801 -0.170966
0.199537 -0.008817 0.008161
0.260332 -0.051901 0.032456
-0.001002 -0.035218 -0.155173
0.247230 -0.043906 0.024412
0.250021 -0.031982 0.032264
-0.022728 -0.044976 -0.177115
-0.018290 -0.054175 -0.178024
0.220195 -0.077446 -0.011813
-0.033896 -0.049051 -0.188924
0.012522 -0.042059 -0.150850
0.259177 -0.076481 0.016645
0.093183 -0.091903 -0.114166
0.269088 -0.065303 0.027493
0.252405 -0.080977 0.005245
-0.035926 -0.040221 -0.191976
0.001298 -0.045681 -0.165516
0.280340 -0.054723 0.031774
0.217644 -0.008742 0.007817
0.270647 -0.034955 0.033052
-0.016041 -0.037016 -0.180857
-0.060081 -0.038526 -0.215700
0.270874 -0.079942 0.009354
0.211024 -0.061244 -0.027957
0.250349 -0.015291 0.021877
0.204553 -0.051090 -0.030491
0.275118 -0.052783 0.019572
-0.039495 -0.034548 -0.209356
0.231845 -0.020799 -0.001387
0.293352 -0.075093 0.017835
0.299272 -0.060960 0.028292
-0.037790 -0.035577 -0.210756
0.279813 -0.024926 0.029818
0.238975 -0.008655 0.007416
-0.036558 -0.041266 -0.216646
0.300133 -0.041037 0.031756
-0.013146 -0.038056 -0.199443
0.270847 -0.015138 0.021648
-0.042630 -0.039874 -0.224161
0.269063 -0.071120 -0.008682
0.313982 -0.105040 0.007395
-0.061136 -0.035946 -0.241607
-0.025971 -0.038737 -0.216087
0.245371 -0.047634 -0.018000
0.314463 -0.064029 0.023695
0.309081 -0.074717 0.014591
-0.083269 -0.043121 -0.265658
0.302655 -0.072778 0.008615
0.279027 -0.063823 -0.006786
0.318718 -0.047306 0.028176
0.287547 -0.015016 0.021190
0.298795 -0.021462 0.026371
0.306012 -0.079107 0.001519
0.270184 -0.008527 0.006829
0.329652 -0.063770 0.019624
0.323709 -0.081320 0.007042
0.320625 -0.102728 -0.007125
0.327734 -0.037436 0.025533
0.260315 -0.001247 -0.006675
0.295760 -0.031149 0.003056
0.306452 -0.014925 0.017356
0.290196 -0.008454 0.005315
0.339764 -0.047047 0.022369
0.307588 -0.015041 0.013662
0.323783 -0.079071 -0.007767
-0.085168 -0.037037 -0.295717
0.337616 -0.045411 0.015456
0.329344 -0.024564 0.018183
0.347728 -0.060206 0.014828
0.338949 -0.071100 0.002614
0.310002 -0.011727 0.004410
0.337139 -0.065795 -0.005765
-0.049708 -0.035353 -0.283124
0.325413 -0.015023 -0.000159
0.348534 -0.045307 -0.001126
0.314258 -0.018656 -0.015210
0.367666 -0.056951 0.003870
