0.064336 -0.142399 -0.188750
0.064269 -0.155264 -0.188549
0.092658 -0.140093 -0.188448
0.117749 -0.175429 -0.187929
0.061394 -0.166270 -0.188256
0.113192 -0.130629 -0.187967
0.113910 -0.164723 -0.187063
0.093509 -0.175378 -0.188728
0.111895 -0.144425 -0.188075
0.081314 -0.171502 -0.188508
0.100412 -0.163930 -0.187834
0.099593 -0.147507 -0.188559
0.082470 -0.157539 -0.188640
0.121436 -0.153080 -0.188799
0.068946 -0.175407 -0.188964
0.124918 -0.140263 -0.188293
0.074069 -0.162704 -0.187942
0.098226 -0.126399 -0.187873
0.080134 -0.180715 -0.187859
0.079943 -0.140128 -0.188259
0.074210 -0.150558 -0.188822
0.092122 -0.185852 -0.187980
0.107955 -0.155657 -0.188071
0.104334 -0.182041 -0.188993
0.103926 -0.136386 -0.188071
0.071542 -0.131885 -0.188685
0.089366 -0.164669 -0.187221
0.105010 -0.172554 -0.188938
0.094056 -0.155779 -0.188434
0.086901 -0.149232 -0.188017
0.126656 -0.163664 -0.188126
0.154163 0.270414 0.027717
0.143293 0.259483 0.071138
0.153032 0.231757 0.099802
0.154245 0.278269 0.096322
0.159178 0.212835 0.065608
0.147064 0.215647 0.076959
0.157184 0.280643 0.044452
0.158862 0.231184 0.018256
0.156626 0.223581 0.052930
0.156631 0.259052 0.041377
0.154722 0.235635 0.065831
0.154729 0.250279 0.023703
0.153946 0.248280 0.079301
0.155643 0.244099 0.053544
0.156485 0.261483 0.104457
0.156151 0.213290 0.100443
0.162091 0.257424 0.062821
0.147311 0.236031 0.040927
0.155418 0.291677 0.079299
0.155448 0.208260 0.044799
0.154915 0.268685 0.058587
0.156671 0.242408 0.111260
0.155696 0.197586 0.061724
0.158738 0.245447 0.093951
0.156332 0.203187 0.083996
0.158043 0.262573 0.084943
0.151995 0.287760 0.059861
0.155623 0.219722 0.032036
0.162235 0.223127 0.080793
0.156120 0.232925 0.084137
0.152072 0.274328 0.077762
0.162433 0.239432 0.038312
-0.193842 0.383409 -0.181688
-0.193252 0.373784 -0.160586
-0.193461 0.351980 -0.143218
-0.194017 0.388079 -0.146583
-0.193546 0.341049 -0.162269
-0.192385 0.345021 -0.152793
-0.193897 0.391086 -0.174579
-0.193328 0.356352 -0.183752
-0.193583 0.347944 -0.168889
-0.194017 0.376141 -0.174963
-0.193411 0.359722 -0.162665
-0.194024 0.369819 -0.183142
-0.194034 0.366157 -0.156483
-0.193854 0.359287 -0.168974
-0.193939 0.375994 -0.139851
-0.193380 0.339375 -0.145662
-0.194308 0.370144 -0.166976
-0.193323 0.353947 -0.175091
-0.194182 0.399934 -0.154053
-0.193142 0.337412 -0.172613
-0.193480 0.381510 -0.168004
-0.193225 0.361514 -0.137343
-0.193019 0.329085 -0.164253
-0.193604 0.366307 -0.146559
-0.193247 0.333455 -0.154904
-0.193890 0.377155 -0.150973
-0.194408 0.396122 -0.165405
-0.193341 0.344226 -0.178990
-0.193675 0.351789 -0.160183
-0.193644 0.356701 -0.152344
-0.194228 0.385647 -0.158995
-0.193507 0.365594 -0.175550
-0.068447 0.095101 -0.189361
-0.088495 0.084593 -0.190032
-0.088690 0.073287 -0.190445
-0.061933 0.086772 -0.190016
-0.038729 0.053542 -0.189246
-0.091666 0.062262 -0.189796
-0.043421 0.094955 -0.189416
-0.042988 0.064331 -0.188893
-0.060968 0.053979 -0.190204
-0.044321 0.082358 -0.189657
-0.071632 0.057846 -0.189930
-0.054767 0.065005 -0.189445
-0.055055 0.079972 -0.190190
-0.071603 0.070561 -0.190408
-0.036165 0.074597 -0.189970
-0.083515 0.053885 -0.190314
-0.033014 0.086470 -0.189963
-0.078940 0.065792 -0.189501
-0.056991 0.099949 -0.189332
-0.073154 0.048884 -0.189505
-0.073444 0.086587 -0.189494
-0.078566 0.077205 -0.190518
-0.062596 0.043843 -0.189599
-0.048091 0.072207 -0.189672
-0.051277 0.047520 -0.190384
-0.052344 0.089907 -0.189749
-0.081746 0.094319 -0.189997
-0.064939 0.064488 -0.189291
-0.050745 0.057036 -0.190429
-0.060757 0.072544 -0.189878
-0.067176 0.078238 -0.189736
-0.031368 0.064788 -0.189694
0.149375 -0.230424 -0.185702
0.147300 -0.238168 -0.184800
0.157152 -0.261130 -0.163162
0.156983 -0.222119 -0.157356
0.158419 -0.283740 -0.180017
0.149543 -0.280716 -0.181083
0.155500 -0.222539 -0.185496
0.155492 -0.264950 -0.185741
0.157086 -0.277057 -0.184943
0.155677 -0.242501 -0.185112
0.156526 -0.269854 -0.182455
0.149679 -0.252849 -0.186402
0.156297 -0.248979 -0.179982
0.155453 -0.252042 -0.184663
0.157206 -0.238475 -0.155176
0.159743 -0.281650 -0.154431
0.157663 -0.240949 -0.177414
0.145059 -0.258640 -0.185308
0.156988 -0.207392 -0.177997
0.153440 -0.288478 -0.185621
0.156074 -0.234583 -0.183929
0.159602 -0.257534 -0.145514
0.157168 -0.300545 -0.183139
0.157411 -0.246828 -0.167012
0.158374 -0.293770 -0.170574
0.157202 -0.233248 -0.175511
0.152639 -0.214638 -0.184868
0.149695 -0.271388 -0.185882
0.158142 -0.273089 -0.168000
0.157625 -0.259514 -0.174741
0.156410 -0.224579 -0.173705
0.158775 -0.257846 -0.182921
-0.173257 0.294560 -0.184341
-0.190231 0.279391 -0.185107
-0.190824 0.264158 -0.185800
-0.168267 0.284606 -0.184968
-0.145607 0.240096 -0.185309
-0.192077 0.250182 -0.185381
-0.149847 0.295547 -0.184608
-0.149187 0.254059 -0.184600
-0.167031 0.240240 -0.185814
-0.151441 0.278661 -0.184809
-0.177291 0.245917 -0.185650
-0.160861 0.255931 -0.185220
-0.161476 0.274297 -0.185701
-0.176188 0.263212 -0.185699
-0.142959 0.268878 -0.185743
-0.186208 0.239485 -0.185955
-0.140645 0.283255 -0.185288
-0.182662 0.256892 -0.185197
-0.164367 0.302654 -0.184451
-0.177474 0.233442 -0.185646
-0.178668 0.283988 -0.184523
-0.182130 0.270346 -0.185956
-0.168438 0.225111 -0.185598
-0.154544 0.264754 -0.185445
-0.157561 0.231545 -0.186616
-0.158173 0.287765 -0.185110
-0.185296 0.295521 -0.184996
-0.170536 0.253713 -0.184688
-0.157478 0.244755 -0.186388
-0.166910 0.264567 -0.185278
-0.172564 0.273797 -0.185124
-0.138882 0.257032 -0.185549
-0.127894 0.218532 -0.186958
-0.148496 0.207529 -0.187736
-0.149042 0.195453 -0.188289
-0.121006 0.209874 -0.187903
-0.096877 0.175287 -0.187309
-0.151701 0.184056 -0.187811
-0.101406 0.218359 -0.187020
-0.100974 0.186373 -0.186715
-0.120054 0.176078 -0.188143
-0.102513 0.205169 -0.187169
-0.131616 0.179723 -0.187904
-0.113531 0.187183 -0.187211
-0.113755 0.202560 -0.187971
-0.131349 0.192601 -0.188082
-0.093864 0.196950 -0.187935
-0.143883 0.175479 -0.188495
-0.090955 0.209596 -0.187672
-0.139074 0.187920 -0.187326
-0.115725 0.223690 -0.186955
-0.133157 0.170437 -0.187592
-0.133280 0.209730 -0.187213
-0.138886 0.199551 -0.188474
-0.121879 0.165832 -0.187807
-0.106428 0.194446 -0.187571
-0.109850 0.169182 -0.188568
-0.110935 0.212961 -0.187514
-0.141782 0.217776 -0.187651
-0.124269 0.186411 -0.186906
-0.109088 0.178630 -0.188635
-0.119812 0.194754 -0.187625
-0.126778 0.200884 -0.187527
-0.089231 0.186892 -0.187443
0.149955 0.423651 0.085832
0.113283 0.420494 0.142529
0.128263 0.419148 0.135797
0.152368 0.421033 0.165283
0.159790 0.408508 0.122406
0.116780 0.418147 0.121129
0.158902 0.422462 0.109386
0.154419 0.419845 0.071808
0.154189 0.417838 0.115353
0.161512 0.419890 0.086312
0.142207 0.417298 0.122186
0.150327 0.420374 0.099328
0.154094 0.420755 0.151930
0.138564 0.421739 0.104660
0.163756 0.415593 0.150385
0.131346 0.418339 0.155699
0.164315 0.415548 0.126858
0.119271 0.420787 0.098074
0.156487 0.422510 0.134840
0.139174 0.419247 0.090233
0.138265 0.421972 0.138204
0.142711 0.418987 0.169700
0.149168 0.405703 0.108438
0.161416 0.417345 0.139012
0.151186 0.405696 0.140319
0.146325 0.421378 0.126764
0.131848 0.422253 0.115883
0.136851 0.421762 0.074076
0.158681 0.413479 0.163308
0.147858 0.419489 0.144704
0.140274 0.421669 0.156048
0.163750 0.413328 0.100368
0.136932 -0.174999 -0.186961
0.118668 -0.191317 -0.187103
0.118211 -0.207651 -0.187282
0.141194 -0.183834 -0.187476
0.157304 -0.233769 -0.186894
0.117727 -0.223050 -0.187017
0.155653 -0.173709 -0.186975
0.155865 -0.219844 -0.186493
0.142093 -0.234578 -0.187987
0.153479 -0.192106 -0.186954
0.131756 -0.228440 -0.187876
0.147795 -0.217541 -0.187025
0.144922 -0.196694 -0.187759
0.134019 -0.208954 -0.187519
0.159145 -0.201267 -0.186991
0.122968 -0.235388 -0.188235
0.158961 -0.186458 -0.186667
0.126776 -0.215784 -0.186913
0.145922 -0.165775 -0.187321
0.132543 -0.242804 -0.186839
0.130799 -0.186213 -0.187112
0.127705 -0.200184 -0.188094
0.141416 -0.251253 -0.187203
0.152006 -0.206220 -0.187286
0.150154 -0.244172 -0.187987
0.150782 -0.182402 -0.187589
0.124328 -0.173478 -0.187685
0.139156 -0.219479 -0.186303
0.150790 -0.228984 -0.188311
0.142412 -0.208175 -0.187532
0.136872 -0.195439 -0.187194
0.160014 -0.212396 -0.186518
0.041204 -0.037035 -0.189215
0.021944 -0.047444 -0.190332
0.021913 -0.058295 -0.190339
0.047624 -0.045370 -0.190105
0.070574 -0.076782 -0.189397
0.018882 -0.068371 -0.189825
0.065788 -0.037550 -0.189526
0.066542 -0.067101 -0.188762
0.048671 -0.076751 -0.190215
0.065030 -0.049502 -0.189805
0.038167 -0.073243 -0.189961
0.054669 -0.066410 -0.189564
0.054035 -0.051743 -0.190194
0.038476 -0.060698 -0.190291
0.073276 -0.056993 -0.190108
0.026659 -0.076549 -0.190407
0.076556 -0.045971 -0.189979
0.030983 -0.065366 -0.189597
0.052592 -0.033290 -0.189442
0.036691 -0.081473 -0.189474
0.036657 -0.045605 -0.189870
0.031382 -0.054414 -0.190450
0.047286 -0.086215 -0.189514
0.061237 -0.059203 -0.189675
0.058261 -0.082712 -0.190486
0.057407 -0.042270 -0.189760
0.028690 -0.038257 -0.190214
0.044771 -0.066770 -0.189126
0.058805 -0.073927 -0.190326
0.048960 -0.058986 -0.190012
0.042686 -0.053543 -0.189602
0.078199 -0.066568 -0.189819
0.140903 -0.130026 -0.188668
0.116924 -0.147601 -0.188708
0.119019 -0.165224 -0.189468
0.148218 -0.137513 -0.183639
0.157564 -0.195651 -0.188831
0.116421 -0.186116 -0.188905
0.156342 -0.128340 -0.188666
0.158216 -0.183034 -0.188187
0.146515 -0.195687 -0.190724
0.154669 -0.149606 -0.189209
0.135362 -0.189922 -0.190339
0.150477 -0.177155 -0.190003
0.147670 -0.155588 -0.190505
0.138401 -0.166315 -0.190418
0.159283 -0.157881 -0.185521
0.126964 -0.197343 -0.188075
0.158293 -0.143109 -0.188030
0.129854 -0.175189 -0.188385
0.148611 -0.117183 -0.189804
0.134301 -0.206420 -0.188670
0.132271 -0.145709 -0.190455
0.135010 -0.160134 -0.184030
0.145153 -0.215578 -0.190024
0.155263 -0.165055 -0.189947
0.154405 -0.207087 -0.189915
0.153959 -0.138392 -0.190328
0.126866 -0.126666 -0.189886
0.143230 -0.180226 -0.188419
0.153687 -0.188992 -0.183080
0.147400 -0.168173 -0.189948
0.141626 -0.148904 -0.189815
0.158798 -0.170621 -0.186950
0.031573 0.015980 -0.191007
0.002011 0.000164 -0.191036
0.002063 -0.018035 -0.191308
0.041290 0.004807 -0.189859
0.073154 -0.048356 -0.189980
-0.001148 -0.033997 -0.191062
0.066373 0.016578 -0.190360
0.067685 -0.031985 -0.190164
0.042093 -0.045167 -0.191556
0.064186 -0.003418 -0.190734
0.025911 -0.040221 -0.191586
0.049813 -0.029149 -0.191288
0.048983 -0.008454 -0.190997
0.027098 -0.021014 -0.191495
0.077567 -0.013876 -0.190431
0.009453 -0.047451 -0.191514
0.080778 0.002920 -0.190335
0.016815 -0.027998 -0.190943
0.047272 0.024134 -0.190176
0.025315 -0.054607 -0.190603
0.023560 0.003023 -0.191711
0.016566 -0.011515 -0.190906
0.039591 -0.063137 -0.190640
0.060470 -0.019029 -0.190507
0.056020 -0.057801 -0.191278
0.054517 0.007528 -0.190912
0.013587 0.014904 -0.191474
0.036697 -0.031347 -0.190427
0.057256 -0.042369 -0.189929
0.041396 -0.018640 -0.190976
0.032566 -0.007268 -0.190106
0.082395 -0.029145 -0.190190
-0.136316 0.258817 -0.185568
-0.158335 0.247237 -0.186409
-0.158761 0.234373 -0.187050
-0.129179 0.249893 -0.186544
-0.104106 0.212426 -0.186142
-0.161731 0.222023 -0.186543
-0.108781 0.258702 -0.185678
-0.108346 0.224770 -0.185483
-0.128351 0.213283 -0.186940
-0.109863 0.244905 -0.185870
-0.140481 0.217590 -0.186686
-0.121388 0.225781 -0.185943
-0.121433 0.241907 -0.186761
-0.140144 0.231405 -0.186800
-0.101116 0.236196 -0.186759
-0.153255 0.212670 -0.187311
-0.098324 0.249742 -0.186542
-0.148309 0.226581 -0.185993
-0.123486 0.264390 -0.185591
-0.142181 0.207152 -0.186432
-0.142038 0.249772 -0.185751
-0.147951 0.238988 -0.187277
-0.130315 0.201763 -0.186753
-0.113926 0.233398 -0.186448
-0.117589 0.205705 -0.187456
-0.118722 0.252936 -0.186271
-0.151080 0.258371 -0.186223
-0.132630 0.224865 -0.185649
-0.116621 0.216512 -0.187591
-0.128019 0.233769 -0.186381
-0.135229 0.240329 -0.186281
-0.096475 0.225604 -0.186303
0.154087 0.212717 -0.018437
0.139227 0.198655 0.024422
0.149039 0.174521 0.050750
0.154082 0.221157 0.052339
0.161841 0.153914 0.020036
0.143157 0.156496 0.027481
0.159117 0.224877 -0.000967
0.159781 0.170424 -0.027688
0.156257 0.164375 0.006812
0.158716 0.199319 -0.006580
0.152388 0.175484 0.018432
0.153691 0.189766 -0.021487
0.152470 0.190736 0.034112
0.154503 0.187038 0.006784
0.158016 0.202866 0.057540
0.153778 0.155875 0.054412
0.165706 0.199785 0.017675
0.143603 0.178759 -0.004111
0.156470 0.237199 0.033162
0.153213 0.150044 -0.002671
0.152530 0.209589 0.012084
0.155904 0.183287 0.065238
0.154307 0.138634 0.013505
0.160302 0.184571 0.044082
0.155245 0.144287 0.037686
0.157421 0.206039 0.036204
0.149240 0.230688 0.013576
0.152741 0.163177 -0.015702
0.163946 0.164683 0.040621
0.155085 0.173195 0.035228
0.149853 0.217041 0.032535
0.165546 0.178886 -0.006096
-0.008138 0.058172 -0.189679
-0.028907 0.046998 -0.190418
-0.028986 0.034954 -0.190746
-0.001318 0.049292 -0.190390
0.022715 0.014136 -0.189671
-0.032129 0.023351 -0.190109
0.017814 0.058008 -0.189823
0.018443 0.025277 -0.189194
-0.000302 0.014416 -0.190577
0.016813 0.044672 -0.190014
-0.011484 0.018516 -0.190321
0.006147 0.026106 -0.189879
0.005680 0.042046 -0.190609
-0.011192 0.032175 -0.190791
0.025359 0.036546 -0.190516
-0.023707 0.014446 -0.190713
0.028569 0.048966 -0.190343
-0.018956 0.027086 -0.189902
0.003688 0.063025 -0.189767
-0.012868 0.009057 -0.189798
-0.013314 0.049135 -0.189989
-0.018608 0.039253 -0.190915
-0.001825 0.003824 -0.189886
0.013019 0.033865 -0.190076
0.009871 0.007743 -0.190805
0.008830 0.052629 -0.190142
-0.021945 0.057269 -0.190429
-0.004305 0.025487 -0.189551
0.010262 0.017652 -0.190892
0.000043 0.034152 -0.190325
-0.006729 0.040349 -0.190090
0.030319 0.026107 -0.190099
0.155095 -0.032607 -0.165229
0.142233 -0.043898 -0.123775
0.154011 -0.070717 -0.094418
0.155177 -0.023285 -0.095134
0.158039 -0.088527 -0.128155
0.145943 -0.085627 -0.118006
0.156398 -0.022434 -0.149761
0.157623 -0.069324 -0.173502
0.157205 -0.077929 -0.140482
0.155634 -0.043836 -0.151783
0.155844 -0.067416 -0.128448
0.155016 -0.051413 -0.168148
0.154435 -0.053851 -0.117061
0.156163 -0.059654 -0.141099
0.156150 -0.041636 -0.088056
0.156885 -0.087930 -0.090606
0.160397 -0.047207 -0.132830
0.146959 -0.067226 -0.152231
0.155349 -0.008516 -0.115769
0.156348 -0.093164 -0.149258
0.155876 -0.034110 -0.134960
0.157376 -0.061126 -0.078764
0.156190 -0.105309 -0.133431
0.158265 -0.056163 -0.100134
0.156411 -0.099537 -0.110091
0.157833 -0.040286 -0.110166
0.153304 -0.015307 -0.134769
0.155958 -0.082275 -0.161073
0.160353 -0.078283 -0.112501
0.156898 -0.067670 -0.110870
0.153490 -0.027467 -0.115326
0.160477 -0.061293 -0.155558
0.156453 -0.067408 -0.175177
0.146331 -0.079115 -0.135683
0.155688 -0.106597 -0.107776
0.156343 -0.058192 -0.108614
0.158416 -0.124038 -0.140332
0.149128 -0.120404 -0.129324
0.157337 -0.057251 -0.160565
0.158145 -0.104362 -0.183095
0.158051 -0.113265 -0.151656
0.156706 -0.078449 -0.162819
0.156888 -0.102507 -0.140402
0.155968 -0.086404 -0.178003
0.155879 -0.088948 -0.129710
0.157113 -0.095531 -0.152473
0.157090 -0.076084 -0.101639
0.157735 -0.123385 -0.104724
0.159914 -0.082520 -0.145290
0.149819 -0.103658 -0.162349
0.156452 -0.043608 -0.127869
0.157328 -0.128491 -0.160164
0.157171 -0.069100 -0.146434
0.158225 -0.096459 -0.093225
0.157174 -0.139970 -0.145094
0.158925 -0.090590 -0.113255
0.157362 -0.134418 -0.123788
0.158549 -0.074849 -0.122569
0.155061 -0.050770 -0.145738
0.157296 -0.118164 -0.171495
0.159737 -0.112921 -0.126465
0.157682 -0.101933 -0.123292
0.155111 -0.062648 -0.128243
0.159949 -0.094892 -0.165994
-0.158992 0.316036 -0.183549
-0.177646 0.304162 -0.184427
-0.178151 0.292014 -0.184964
-0.153190 0.307740 -0.184297
-0.131332 0.271751 -0.184141
-0.180489 0.280673 -0.184557
-0.135745 0.315898 -0.183627
-0.135123 0.283301 -0.183677
-0.152454 0.272026 -0.184697
-0.136652 0.302649 -0.184047
-0.162719 0.276322 -0.184622
-0.146515 0.284711 -0.184243
-0.146438 0.299757 -0.184649
-0.162254 0.290075 -0.184664
-0.128744 0.294583 -0.184641
-0.173191 0.271070 -0.185022
-0.126442 0.306644 -0.184539
-0.169144 0.285286 -0.184189
-0.148401 0.321612 -0.183625
-0.163947 0.266210 -0.184546
-0.164000 0.307009 -0.183558
-0.168617 0.296507 -0.185313
-0.153943 0.259920 -0.184565
-0.139889 0.291800 -0.184483
-0.142961 0.264555 -0.185425
-0.144133 0.310310 -0.184195
-0.170991 0.315872 -0.184076
-0.156006 0.283458 -0.183782
-0.142274 0.275469 -0.185341
-0.152151 0.292105 -0.184295
-0.158055 0.298657 -0.184176
-0.125082 0.284969 -0.184492
0.155331 0.182429 -0.075181
0.135014 0.169302 -0.021732
0.154734 0.139006 0.009143
0.155064 0.189122 0.008081
0.158113 0.123117 -0.031231
0.139164 0.122558 -0.017459
0.157359 0.190150 -0.055115
0.159298 0.143714 -0.088041
0.157118 0.134131 -0.046565
0.156056 0.169405 -0.056225
0.155472 0.144074 -0.031512
0.156567 0.161387 -0.079620
0.154595 0.156601 -0.017176
0.156439 0.151985 -0.047119
0.156229 0.168636 0.016524
0.156502 0.121170 0.012653
0.158886 0.163909 -0.036294
0.144027 0.142655 -0.061870
0.154643 0.204821 -0.014696
0.156377 0.117421 -0.057584
0.157233 0.179396 -0.035739
0.156689 0.149265 0.026897
0.155561 0.105551 -0.036773
0.157713 0.156563 0.003255
0.156162 0.110776 -0.008464
0.158162 0.170321 -0.007945
0.154676 0.200648 -0.036847
0.157318 0.127498 -0.073609
0.158322 0.132020 -0.015149
0.156448 0.143907 -0.008022
0.154701 0.185311 -0.014005
0.159813 0.150474 -0.064471
0.107761 0.418655 0.044016
0.060877 0.418427 0.092706
0.075546 0.418785 0.083941
0.111150 0.418993 0.119966
0.140045 0.418231 0.073755
0.061738 0.418126 0.070436
0.129870 0.419211 0.064097
0.118153 0.418625 0.032849
0.113998 0.418655 0.071951
0.134939 0.419360 0.044574
0.095906 0.417181 0.074023
0.116045 0.419105 0.056526
0.123730 0.419178 0.104578
0.089771 0.419314 0.055664
0.145817 0.419453 0.105043
0.076702 0.419150 0.107173
0.153132 0.419828 0.084955
0.068736 0.418664 0.051061
0.123091 0.416975 0.082837
0.087420 0.419198 0.042653
0.087867 0.418936 0.094478
0.089562 0.418303 0.121957
0.102752 0.416665 0.060646
0.136033 0.419139 0.091395
0.110377 0.417329 0.091289
0.098763 0.419290 0.084323
0.078770 0.417757 0.066856
0.095168 0.418461 0.028235
0.130487 0.418831 0.117866
0.108214 0.418922 0.102653
0.094800 0.418049 0.109158
0.149432 0.419320 0.058837
0.092758 -0.075765 -0.188332
0.071505 -0.087635 -0.189904
0.071322 -0.100146 -0.189858
0.100012 -0.084984 -0.189456
0.125095 -0.120195 -0.188935
0.068490 -0.111069 -0.189468
0.120210 -0.076088 -0.188891
0.121128 -0.109557 -0.188097
0.100889 -0.120558 -0.189774
0.119277 -0.089573 -0.189111
0.088789 -0.116432 -0.189591
0.107548 -0.108940 -0.188982
0.106907 -0.092493 -0.189602
0.089519 -0.102485 -0.189744
0.128752 -0.098026 -0.189746
0.076246 -0.120230 -0.190039
0.132128 -0.085615 -0.189377
0.081238 -0.107637 -0.189076
0.105619 -0.071762 -0.188741
0.087320 -0.125762 -0.189014
0.087294 -0.085279 -0.189290
0.081461 -0.095508 -0.189938
0.099126 -0.130855 -0.188963
0.115270 -0.100694 -0.189145
0.111624 -0.127096 -0.190079
0.111124 -0.081660 -0.189170
0.078819 -0.077152 -0.189760
0.096609 -0.109422 -0.188356
0.112419 -0.117299 -0.189932
0.101336 -0.100539 -0.189548
0.094196 -0.094088 -0.189062
0.133771 -0.108636 -0.189293
-0.056958 0.149775 -0.188827
-0.077905 0.139342 -0.189578
-0.078166 0.127701 -0.189965
-0.050055 0.141378 -0.189571
-0.025681 0.107534 -0.188741
-0.081300 0.116551 -0.189330
-0.030729 0.149358 -0.188875
-0.030152 0.118519 -0.188226
-0.049033 0.108154 -0.189641
-0.031486 0.136894 -0.189080
-0.060353 0.111997 -0.189377
-0.042597 0.119354 -0.188893
-0.042796 0.134619 -0.189603
-0.060186 0.124949 -0.189766
-0.022892 0.129051 -0.189517
-0.072865 0.107908 -0.189907
-0.019760 0.140983 -0.189451
-0.068127 0.120201 -0.188931
-0.044653 0.154131 -0.188824
-0.062121 0.102857 -0.188942
-0.061968 0.141218 -0.189050
-0.067740 0.131867 -0.190078
-0.050819 0.097981 -0.189139
-0.035477 0.126663 -0.189128
-0.038806 0.101476 -0.190033
-0.040033 0.144470 -0.189186
-0.070664 0.148714 -0.189485
-0.053264 0.118833 -0.188649
-0.038201 0.111093 -0.190071
-0.048805 0.127059 -0.189393
-0.055616 0.132790 -0.189100
-0.017979 0.118873 -0.189137
-0.175881 0.381608 -0.182438
-0.191524 0.365421 -0.182123
-0.191550 0.349048 -0.183017
-0.171720 0.370359 -0.182372
-0.150497 0.325651 -0.182923
-0.192572 0.334939 -0.182483
-0.153512 0.383735 -0.182550
-0.153477 0.338933 -0.182259
-0.170098 0.325820 -0.183705
-0.156194 0.364278 -0.182456
-0.179434 0.331018 -0.183115
-0.164046 0.340821 -0.182386
-0.165386 0.359202 -0.183315
-0.178144 0.347335 -0.183127
-0.147936 0.354202 -0.183178
-0.187275 0.325543 -0.183673
-0.145754 0.369409 -0.182386
-0.184356 0.341639 -0.182406
-0.168740 0.391420 -0.182367
-0.178908 0.319026 -0.183227
-0.180992 0.370228 -0.182091
-0.183889 0.355166 -0.182983
-0.170455 0.312444 -0.183605
-0.158866 0.349175 -0.183100
-0.161345 0.318470 -0.184049
-0.161669 0.374186 -0.182645
-0.188066 0.383163 -0.182731
-0.173140 0.338094 -0.182426
-0.161522 0.329120 -0.183750
-0.169908 0.348809 -0.182905
-0.175374 0.358970 -0.182756
-0.143676 0.341319 -0.182669
0.154393 0.039314 -0.142677
0.129260 0.027562 -0.092722
0.151544 0.000535 -0.066255
0.154339 0.047743 -0.066574
0.157404 -0.015811 -0.100911
0.134247 -0.015508 -0.091428
0.155575 0.048190 -0.124040
0.157384 0.002184 -0.153383
0.156809 -0.005858 -0.115905
0.154821 0.026716 -0.125358
0.155039 0.002675 -0.101572
0.155021 0.020089 -0.147120
0.153744 0.016309 -0.089273
0.155677 0.011137 -0.115900
0.154896 0.028165 -0.058408
0.156184 -0.015736 -0.061765
0.158525 0.022035 -0.104719
0.138627 0.004364 -0.129696
0.154214 0.063303 -0.087095
0.155603 -0.021162 -0.124572
0.155875 0.036775 -0.106604
0.156852 0.008405 -0.049866
0.155521 -0.031732 -0.106585
0.157298 0.014537 -0.070123
0.155758 -0.026749 -0.082270
0.157316 0.029264 -0.081116
0.152385 0.057572 -0.107576
0.155437 -0.011119 -0.139059
0.159013 -0.008733 -0.084997
0.156283 0.003146 -0.082293
0.153208 0.043801 -0.086670
0.159029 0.007827 -0.132579
-0.189127 0.418290 -0.185853
-0.189646 0.411406 -0.167760
-0.190804 0.405300 -0.156748
-0.187684 0.421621 -0.148860
-0.166953 0.382842 -0.183431
-0.191055 0.388802 -0.171231
-0.168248 0.420866 -0.184258
-0.170350 0.398451 -0.182062
-0.186675 0.393637 -0.186443
-0.163323 0.417865 -0.184463
-0.191938 0.398747 -0.180923
-0.178084 0.411409 -0.184994
-0.184381 0.417689 -0.173751
-0.190463 0.413556 -0.184550
-0.166461 0.420149 -0.170338
-0.190930 0.389919 -0.153694
-0.145870 0.423649 -0.182064
-0.188768 0.404544 -0.183287
-0.179616 0.421961 -0.180822
-0.192127 0.385555 -0.181006
-0.190260 0.416714 -0.179798
-0.193543 0.416954 -0.142454
-0.192179 0.372871 -0.180967
-0.173234 0.414457 -0.182187
-0.187545 0.378757 -0.177316
-0.182382 0.419165 -0.186475
-0.191608 0.419565 -0.183394
-0.185706 0.403131 -0.184541
-0.183472 0.403979 -0.161158
-0.191098 0.410900 -0.172390
-0.190825 0.423121 -0.165289
-0.152675 0.407429 -0.181146
0.107057 -0.051160 -0.190548
0.077090 -0.069007 -0.190668
0.077532 -0.088221 -0.190860
0.116099 -0.061540 -0.188037
0.142745 -0.120137 -0.190239
0.074469 -0.106840 -0.190607
0.137978 -0.050125 -0.190315
0.139350 -0.104697 -0.190004
0.116085 -0.117546 -0.191484
0.135379 -0.072279 -0.190553
0.099935 -0.112372 -0.191267
0.123365 -0.099812 -0.191266
0.121284 -0.077740 -0.190634
0.102884 -0.090581 -0.191206
0.146855 -0.082695 -0.189550
0.084809 -0.120350 -0.190974
0.148086 -0.064925 -0.190141
0.092474 -0.098553 -0.190299
0.120998 -0.040723 -0.189937
0.099393 -0.128152 -0.190372
0.097511 -0.066197 -0.191166
0.092909 -0.081846 -0.189559
0.113389 -0.137051 -0.191061
0.133064 -0.089016 -0.190781
0.129020 -0.130564 -0.191666
0.128284 -0.060577 -0.190853
0.089335 -0.050852 -0.191235
0.111156 -0.103092 -0.190227
0.130310 -0.113302 -0.188585
0.115538 -0.089487 -0.190539
0.107128 -0.074831 -0.189840
0.149543 -0.098028 -0.189919
0.131093 -0.108581 -0.188105
0.111078 -0.124705 -0.188601
0.110299 -0.141130 -0.188921
0.136315 -0.118232 -0.188695
0.155405 -0.167771 -0.188369
0.109567 -0.156690 -0.188602
0.153159 -0.107576 -0.188255
0.153486 -0.153979 -0.187860
0.137298 -0.168267 -0.189383
0.150827 -0.126042 -0.188172
0.125668 -0.162552 -0.189281
0.143669 -0.151872 -0.188412
0.141094 -0.130455 -0.189227
0.128109 -0.143131 -0.189034
0.157860 -0.135725 -0.188721
0.115667 -0.168811 -0.189694
0.157945 -0.120146 -0.188334
0.119984 -0.149807 -0.188341
0.141495 -0.100090 -0.188509
0.126268 -0.176490 -0.188332
0.124688 -0.120084 -0.188523
0.120741 -0.133863 -0.189650
0.136552 -0.183982 -0.188606
0.148995 -0.140539 -0.188781
0.146407 -0.177666 -0.189491
0.147018 -0.116017 -0.188876
0.117470 -0.107661 -0.188976
0.133989 -0.153571 -0.187689
0.147008 -0.163241 -0.189757
0.137811 -0.141895 -0.189067
0.131462 -0.130049 -0.188592
0.159539 -0.147637 -0.188080
-0.166544 0.380741 -0.182096
-0.185249 0.365677 -0.182220
-0.185130 0.350408 -0.183099
-0.161166 0.369894 -0.182099
-0.138270 0.327142 -0.182592
-0.186934 0.336526 -0.182545
-0.142009 0.382174 -0.182094
-0.141989 0.340130 -0.181851
-0.159708 0.327758 -0.183452
-0.144162 0.363973 -0.182076
-0.170344 0.332428 -0.182907
-0.153357 0.341618 -0.182205
-0.154392 0.359440 -0.183148
-0.169249 0.348057 -0.183127
-0.135942 0.353753 -0.183087
-0.180122 0.327455 -0.183643
-0.133109 0.369111 -0.182171
-0.176356 0.342653 -0.182253
-0.157319 0.389465 -0.182034
-0.170611 0.321171 -0.183029
-0.172286 0.369622 -0.181770
-0.175838 0.355510 -0.183040
-0.160624 0.315342 -0.183390
-0.147472 0.349632 -0.182960
-0.150504 0.320243 -0.183842
-0.151109 0.373652 -0.182430
-0.180249 0.381890 -0.182448
-0.163573 0.339832 -0.182332
-0.149974 0.330809 -0.183557
-0.159689 0.349609 -0.182567
-0.165876 0.358868 -0.182680
-0.131115 0.341938 -0.182319
-0.018201 0.110011 -0.189471
-0.037974 0.099909 -0.190138
-0.038056 0.088930 -0.190468
-0.011764 0.102011 -0.190107
0.011115 0.069619 -0.189250
-0.041319 0.078272 -0.189718
0.006247 0.109696 -0.189491
0.006808 0.079966 -0.188805
-0.010741 0.070071 -0.190143
0.005537 0.097534 -0.189740
-0.021138 0.073818 -0.189829
-0.004721 0.080835 -0.189543
-0.005047 0.095495 -0.190219
-0.021126 0.086260 -0.190396
0.013546 0.090132 -0.189954
-0.032966 0.069938 -0.190263
0.016559 0.101447 -0.190107
-0.028518 0.081661 -0.189525
-0.006872 0.114406 -0.189446
-0.022746 0.065056 -0.189416
-0.022915 0.101673 -0.189573
-0.028139 0.092721 -0.190609
-0.012305 0.060247 -0.189608
0.001818 0.087852 -0.189694
-0.001202 0.063736 -0.190413
-0.002388 0.104937 -0.189762
-0.031018 0.109163 -0.190034
-0.014576 0.080302 -0.189267
-0.000771 0.073005 -0.190493
-0.010535 0.088247 -0.189976
-0.016814 0.093749 -0.189700
0.018198 0.080443 -0.189751
-0.072294 0.212122 -0.187456
-0.092677 0.201532 -0.188171
-0.092986 0.189974 -0.188627
-0.065583 0.203656 -0.188172
-0.041974 0.170169 -0.187571
-0.096042 0.178820 -0.188098
-0.046576 0.211753 -0.187512
-0.046157 0.180835 -0.187098
-0.064737 0.170658 -0.188402
-0.047552 0.199146 -0.187749
-0.075860 0.174451 -0.188158
-0.058337 0.181717 -0.187600
-0.058509 0.196785 -0.188268
-0.075541 0.187141 -0.188437
-0.039134 0.191373 -0.188230
-0.087889 0.170359 -0.188637
-0.036238 0.203443 -0.188115
-0.083268 0.182526 -0.187706
-0.060403 0.216647 -0.187446
-0.077442 0.165488 -0.187827
-0.077289 0.203511 -0.187696
-0.082932 0.194043 -0.188681
-0.066399 0.160816 -0.188004
-0.051464 0.188919 -0.187875
-0.054679 0.164222 -0.188838
-0.055700 0.206769 -0.187866
-0.085771 0.211036 -0.188116
-0.068715 0.181041 -0.187374
-0.053999 0.173487 -0.188783
-0.064355 0.189249 -0.188020
-0.071090 0.194983 -0.187809
-0.034440 0.181327 -0.187904
0.153638 0.100641 -0.114641
0.138038 0.087298 -0.067167
0.149991 0.060875 -0.038633
0.153215 0.109326 -0.039445
0.158331 0.042365 -0.072907
0.142085 0.044145 -0.063124
0.156103 0.111346 -0.096183
0.157714 0.059915 -0.125140
0.156002 0.052706 -0.087142
0.155628 0.087725 -0.099876
0.153183 0.063274 -0.073962
0.153675 0.078806 -0.118406
0.152353 0.077847 -0.059631
0.154344 0.073089 -0.087522
0.155470 0.090172 -0.031501
0.154270 0.042907 -0.034968
0.161166 0.085014 -0.076610
0.143352 0.064505 -0.099703
0.154443 0.125270 -0.059176
0.153873 0.037591 -0.096976
0.153218 0.097964 -0.080700
0.155866 0.069899 -0.022951
0.154075 0.026975 -0.079191
0.158097 0.073414 -0.044443
0.154712 0.031765 -0.054029
0.156466 0.092166 -0.054468
0.150107 0.118792 -0.079578
0.153471 0.049361 -0.110959
0.160999 0.051998 -0.054630
0.155030 0.061829 -0.055625
0.150411 0.105141 -0.059709
0.161474 0.067737 -0.103286
0.078887 -0.011498 -0.188899
0.058330 -0.023306 -0.190352
0.058236 -0.035803 -0.190345
0.085600 -0.020851 -0.190036
0.109971 -0.056052 -0.189505
0.055417 -0.047000 -0.189991
0.105466 -0.011678 -0.189448
0.106189 -0.045335 -0.188615
0.086610 -0.056173 -0.190312
0.104261 -0.025279 -0.189546
0.074996 -0.052129 -0.190083
0.093371 -0.044634 -0.189433
0.092414 -0.028212 -0.190175
0.075860 -0.038069 -0.190252
0.113203 -0.033799 -0.190288
0.063042 -0.055854 -0.190628
0.116554 -0.021246 -0.189871
0.067753 -0.043347 -0.189609
0.090845 -0.007157 -0.189354
0.073764 -0.061328 -0.189504
0.073507 -0.020931 -0.189808
0.068118 -0.031252 -0.190430
0.085142 -0.066457 -0.189590
0.100352 -0.036407 -0.189647
0.097028 -0.062507 -0.190637
0.096547 -0.017142 -0.189703
0.065269 -0.012675 -0.190266
0.082478 -0.045224 -0.188952
0.097601 -0.052856 -0.190487
0.087114 -0.036419 -0.189927
0.080285 -0.029946 -0.189638
0.118362 -0.044363 -0.189718
0.152215 0.417381 0.043986
0.136048 0.414866 0.103223
0.149207 0.408652 0.124075
0.153538 0.416561 0.134244
0.157992 0.392122 0.092828
0.145138 0.397037 0.098752
0.157723 0.416679 0.072444
0.158011 0.408652 0.031020
0.156273 0.400302 0.076713
0.161942 0.415028 0.056926
0.153998 0.405891 0.089463
0.152080 0.414553 0.055774
0.153100 0.413677 0.114018
0.153536 0.413663 0.075642
0.162149 0.412863 0.126378
0.154973 0.397791 0.133184
0.170506 0.412760 0.092402
0.142411 0.412348 0.065041
0.157289 0.417580 0.104605
0.154721 0.392207 0.059425
0.151062 0.415974 0.095736
0.155425 0.408944 0.145353
0.154030 0.378016 0.080519
0.162799 0.410401 0.112430
0.153471 0.380857 0.112446
0.159515 0.413665 0.096657
0.146459 0.416948 0.082246
0.151233 0.408580 0.043910
0.162723 0.399328 0.122332
0.155310 0.406415 0.108522
0.148926 0.416691 0.123093
0.168060 0.407648 0.064767
-0.034953 0.416857 -0.083535
-0.084655 0.416470 -0.023747
-0.067659 0.416960 -0.035147
-0.029235 0.416211 0.009494
0.005773 0.415144 -0.048002
-0.084568 0.416895 -0.051059
-0.007939 0.417181 -0.060296
-0.019740 0.416024 -0.097727
-0.027211 0.417432 -0.051487
-0.001604 0.417437 -0.083229
-0.047843 0.415701 -0.048722
-0.022510 0.416897 -0.070045
-0.014899 0.417150 -0.008542
-0.053261 0.417494 -0.069799
0.012551 0.416919 -0.005696
-0.066862 0.417827 -0.002368
0.022120 0.418447 -0.032232
-0.078360 0.416850 -0.076265
-0.016559 0.416375 -0.039227
-0.057988 0.418365 -0.087093
-0.054278 0.417822 -0.023470
-0.050023 0.416034 0.019048
-0.038147 0.410881 -0.065565
-0.001442 0.417394 -0.024677
-0.028107 0.412782 -0.025410
-0.041260 0.417529 -0.034741
-0.065678 0.415859 -0.057351
-0.045712 0.416772 -0.101877
-0.004777 0.416533 0.013746
-0.031747 0.417174 -0.014134
-0.047287 0.416148 -0.003992
0.017802 0.417103 -0.066125
-0.118370 0.310922 -0.183813
-0.138469 0.299885 -0.184758
-0.139233 0.288162 -0.185307
-0.111645 0.302558 -0.184709
-0.087965 0.267898 -0.184280
-0.141871 0.277046 -0.184822
-0.092634 0.310326 -0.183802
-0.092182 0.278876 -0.183620
-0.110915 0.268544 -0.185041
-0.093604 0.297499 -0.184184
-0.121958 0.272444 -0.184822
-0.104437 0.280070 -0.184306
-0.104530 0.295228 -0.184826
-0.121694 0.285535 -0.184861
-0.085005 0.289595 -0.184726
-0.133907 0.267920 -0.185583
-0.082578 0.301704 -0.184686
-0.129361 0.280928 -0.184329
-0.106273 0.315407 -0.183829
-0.123548 0.262961 -0.184640
-0.123274 0.301981 -0.183987
-0.129230 0.292194 -0.185563
-0.112458 0.258090 -0.184886
-0.097372 0.287198 -0.184626
-0.100510 0.261579 -0.185775
-0.101919 0.305373 -0.184301
-0.131236 0.310014 -0.184403
-0.114813 0.279177 -0.183859
-0.099775 0.271368 -0.185620
-0.110576 0.287599 -0.184609
-0.117037 0.293581 -0.184336
-0.080821 0.279570 -0.184463
0.063747 0.028035 -0.189758
0.043556 0.016890 -0.190801
0.043534 0.004751 -0.190960
0.070307 0.018888 -0.190725
0.094015 -0.014736 -0.190141
0.040744 -0.006078 -0.190541
0.089649 0.027908 -0.190146
0.090149 -0.004447 -0.189432
0.071380 -0.014604 -0.191030
0.088366 0.014659 -0.190302
0.060203 -0.011036 -0.190826
0.077771 -0.003724 -0.190189
0.077043 0.011889 -0.190870
0.060881 0.002276 -0.191005
0.097119 0.006492 -0.190886
0.048335 -0.014555 -0.191192
0.100418 0.018796 -0.190496
0.053011 -0.002650 -0.190274
0.075279 0.032400 -0.190112
0.059027 -0.019704 -0.190260
0.058497 0.018936 -0.190478
0.053266 0.008955 -0.191148
0.070037 -0.024510 -0.190287
0.084585 0.003929 -0.190339
0.081403 -0.020859 -0.191224
0.080809 0.022479 -0.190375
0.050322 0.026870 -0.190850
0.067339 -0.004439 -0.189782
0.081866 -0.011936 -0.191185
0.071764 0.003986 -0.190572
0.065030 0.010119 -0.190304
0.102124 -0.003642 -0.190339
-0.134626 0.358898 -0.182314
-0.154030 0.347957 -0.182920
-0.154238 0.336127 -0.183375
-0.128175 0.350489 -0.182807
-0.105851 0.317041 -0.182773
-0.156887 0.325382 -0.183024
-0.109878 0.358750 -0.182400
-0.109764 0.327331 -0.181959
-0.127533 0.317604 -0.183355
-0.111205 0.345840 -0.182454
-0.138214 0.320962 -0.183143
-0.121465 0.328575 -0.182567
-0.121744 0.343118 -0.183101
-0.137622 0.333689 -0.183038
-0.102939 0.338000 -0.183202
-0.149154 0.316985 -0.183730
-0.100009 0.349955 -0.182877
-0.145044 0.329392 -0.182642
-0.123524 0.363723 -0.182370
-0.139524 0.312099 -0.182987
-0.139417 0.349975 -0.182386
-0.144634 0.340201 -0.183457
-0.128779 0.307459 -0.183205
-0.114799 0.335354 -0.182938
-0.117861 0.311081 -0.183979
-0.118807 0.353450 -0.182708
-0.147115 0.358257 -0.182937
-0.131387 0.327320 -0.182111
-0.117092 0.319932 -0.183633
-0.127398 0.335640 -0.182800
-0.133447 0.341691 -0.182563
-0.098567 0.328219 -0.182849
0.156681 0.385329 0.015095
0.152103 0.375605 0.060980
0.157463 0.343676 0.091846
0.156749 0.391728 0.085995
0.160339 0.325925 0.055938
0.154622 0.329342 0.070750
0.159437 0.393841 0.033052
0.160353 0.346106 0.005925
0.158534 0.337193 0.042534
0.158466 0.375960 0.031200
0.157699 0.351416 0.055558
0.157270 0.366293 0.011062
0.156869 0.362535 0.068607
0.158246 0.357564 0.042812
0.158705 0.376198 0.096155
0.158738 0.324764 0.090913
0.161882 0.372441 0.050957
0.154200 0.348164 0.029527
0.158108 0.402779 0.070017
0.158117 0.320583 0.034193
0.158402 0.384391 0.048302
0.158812 0.357306 0.101592
0.157976 0.309655 0.051615
0.160124 0.361810 0.085771
0.158722 0.315272 0.074505
0.160325 0.376291 0.076915
0.155925 0.400913 0.050080
0.158593 0.331776 0.021094
0.162649 0.338106 0.066360
0.158669 0.347740 0.076165
0.155941 0.387905 0.067243
0.162689 0.356473 0.026377
-0.067189 0.246545 -0.186330
-0.087582 0.234906 -0.187124
-0.088026 0.222423 -0.187678
-0.060724 0.237375 -0.187037
-0.036449 0.201645 -0.186713
-0.090842 0.210609 -0.187152
-0.041045 0.246489 -0.186439
-0.040774 0.212941 -0.186140
-0.059816 0.201955 -0.187603
-0.042278 0.232702 -0.186735
-0.071116 0.206159 -0.187302
-0.053097 0.213786 -0.186683
-0.053498 0.229907 -0.187355
-0.070578 0.219831 -0.187493
-0.033554 0.224151 -0.187318
-0.082899 0.201799 -0.187811
-0.030512 0.237258 -0.187002
-0.078328 0.214745 -0.186799
-0.055559 0.251645 -0.186350
-0.072547 0.196580 -0.187011
-0.072513 0.237291 -0.186568
-0.077936 0.226815 -0.187626
-0.061411 0.191655 -0.187265
-0.046278 0.221549 -0.187012
-0.049481 0.195426 -0.188133
-0.050417 0.240943 -0.186854
-0.080886 0.245690 -0.187063
-0.063815 0.213025 -0.186477
-0.049010 0.205182 -0.187901
-0.059357 0.221748 -0.187073
-0.066088 0.228071 -0.186981
-0.028606 0.213688 -0.186963
0.155185 0.324651 -0.022982
0.143830 0.314592 0.022513
0.154598 0.285511 0.052671
0.155444 0.332487 0.048644
0.159319 0.266810 0.016248
0.147828 0.269401 0.028538
0.157989 0.334554 -0.006003
0.159592 0.285770 -0.032843
0.157857 0.277818 0.002910
0.157170 0.313849 -0.007931
0.155990 0.290189 0.016575
0.155904 0.305544 -0.027442
0.155083 0.302371 0.030330
0.156705 0.298059 0.003612
0.157164 0.316304 0.057627
0.157190 0.266720 0.052815
0.163001 0.311597 0.013557
0.148520 0.290116 -0.010078
0.156424 0.345523 0.030735
0.156844 0.261645 -0.005030
0.156127 0.323405 0.009481
0.157427 0.296812 0.064968
0.156990 0.251445 0.012469
0.159255 0.300399 0.046787
0.157431 0.256891 0.035338
0.159044 0.316378 0.036874
0.153281 0.341927 0.010509
0.156931 0.272874 -0.018235
0.163235 0.277030 0.031280
0.157264 0.287336 0.036041
0.153348 0.328784 0.029444
0.163210 0.294063 -0.012915
0.026534 0.124506 -0.190684
-0.004132 0.106821 -0.190961
-0.003679 0.087230 -0.191153
0.036749 0.112375 -0.188499
0.069831 0.053981 -0.189803
-0.007529 0.069430 -0.190879
0.062350 0.125656 -0.190220
0.063458 0.072153 -0.189995
0.037141 0.057987 -0.191176
0.059895 0.103568 -0.190459
0.020209 0.063294 -0.191271
0.045180 0.075725 -0.191082
0.044334 0.097720 -0.190573
0.021787 0.084810 -0.191135
0.074224 0.092108 -0.189916
0.003576 0.055243 -0.190539
0.077009 0.110195 -0.190205
0.011342 0.076751 -0.190899
0.042318 0.133954 -0.189845
0.019734 0.047631 -0.190159
0.017708 0.110263 -0.191499
0.011267 0.093908 -0.188939
0.034319 0.038197 -0.190034
0.056281 0.086342 -0.190316
0.051695 0.044093 -0.190770
0.049665 0.115498 -0.190781
0.008076 0.123823 -0.191510
0.031347 0.073034 -0.190307
0.053010 0.061295 -0.187904
0.036356 0.086619 -0.190503
0.027395 0.099494 -0.189812
0.078906 0.075261 -0.190140
-0.099688 0.310906 -0.183815
-0.119493 0.299540 -0.184895
-0.120076 0.287428 -0.185322
-0.093052 0.302280 -0.184696
-0.069359 0.267200 -0.184450
-0.122735 0.276268 -0.184909
-0.074006 0.310424 -0.183926
-0.073645 0.278068 -0.183640
-0.092414 0.267584 -0.185184
-0.075092 0.297320 -0.184287
-0.103362 0.271544 -0.184945
-0.085858 0.279254 -0.184422
-0.086172 0.294799 -0.184887
-0.102848 0.285100 -0.184898
-0.066294 0.289186 -0.184877
-0.114914 0.267128 -0.185695
-0.063586 0.301383 -0.184693
-0.110558 0.280308 -0.184521
-0.087929 0.315322 -0.183930
-0.104829 0.262110 -0.184721
-0.104590 0.301676 -0.184129
-0.110260 0.291647 -0.185471
-0.093777 0.257177 -0.184956
-0.078868 0.286700 -0.184689
-0.081977 0.260869 -0.185957
-0.083142 0.305349 -0.184384
-0.112318 0.309950 -0.184625
-0.096299 0.278227 -0.183918
-0.081323 0.270529 -0.185610
-0.092002 0.286908 -0.184639
-0.098314 0.293148 -0.184384
-0.061879 0.278937 -0.184609
-0.026728 0.181822 -0.188335
-0.048163 0.171214 -0.189115
-0.048522 0.159234 -0.189564
-0.019564 0.173316 -0.189086
0.005287 0.138775 -0.188375
-0.051629 0.147932 -0.188975
-0.000003 0.181258 -0.188398
0.000762 0.149876 -0.187897
-0.018569 0.139526 -0.189295
-0.000632 0.168643 -0.188635
-0.030372 0.143228 -0.189096
-0.012151 0.150837 -0.188557
-0.012211 0.166265 -0.189189
-0.030088 0.156447 -0.189379
0.008126 0.160607 -0.189152
-0.043185 0.139014 -0.189552
0.011315 0.172809 -0.188996
-0.038381 0.151712 -0.188592
-0.013962 0.186114 -0.188388
-0.032172 0.134023 -0.188635
-0.031961 0.173064 -0.188674
-0.037858 0.163469 -0.189757
-0.020532 0.129265 -0.188873
-0.004742 0.158238 -0.188820
-0.008142 0.132532 -0.189703
-0.009470 0.176215 -0.188763
-0.040631 0.180610 -0.188970
-0.022944 0.150290 -0.188255
-0.007449 0.142212 -0.189750
-0.018311 0.158678 -0.189055
-0.025422 0.164625 -0.188682
0.013136 0.150386 -0.188687
0.048432 0.068727 -0.189522
0.028903 0.057100 -0.190316
0.028739 0.044849 -0.190631
0.054690 0.059562 -0.190244
0.077776 0.024175 -0.189702
0.026124 0.033269 -0.190122
0.073521 0.068778 -0.189727
0.073846 0.035109 -0.189185
0.055727 0.024444 -0.190578
0.072023 0.054789 -0.189889
0.045018 0.028448 -0.190322
0.062147 0.035936 -0.189807
0.061247 0.052085 -0.190564
0.045722 0.042157 -0.190660
0.080413 0.046533 -0.190376
0.033887 0.024599 -0.190678
0.083359 0.059248 -0.190219
0.038230 0.037096 -0.189905
0.059250 0.073917 -0.189645
0.044200 0.019143 -0.189842
0.043378 0.059483 -0.189931
0.038438 0.049095 -0.190710
0.054624 0.013974 -0.189845
0.068349 0.043719 -0.189994
0.065485 0.017930 -0.190735
0.064761 0.063122 -0.190025
0.035197 0.067888 -0.190360
0.051945 0.035138 -0.189516
0.065802 0.027501 -0.190689
0.056180 0.043880 -0.190159
0.049767 0.050381 -0.189962
0.085204 0.036081 -0.190062
0.026589 0.106196 -0.189452
0.006683 0.095872 -0.190214
0.006702 0.084244 -0.190587
0.033087 0.097692 -0.190304
0.056660 0.064637 -0.189548
0.003616 0.073453 -0.189904
0.051878 0.106001 -0.189651
0.052411 0.075103 -0.188925
0.034214 0.065190 -0.190424
0.050910 0.093417 -0.189810
0.023537 0.068832 -0.190136
0.040424 0.075980 -0.189691
0.039877 0.091033 -0.190398
0.023794 0.081667 -0.190529
0.059308 0.085646 -0.190335
0.011739 0.065098 -0.190571
0.062621 0.097363 -0.190145
0.016195 0.076905 -0.189720
0.037931 0.110580 -0.189591
0.022164 0.060101 -0.189622
0.021756 0.097667 -0.189838
0.016415 0.088236 -0.190680
0.032816 0.055239 -0.189782
0.047036 0.083201 -0.189850
0.044021 0.058819 -0.190639
0.042988 0.100982 -0.189864
0.013461 0.105324 -0.190247
0.030259 0.075314 -0.189366
0.044312 0.067817 -0.190721
0.034425 0.083446 -0.190095
0.027999 0.089277 -0.189845
0.064313 0.075609 -0.189895
-0.145761 0.411626 -0.180568
-0.168475 0.399680 -0.180097
-0.168561 0.385366 -0.180863
-0.138500 0.401970 -0.180148
-0.112502 0.362171 -0.180313
-0.170979 0.372063 -0.180520
-0.116581 0.411493 -0.180431
-0.116633 0.375050 -0.179514
-0.137514 0.364104 -0.181076
-0.118299 0.397033 -0.180127
-0.150307 0.367758 -0.180809
-0.130534 0.376653 -0.180040
-0.130728 0.393188 -0.180905
-0.149695 0.382308 -0.180747
-0.109102 0.387911 -0.180833
-0.162588 0.363096 -0.181395
-0.105328 0.402095 -0.180183
-0.157985 0.377537 -0.180119
-0.133077 0.416816 -0.180356
-0.151518 0.357422 -0.180388
-0.151450 0.402167 -0.180336
-0.157839 0.390622 -0.180619
-0.139258 0.352356 -0.180909
-0.122767 0.384171 -0.180801
-0.126947 0.356218 -0.181488
-0.127518 0.404969 -0.180731
-0.161261 0.410299 -0.180728
-0.142058 0.374857 -0.179650
-0.125358 0.365869 -0.181153
-0.137617 0.384695 -0.180303
-0.145252 0.391984 -0.180331
-0.103836 0.376153 -0.180087
-0.018755 0.206422 -0.189366
-0.046948 0.189544 -0.189863
-0.047436 0.170898 -0.190031
-0.009254 0.194166 -0.188851
0.022792 0.139530 -0.188851
-0.050545 0.154404 -0.189648
0.015577 0.206542 -0.189045
0.016677 0.156907 -0.188669
-0.008424 0.142599 -0.190000
0.013378 0.186034 -0.189330
-0.024109 0.147773 -0.190078
-0.000624 0.159638 -0.189671
-0.001183 0.181174 -0.189654
-0.023144 0.167876 -0.189869
0.026820 0.175070 -0.189401
-0.040689 0.140121 -0.190073
0.029298 0.192327 -0.189414
-0.033092 0.160593 -0.189501
-0.003115 0.214428 -0.189086
-0.024741 0.132911 -0.189075
-0.026356 0.192817 -0.189965
-0.033374 0.177343 -0.189639
-0.010988 0.124204 -0.189201
0.009730 0.170256 -0.189282
0.005865 0.129659 -0.189953
0.003877 0.197433 -0.189531
-0.035670 0.205163 -0.190155
-0.013688 0.157318 -0.188889
0.006631 0.145824 -0.188832
-0.008897 0.170670 -0.189651
-0.017356 0.181813 -0.188887
0.031523 0.159261 -0.188993
0.150452 -0.080395 -0.189700
0.142731 -0.090285 -0.189344
0.153647 -0.107755 -0.179607
0.157537 -0.076653 -0.168175
0.158863 -0.131599 -0.184280
0.144954 -0.127857 -0.187209
0.156465 -0.075252 -0.187458
0.156288 -0.114869 -0.188204
0.157697 -0.127556 -0.188662
0.156453 -0.093230 -0.188420
0.155451 -0.121162 -0.188068
0.151406 -0.106456 -0.189491
0.156063 -0.098506 -0.188278
0.153974 -0.101667 -0.189294
0.158059 -0.091125 -0.168380
0.158765 -0.130424 -0.170582
0.157699 -0.090276 -0.180894
0.143668 -0.109083 -0.188480
0.156415 -0.062234 -0.185340
0.152668 -0.137168 -0.188444
0.153192 -0.087950 -0.188632
0.160093 -0.106768 -0.160225
0.157022 -0.149064 -0.187918
0.158043 -0.099044 -0.179102
0.159074 -0.141999 -0.180856
0.156254 -0.084476 -0.184721
0.149002 -0.069728 -0.188435
0.150029 -0.118887 -0.189379
0.158291 -0.121986 -0.173938
0.157450 -0.108241 -0.186336
0.156080 -0.080101 -0.184757
0.158819 -0.107719 -0.183141
0.152413 -0.011107 -0.189460
0.146492 -0.019282 -0.175499
0.154318 -0.041777 -0.136052
0.157162 0.002711 -0.131385
0.156715 -0.063165 -0.177463
0.149387 -0.060620 -0.173484
0.156077 0.000093 -0.190622
0.158584 -0.044971 -0.189924
0.156081 -0.053465 -0.185710
0.155992 -0.020459 -0.186324
0.156300 -0.045306 -0.177271
0.152871 -0.026753 -0.190728
0.155779 -0.028548 -0.166747
0.157102 -0.032082 -0.183267
0.156422 -0.017557 -0.131760
0.157528 -0.059999 -0.125597
0.155770 -0.023642 -0.180032
0.148134 -0.036862 -0.188244
0.156108 0.014736 -0.167439
0.154912 -0.066779 -0.189408
0.157532 -0.012358 -0.181735
0.157668 -0.032697 -0.112696
0.157083 -0.079384 -0.181809
0.157439 -0.026831 -0.148709
0.156786 -0.075344 -0.151955
0.159363 -0.012527 -0.163403
0.155417 0.006972 -0.185920
0.154274 -0.049839 -0.187634
0.157480 -0.054793 -0.152661
0.158600 -0.040391 -0.159126
0.156067 -0.001692 -0.153290
0.158200 -0.036540 -0.189110
-0.060804 0.272415 -0.185709
-0.081573 0.261624 -0.186385
-0.081953 0.249644 -0.186916
-0.053991 0.263950 -0.186338
-0.029947 0.229314 -0.185895
-0.085136 0.238257 -0.186373
-0.034636 0.272046 -0.185678
-0.034264 0.240459 -0.185296
-0.053173 0.230015 -0.186647
-0.035643 0.259087 -0.185942
-0.064527 0.233912 -0.186463
-0.046593 0.241509 -0.185843
-0.046657 0.256735 -0.186491
-0.064163 0.246782 -0.186593
-0.027077 0.251248 -0.186480
-0.076693 0.229464 -0.187022
-0.024344 0.263603 -0.186411
-0.072157 0.242240 -0.185891
-0.048432 0.277096 -0.185667
-0.066141 0.224557 -0.186197
-0.065695 0.263701 -0.185845
-0.071810 0.253876 -0.186950
-0.054749 0.219791 -0.186481
-0.039616 0.248674 -0.186220
-0.042800 0.223242 -0.187251
-0.044114 0.266879 -0.186014
-0.074405 0.271452 -0.186236
-0.057183 0.240640 -0.185643
-0.042035 0.232800 -0.187157
-0.052734 0.249008 -0.186266
-0.059544 0.255055 -0.186012
-0.022477 0.240960 -0.186134
0.113491 0.003416 -0.189184
0.095145 -0.008219 -0.190385
0.094912 -0.020083 -0.190605
0.119142 -0.004999 -0.190033
0.140702 -0.039807 -0.189701
0.092798 -0.031118 -0.190219
0.136836 0.003688 -0.189656
0.137291 -0.029126 -0.189082
0.120076 -0.040048 -0.190536
0.135496 -0.009740 -0.189846
0.109881 -0.035804 -0.190367
0.125962 -0.028342 -0.189697
0.125008 -0.012697 -0.190410
0.110697 -0.022164 -0.190541
0.143362 -0.017661 -0.190257
0.099409 -0.039959 -0.190637
0.146033 -0.005571 -0.190127
0.103756 -0.027176 -0.189848
0.123735 0.008710 -0.189446
0.109212 -0.045081 -0.189783
0.108414 -0.005522 -0.189856
0.103912 -0.015571 -0.190653
0.118626 -0.050781 -0.189744
0.132125 -0.020492 -0.189881
0.129195 -0.046415 -0.190726
0.129015 -0.002031 -0.189978
0.101343 0.002758 -0.190315
0.116634 -0.029030 -0.189306
0.129769 -0.036515 -0.190598
0.120353 -0.020548 -0.190127
0.114435 -0.013893 -0.189875
0.147566 -0.027590 -0.190041
0.016240 0.151637 -0.188797
-0.003463 0.141065 -0.189714
-0.003734 0.129726 -0.190080
0.022591 0.143432 -0.189598
0.045672 0.109839 -0.188856
-0.006774 0.118725 -0.189404
0.040800 0.151229 -0.188942
0.041494 0.120410 -0.188339
0.023582 0.110101 -0.189694
0.040080 0.138765 -0.189238
0.013058 0.114155 -0.189407
0.029730 0.121416 -0.189094
0.029380 0.136608 -0.189714
0.013264 0.127183 -0.189875
0.048180 0.131127 -0.189509
0.001313 0.109930 -0.189852
0.051069 0.142746 -0.189645
0.005741 0.122403 -0.189092
0.027555 0.155955 -0.188905
0.011572 0.105003 -0.188999
0.011287 0.143024 -0.189039
0.006132 0.133681 -0.190179
0.021944 0.099958 -0.189217
0.036290 0.128758 -0.189266
0.033324 0.103649 -0.190078
0.032170 0.146376 -0.189248
0.003424 0.150691 -0.189507
0.019780 0.120871 -0.188733
0.033701 0.113294 -0.190121
0.023920 0.129103 -0.189450
0.017490 0.134901 -0.189163
0.052779 0.121230 -0.189316
0.154145 0.270108 -0.067594
0.141404 0.258274 -0.021015
0.152393 0.231003 0.007876
0.154120 0.278118 0.005522
0.159286 0.212509 -0.026795
0.145165 0.214466 -0.016276
0.157054 0.280255 -0.049624
0.158891 0.230258 -0.077851
0.156814 0.223167 -0.040796
0.156523 0.257931 -0.053096
0.154555 0.234493 -0.027250
0.154702 0.249402 -0.071592
0.153539 0.247657 -0.012902
0.155608 0.243533 -0.040696
0.156092 0.260656 0.013681
0.155846 0.212934 0.009603
0.162536 0.255842 -0.029628
