-0.194923 -0.400181 0.178445
-0.194874 -0.417570 0.141496
-0.194923 -0.321923 0.178445
-0.194898 -0.361359 0.159806
-0.174500 -0.389840 0.147945
-0.194934 -0.262039 0.183153
-0.115126 -0.411185 0.168322
-0.194844 -0.374991 0.119058
-0.194821 -0.409431 0.101458
-0.112243 -0.363493 0.180535
-0.194934 -0.219257 0.183153
-0.133406 -0.285997 0.186263
-0.194874 -0.281292 0.141496
-0.194844 -0.326605 0.119058
-0.178092 -0.326859 0.131392
-0.155977 -0.415543 0.095529
-0.177946 -0.231097 0.165355
-0.194792 -0.354202 0.079882
-0.041358 -0.400079 0.169996
-0.194868 -0.221400 0.136969
-0.194934 -0.119433 0.183153
-0.194892 -0.160052 0.155198
-0.178694 -0.377978 0.062696
-0.194804 -0.294453 0.088457
-0.194940 -0.080397 0.187886
-0.194737 -0.396549 0.038088
-0.054282 -0.309924 0.178230
-0.136369 -0.158378 0.181870
-0.176103 -0.313736 0.077929
-0.190734 -0.170287 0.129599
0.024376 -0.415695 0.176038
-0.043903 -0.374094 0.139977
-0.194809 -0.230271 0.092772
-0.174873 -0.104244 0.165809
-0.194923 -0.040907 0.178445
-0.194838 -0.174155 0.114629
-0.082450 -0.208422 0.180684
-0.194726 -0.345324 0.029938
-0.194753 -0.302217 0.050441
-0.178829 -0.242960 0.088383
0.016008 -0.356801 0.182016
-0.194886 -0.082481 0.150610
-0.194684 -0.388402 -0.001989
-0.194940 0.037519 0.187886
-0.165964 -0.412301 -0.001200
0.067391 -0.379388 0.188739
-0.194748 -0.261592 0.046306
-0.128423 -0.045886 0.187900
-0.194674 -0.354443 -0.009808
-0.184401 -0.333344 0.007469
-0.194798 -0.154553 0.084160
-0.014492 -0.240361 0.179858
-0.173774 0.022956 0.178297
-0.194821 -0.104499 0.101458
-0.194874 -0.001747 0.141496
-0.194923 0.080036 0.178445
-0.078563 -0.097178 0.183164
-0.194633 -0.380583 -0.040453
-0.194844 -0.039746 0.119058
-0.182348 -0.053944 0.121533
-0.184158 -0.262936 0.021146
-0.067799 -0.393898 0.045200
-0.194748 -0.181615 0.046306
-0.194940 0.130422 0.187886
-0.194679 -0.290298 -0.005907
0.086784 -0.321271 0.185573
0.124371 -0.410828 0.170454
-0.026084 -0.147929 0.179257
-0.185615 -0.135382 0.064968
-0.173825 -0.363684 -0.036326
-0.194694 -0.230086 0.005894
-0.194868 0.057529 0.136969
-0.181116 0.126098 0.176583
-0.194934 0.169345 0.183153
-0.183061 -0.404457 -0.076825
0.051836 -0.253795 0.168945
-0.194618 -0.321316 -0.051692
-0.087517 0.021391 0.189018
-0.194792 -0.032200 0.079882
-0.194721 -0.146745 0.025889
0.141236 -0.370994 0.171975
-0.113699 0.086153 0.191336
-0.030730 -0.060353 0.186045
-0.194821 0.025697 0.101458
-0.182186 -0.188662 0.010134
0.036774 -0.172813 0.179774
0.070458 -0.392146 0.101241
-0.194579 -0.350527 -0.081013
-0.194679 -0.189748 -0.005907
-0.194726 -0.110702 0.029938
-0.194628 -0.262217 -0.044214
-0.063439 -0.005937 0.174998
-0.188982 0.003064 0.082760
-0.194753 -0.055100 0.050441
-0.194868 0.137721 0.136969
-0.108876 -0.391273 -0.049416
-0.194838 0.098285 0.114629
-0.186534 -0.267810 -0.051683
-0.185014 0.085412 0.111451
-0.141365 0.182734 0.186754
-0.192968 -0.063376 0.033575
0.111317 -0.228957 0.183868
-0.194880 0.197865 0.146043
-0.194669 -0.150210 -0.013693
-0.194528 -0.364442 -0.119852
-0.194898 0.237968 0.159806
-0.194561 -0.310690 -0.095329
-0.177297 0.263593 0.182484
-0.194628 -0.201828 -0.044214
-0.194753 0.005009 0.050441
-0.182754 -0.384561 -0.128776
-0.194910 0.277987 0.169084
-0.194575 -0.272096 -0.084613
-0.067833 0.121067 0.188277
0.158299 -0.292003 0.162870
0.091948 -0.149363 0.181147
-0.194838 0.177603 0.114629
0.152523 -0.331085 0.137904
-0.194658 -0.110993 -0.021417
0.161306 -0.386138 0.108098
0.063243 -0.076792 0.180483
-0.183201 -0.123439 -0.026704
-0.194753 0.065119 0.050441
-0.190208 -0.187621 -0.065928
-0.018821 0.069179 0.182570
-0.194923 0.361052 0.178445
-0.194700 -0.014717 0.009860
-0.194505 -0.321695 -0.136967
-0.194658 -0.072386 -0.021417
0.116764 -0.410074 0.051024
-0.194886 0.317638 0.150610
0.037281 -0.001980 0.181214
-0.170000 -0.313740 -0.126096
-0.160998 -0.418786 -0.171058
-0.194792 0.167780 0.079882
-0.186008 0.233227 0.115393
-0.159874 0.366324 0.189090
0.026158 -0.374164 -0.011472
-0.194759 0.125493 0.054593
-0.184836 -0.238771 -0.111997
-0.194575 -0.166367 -0.084613
-0.194546 -0.210529 -0.105921
-0.194700 0.034339 0.009860
-0.194923 0.417967 0.178445
-0.194838 0.277613 0.114629
-0.178596 0.321322 0.143371
-0.191316 0.084732 0.029010
-0.181439 0.168065 0.072525
0.160358 -0.226330 0.145815
0.153574 -0.361365 0.074957
-0.194804 0.233180 0.088457
-0.194594 -0.111268 -0.070126
-0.069780 0.236796 0.180424
-0.117967 0.313975 0.175723
0.162204 -0.162829 0.168482
-0.193554 -0.331358 -0.182791
-0.086688 -0.415302 -0.145692
-0.176493 -0.337359 -0.178038
-0.186896 0.012192 -0.019010
-0.194479 -0.261310 -0.157079
-0.194700 0.093206 0.009860
-0.194633 -0.014332 -0.040453
-0.194844 0.357710 0.119058
-0.190478 -0.059609 -0.067157
-0.194519 -0.174686 -0.126738
-0.194446 -0.289783 -0.183197
-0.017232 0.192273 0.176600
-0.194658 0.049866 -0.021417
0.137441 -0.069916 0.171792
-0.194874 0.417570 0.141496
-0.194542 -0.130367 -0.109424
-0.127906 -0.376604 -0.180538
-0.194479 -0.222487 -0.157079
0.158604 -0.263005 0.091419
-0.194809 0.318968 0.092772
-0.145075 0.417417 0.171238
-0.014896 -0.387545 -0.102320
-0.194579 -0.054526 -0.081013
-0.185848 0.412311 0.134637
0.040014 0.131166 0.178596
-0.105914 -0.373877 -0.170746
-0.195365 -0.123060 -0.119800
-0.174389 -0.270980 -0.176122
-0.194721 0.192912 0.025889
0.081235 0.073506 0.177041
0.158186 -0.105030 0.151197
-0.184571 0.310332 0.081893
-0.188408 -0.183201 -0.149996
-0.100188 -0.004309 0.001373
-0.194759 0.272738 0.054593
-0.085337 0.386966 0.183680
-0.193968 0.150678 -0.001853
0.152531 -0.374202 0.012870
-0.194684 0.154386 -0.001989
-0.194594 0.007836 -0.070126
0.092900 -0.407593 -0.050542
-0.083777 -0.393027 -0.179676
0.167055 -0.177713 0.109076
-0.194608 0.048872 -0.059110
-0.187226 0.374237 0.091255
-0.040543 0.326763 0.179020
0.151650 -0.312707 0.028439
-0.194528 -0.071668 -0.119852
-0.172642 -0.244795 -0.186431
-0.194648 0.129768 -0.029077
-0.184266 0.243369 0.027081
-0.194488 -0.121407 -0.150426
0.151749 0.021787 0.174974
-0.194770 0.347832 0.062951
-0.129916 -0.290274 -0.184767
-0.194710 0.247939 0.017841
-0.194442 -0.186468 -0.186407
-0.194551 -0.010778 -0.102404
0.147107 -0.388151 -0.023647
-0.090795 -0.340932 -0.182489
0.163384 -0.018259 0.160937
-0.194792 0.398266 0.079882
-0.191644 0.072622 -0.063936
-0.035616 -0.410951 -0.178731
-0.030386 -0.398220 -0.169330
0.021387 0.290695 0.184649
-0.195195 -0.053295 -0.137897
-0.194599 0.105208 -0.066469
-0.156214 -0.201608 -0.183342
-0.194551 0.029254 -0.102404
-0.152240 -0.216060 -0.187484
-0.186785 0.005477 -0.108271
-0.194658 0.207508 -0.021417
0.066233 -0.163070 0.003898
-0.040995 -0.374364 -0.180781
0.069841 0.220334 0.177815
-0.064196 -0.316439 -0.172909
-0.194721 0.328116 0.025889
-0.086867 -0.299328 -0.184408
-0.194501 -0.034671 -0.140351
0.160852 -0.207291 0.046360
-0.194604 0.152619 -0.062796
-0.194684 0.287645 -0.001989
-0.171367 0.418628 0.071291
-0.049392 0.414508 0.158491
0.127254 0.141423 0.166795
-0.110236 -0.234843 -0.186870
0.165148 0.105676 0.173521
0.025871 -0.419150 -0.178351
-0.194726 0.388283 0.029938
-0.190428 0.351516 0.016497
0.008628 0.395129 0.183432
-0.194546 0.087593 -0.105921
-0.194648 0.257933 -0.029077
0.165302 -0.051011 0.098876
-0.172759 -0.121404 -0.189737
0.159445 -0.117245 0.063588
-0.078499 -0.238527 -0.175380
0.019196 -0.384138 -0.172889
-0.039133 -0.316316 -0.183690
-0.121908 -0.190991 -0.188219
-0.185124 0.201432 -0.053173
-0.003683 -0.362086 -0.181520
0.160461 -0.325952 -0.040356
-0.194488 0.010492 -0.150426
-0.189070 -0.075128 -0.190422
0.164939 -0.249961 -0.004516
-0.140827 -0.147094 -0.189317
-0.194546 0.133694 -0.105921
0.057955 0.359756 0.182825
-0.159695 -0.083145 -0.182194
-0.190465 0.074989 -0.131317
-0.188767 0.412543 0.022575
0.163511 0.065056 0.127268
-0.055373 -0.254074 -0.186258
-0.127290 -0.134861 -0.185907
-0.194561 0.168483 -0.095329
-0.196956 0.310876 -0.034152
0.032305 -0.342707 -0.169133
0.069900 -0.419755 -0.178375
0.156674 0.206512 0.177451
-0.194579 0.213432 -0.081013
0.000971 -0.320681 -0.183543
0.159102 -0.382304 -0.095068
-0.091274 0.417122 0.086374
-0.183608 0.011629 -0.169975
-0.088476 -0.180895 -0.188521
-0.194488 0.070446 -0.150426
-0.068595 -0.210940 -0.187780
0.052152 -0.379880 -0.180595
0.078698 -0.405694 -0.173566
-0.188705 0.150129 -0.112674
-0.194623 0.302928 -0.047960
0.128990 0.263405 0.173538
0.112094 0.307869 0.178875
-0.134890 -0.094962 -0.190191
-0.175121 -0.022415 -0.190761
0.125721 -0.405906 -0.147137
0.003606 -0.271324 -0.175786
0.162454 -0.148887 0.001255
-0.194492 0.112628 -0.147080
0.158186 0.146290 0.130969
-0.194648 0.379691 -0.029077
0.105144 -0.420239 -0.178394
-0.189763 0.025020 -0.190728
-0.194570 0.252941 -0.088199
0.150082 -0.345219 -0.109812
0.016789 -0.281743 -0.185355
-0.194613 0.342790 -0.055408
0.158657 -0.065323 0.022800
-0.019722 -0.224018 -0.187379
-0.003308 0.415565 0.114000
0.054600 -0.320789 -0.183610
-0.031854 -0.166360 -0.175441
-0.192735 0.254263 -0.103329
-0.092840 -0.095669 -0.190235
-0.072068 -0.090567 -0.173796
0.074918 -0.312851 -0.171205
-0.033212 -0.176610 -0.188703
-0.194505 0.197850 -0.136967
-0.194474 0.147548 -0.160387
-0.189070 0.075128 -0.190422
0.110212 -0.378767 -0.180734
-0.181402 0.414499 -0.032713
-0.124590 -0.025111 -0.190976
0.166517 0.023752 0.050421
0.160264 -0.210980 -0.064364
-0.119965 -0.026847 -0.190810
-0.159733 0.044024 -0.190670
0.119837 0.406003 0.179144
-0.182623 0.122206 -0.174919
0.155424 -0.420929 -0.178421
0.169544 -0.263725 -0.091258
-0.194510 0.237571 -0.133570
-0.198725 0.195654 -0.156605
0.129308 -0.364292 -0.174117
-0.035933 -0.135059 -0.189708
0.021277 -0.221351 -0.187530
0.073204 0.427761 0.144866
-0.194533 0.288755 -0.116390
-0.191228 0.389666 -0.070194
-0.143597 0.053412 -0.187679
0.163794 0.099084 0.063424
-0.190671 0.339899 -0.093680
-0.194551 0.327957 -0.102404
0.058535 -0.262005 -0.186127
0.161316 0.267069 0.131593
-0.194570 0.367773 -0.088199
0.148571 -0.382308 -0.180585
0.165165 -0.110057 -0.038253
0.114622 -0.329041 -0.183311
-0.113847 0.424650 -0.005965
0.159191 0.337126 0.154714
0.018056 -0.181161 -0.188657
-0.158173 0.104953 -0.190007
0.159065 0.385959 0.171654
0.095748 -0.281664 -0.185465
0.056252 -0.211964 -0.181449
-0.119609 0.055296 -0.190665
0.159972 0.190146 0.080148
-0.058025 -0.041866 -0.190813
-0.028250 -0.084318 -0.190494
-0.085822 0.008159 -0.190951
0.065771 -0.222306 -0.187556
0.167226 -0.307037 -0.154522
0.166930 -0.001495 -0.010043
0.154962 -0.343652 -0.182694
-0.194492 0.307849 -0.147080
-0.148986 0.142821 -0.189416
0.123628 -0.254658 -0.173101
-0.169462 0.185129 -0.188307
0.039822 -0.133373 -0.180602
-0.181118 0.310860 -0.144664
0.162046 -0.158353 -0.103295
-0.002051 -0.065278 -0.182531
0.158644 -0.216605 -0.135938
-0.187818 0.237997 -0.186653
0.157907 0.077300 -0.000149
0.013557 0.415653 0.043772
0.086594 0.203223 0.001053
0.152037 -0.062808 -0.073022
0.035917 -0.121943 -0.190003
-0.176682 0.251094 -0.178836
0.012472 -0.080253 -0.190610
0.114675 -0.231297 -0.187300
-0.086262 0.112625 -0.177464
-0.092838 0.095669 -0.190235
-0.048825 0.025331 -0.190912
-0.169901 0.418491 -0.105856
-0.194839 0.383558 -0.144545
-0.108413 0.139034 -0.189552
0.001120 -0.040611 -0.190897
-0.194446 0.298609 -0.183197
-0.129174 0.178859 -0.188851
0.158266 0.316377 0.087808
-0.027273 0.020900 -0.184679
0.084155 -0.161074 -0.189256
0.161417 0.239480 0.052406
-0.194470 0.352557 -0.163682
-0.057668 0.068687 -0.190678
0.155456 -0.250881 -0.186654
-0.163465 0.265399 -0.185708
-0.113705 0.189333 -0.188275
0.155136 0.413834 0.111537
0.137177 -0.203686 -0.188245
0.044564 -0.060477 -0.190854
0.129363 -0.160351 -0.178014
0.042146 -0.022166 -0.179732
-0.119031 0.229662 -0.187042
0.174152 0.180134 0.007030
0.000961 0.030012 -0.190953
0.163046 -0.063870 -0.115658
0.165885 -0.095016 -0.130558
-0.145270 0.295211 -0.184519
0.141258 0.141196 -0.040068
0.114148 0.427395 0.067792
0.092706 -0.101081 -0.190397
-0.046028 0.123657 -0.189869
-0.163975 0.335566 -0.182638
0.156892 -0.001106 -0.101664
-0.186643 0.401044 -0.177671
0.110854 -0.081497 -0.175505
0.132316 -0.143719 -0.189763
-0.151449 0.337908 -0.184184
-0.008102 0.085839 -0.190497
-0.061106 0.185583 -0.188442
0.166006 0.057404 -0.078367
0.078809 -0.039591 -0.191005
0.163295 0.400002 0.067137
-0.044964 0.415315 -0.080733
-0.105428 0.287588 -0.184923
0.066493 -0.001866 -0.191180
-0.125225 0.332946 -0.182810
0.158415 0.349499 0.032644
-0.057217 0.217742 -0.187954
0.159812 0.290068 0.006541
0.039227 0.083569 -0.178416
-0.091584 0.287190 -0.185055
-0.014907 0.155071 -0.189281
0.055536 0.038838 -0.190980
0.033966 0.078108 -0.190671
-0.128347 0.373254 -0.180724
-0.004809 0.170930 -0.179689
0.156011 -0.094214 -0.190585
0.141065 -0.038103 -0.177018
-0.046747 0.245868 -0.186561
0.115140 -0.021352 -0.191145
0.025273 0.128065 -0.189895
0.162825 0.232249 -0.040657
-0.020759 0.213362 -0.187758
-0.125706 0.415333 -0.177402
0.159403 0.057881 -0.126822
0.101688 0.030460 -0.186756
0.154545 -0.054052 -0.191032
-0.058154 0.314245 -0.183761
0.167636 0.186634 -0.074908
-0.075632 0.422388 -0.151411
-0.086211 0.375533 -0.180651
0.162824 0.138370 -0.105166
0.160184 0.400375 0.009057
0.080671 0.100098 -0.190396
0.127899 0.025490 -0.191141
0.029461 0.190200 -0.188446
0.153887 -0.014005 -0.191233
-0.023481 0.285898 -0.185111
0.003672 0.294891 -0.167015
0.070777 0.140546 -0.189763
0.115879 0.067986 -0.190911
0.082302 0.421736 -0.061844
0.033052 0.230888 -0.187204
0.056401 0.203883 -0.183811
0.138296 0.099563 -0.173618
-0.008637 0.325064 -0.183330
-0.032764 0.364388 -0.184006
0.073682 0.178528 -0.188802
-0.039378 0.385299 -0.180165
0.117880 0.110926 -0.190279
0.157512 0.326291 -0.069926
0.157858 0.368612 -0.052913
0.147076 0.429574 -0.040421
0.155609 0.086164 -0.190708
0.125706 0.174607 -0.171914
0.048212 0.270858 -0.185796
0.077223 0.220627 -0.187630
0.120082 0.150154 -0.189584
0.035585 0.427567 -0.127309
0.042055 0.310038 -0.184088
0.149031 0.216290 -0.149389
0.017418 0.365178 -0.181373
0.159331 0.287358 -0.116588
0.002549 0.414221 -0.179827
0.093151 0.258033 -0.186314
0.100776 0.266226 -0.181022
0.014759 0.415155 -0.178560
0.021193 0.401492 -0.187090
0.149082 0.189577 -0.188620
0.127073 0.229637 -0.187375
0.165121 0.354917 -0.105381
0.097982 0.297623 -0.184734
0.061387 0.367742 -0.181288
0.056654 0.407633 -0.179037
0.104057 0.356819 -0.172970
0.153367 0.306239 -0.161679
0.160189 0.423435 -0.104633
0.155456 0.250881 -0.186654
0.105311 0.349960 -0.182337
0.125823 0.320113 -0.183737
0.160005 0.288181 -0.185251
0.096214 0.411359 -0.179861
0.100332 0.380760 -0.190863
0.103043 0.407811 -0.179089
0.157005 0.356363 -0.182056
0.144752 0.403155 -0.173480
0.156270 0.371501 -0.180576
0.149597 0.422605 -0.165033
0.155694 0.422965 -0.170612
0.155424 0.420929 -0.178421
