-0.147804 0.168874 0.096090
-0.146703 0.154992 0.111890
-0.149179 0.176268 0.107923
-0.146021 0.148857 0.094239
-0.145970 0.150767 0.103074
-0.149223 0.178824 0.083284
-0.147320 0.158641 0.071289
-0.146471 0.153168 0.088222
-0.148263 0.171050 0.082916
-0.147049 0.161314 0.093834
-0.147937 0.166647 0.073996
-0.147256 0.163053 0.100286
-0.147226 0.159993 0.087424
-0.148525 0.170044 0.114282
-0.146098 0.146821 0.111436
-0.148016 0.166825 0.088770
-0.146610 0.155524 0.081902
-0.150120 0.182336 0.100232
-0.145906 0.146236 0.083756
-0.148622 0.173677 0.090277
-0.147453 0.161204 0.117505
-0.145249 0.141516 0.091214
-0.147810 0.163807 0.109243
-0.145816 0.143355 0.101672
-0.148052 0.169533 0.105245
-0.149551 0.181414 0.091198
-0.145979 0.150170 0.076789
-0.147228 0.155822 0.095227
-0.147058 0.157824 0.104563
-0.148992 0.175316 0.098877
-0.147634 0.163896 0.080001
-0.048890 -0.007265 0.072239
-0.078110 -0.011388 0.110498
-0.067422 -0.012232 0.103162
-0.046966 -0.010122 0.127250
-0.036562 -0.010833 0.096442
-0.076204 -0.012097 0.094606
-0.038794 -0.006963 0.089022
-0.045147 -0.011441 0.065714
-0.045103 -0.011056 0.093098
-0.036752 -0.009430 0.074139
-0.055679 -0.012791 0.094803
-0.044881 -0.010784 0.081757
-0.043879 -0.010402 0.115647
-0.059754 -0.010737 0.083693
-0.032848 -0.008702 0.117119
-0.065323 -0.012046 0.118714
-0.029663 -0.008771 0.100558
-0.071917 -0.011045 0.079007
-0.043055 -0.006534 0.105046
-0.059245 -0.011890 0.074382
-0.059833 -0.011373 0.107216
-0.058659 -0.012386 0.129710
-0.051917 -0.011830 0.086212
-0.035977 -0.010216 0.108318
-0.047636 -0.012008 0.104706
-0.052740 -0.010586 0.100624
-0.064818 -0.007423 0.092290
-0.057104 -0.010990 0.063054
-0.040556 -0.011523 0.124384
-0.051826 -0.010848 0.111761
-0.057094 -0.009811 0.118824
-0.033684 -0.010328 0.085520
-0.204326 0.373521 0.128351
-0.199108 0.370504 0.155711
-0.193352 0.360465 0.170266
-0.203443 0.374076 0.174390
-0.188932 0.350754 0.154328
-0.190359 0.356014 0.160384
-0.205437 0.373911 0.140015
-0.197351 0.360434 0.122910
-0.192040 0.353821 0.146600
-0.200722 0.369580 0.139344
-0.193536 0.360376 0.150948
-0.200708 0.366608 0.130743
-0.196307 0.364418 0.160724
-0.196709 0.365057 0.146460
-0.197890 0.367540 0.174378
-0.188774 0.353537 0.174861
-0.198579 0.364454 0.151369
-0.195538 0.361709 0.141397
-0.207356 0.377142 0.158398
-0.189982 0.351862 0.137787
-0.202040 0.371482 0.151880
-0.194288 0.361204 0.180786
-0.185953 0.345768 0.146767
-0.195360 0.363579 0.167148
-0.185835 0.346497 0.163392
-0.199075 0.368737 0.161965
-0.208440 0.378075 0.146435
-0.193059 0.357314 0.128574
-0.191837 0.354919 0.161658
-0.192666 0.360830 0.162220
-0.203127 0.373899 0.165879
-0.197333 0.362982 0.138158
-0.021278 -0.006524 0.076264
-0.056740 -0.007078 0.126557
-0.044774 -0.007838 0.116636
-0.020241 -0.006763 0.146883
-0.003949 -0.006613 0.108938
-0.053591 -0.007437 0.105692
-0.009394 -0.005893 0.097221
-0.017433 -0.007070 0.065831
-0.017170 -0.006425 0.104069
-0.004901 -0.005577 0.077748
-0.030567 -0.008576 0.106138
-0.016888 -0.006050 0.089152
-0.014161 -0.006782 0.132670
-0.035029 -0.006515 0.090568
0.001332 -0.005506 0.134860
-0.041740 -0.007900 0.135223
0.006983 -0.004520 0.114204
-0.049434 -0.006336 0.085672
-0.013504 -0.006839 0.116706
-0.034605 -0.007330 0.079465
-0.034974 -0.007214 0.123201
-0.035792 -0.008444 0.148412
-0.025189 -0.006873 0.096101
-0.003684 -0.006039 0.123488
-0.020571 -0.007730 0.120000
-0.028454 -0.007213 0.113814
-0.041961 -0.006996 0.101581
-0.032727 -0.007032 0.063654
-0.009220 -0.007419 0.144027
-0.024449 -0.006725 0.128201
-0.030774 -0.007075 0.136111
0.001655 -0.005569 0.093440
0.080420 0.001137 0.182679
0.034125 -0.002378 0.184117
0.041060 -0.007883 0.184745
0.089289 -0.000958 0.185496
0.122078 -0.007091 0.183878
0.018622 -0.010538 0.184701
0.113874 0.002154 0.183644
0.109984 -0.006731 0.172380
0.087918 -0.007952 0.183529
0.120291 -0.001668 0.180119
0.071466 -0.009305 0.184136
0.096193 -0.005599 0.182707
0.101516 -0.004261 0.185746
0.066326 -0.006359 0.182594
0.127134 -0.000570 0.186127
0.040712 -0.009852 0.183918
0.142832 0.000292 0.186387
0.048364 -0.010386 0.181159
0.100704 0.004081 0.183730
0.057321 -0.009209 0.176863
0.063888 -0.002512 0.184640
0.055886 -0.005853 0.182603
0.075495 -0.011269 0.180756
0.114893 -0.003951 0.186203
0.100901 -0.009865 0.181755
0.098011 -0.001575 0.184836
0.055484 0.000311 0.182775
0.078798 -0.007481 0.168169
0.108095 -0.002925 0.184428
0.083970 -0.004988 0.185668
0.076415 -0.003046 0.184517
0.134276 -0.004812 0.183082
-0.010097 -0.005964 0.082213
-0.044526 -0.008876 0.123344
-0.033466 -0.009666 0.115643
-0.007335 -0.007388 0.140337
0.009027 -0.007584 0.110334
-0.043227 -0.010266 0.107028
0.002990 -0.005716 0.101153
-0.004816 -0.008589 0.073505
-0.005025 -0.008602 0.106596
0.007255 -0.006456 0.083778
-0.018675 -0.010534 0.107495
-0.004401 -0.007962 0.092806
-0.001625 -0.007843 0.129954
-0.023865 -0.008156 0.093735
0.013398 -0.005685 0.131631
-0.030406 -0.009867 0.131260
0.018922 -0.005631 0.114847
-0.038388 -0.008568 0.089781
-0.000886 -0.006195 0.117444
-0.023837 -0.009532 0.083477
-0.023786 -0.008846 0.121719
-0.023444 -0.009606 0.141556
-0.013171 -0.008052 0.098016
0.008071 -0.007168 0.122394
-0.007002 -0.008546 0.118808
-0.015427 -0.007774 0.114905
-0.029135 -0.006889 0.104510
-0.020579 -0.008465 0.070121
0.002618 -0.009065 0.139024
-0.012635 -0.008010 0.126190
-0.019546 -0.007085 0.132273
0.013204 -0.007753 0.096961
-0.168851 0.284112 0.100802
-0.166054 0.277884 0.121935
-0.162435 0.264688 0.135909
-0.169055 0.286341 0.132315
-0.161231 0.258854 0.119653
-0.160616 0.260426 0.128129
-0.170227 0.288961 0.107914
-0.164348 0.268337 0.096834
-0.162321 0.263011 0.113757
-0.167600 0.281326 0.108423
-0.164083 0.269702 0.119183
-0.166845 0.276365 0.099812
-0.164983 0.272793 0.125052
-0.164231 0.270191 0.113540
-0.167117 0.280437 0.138222
-0.160308 0.257029 0.135585
-0.166661 0.277060 0.114575
-0.162827 0.265360 0.108444
-0.171433 0.293063 0.124551
-0.160639 0.256508 0.109207
-0.168238 0.283142 0.115336
-0.163903 0.270247 0.141070
-0.158759 0.251837 0.116166
-0.165491 0.274017 0.133561
-0.159538 0.253172 0.126622
-0.166638 0.279766 0.130233
-0.170608 0.291112 0.115975
-0.161560 0.260391 0.102287
-0.163673 0.265274 0.121162
-0.163347 0.267558 0.128901
-0.168831 0.285246 0.123740
-0.165910 0.274547 0.106171
0.233524 -0.211150 0.183190
0.231710 -0.222320 0.189072
0.232720 -0.238616 0.190622
0.232768 -0.208346 0.191059
0.238187 -0.257773 0.185998
0.231538 -0.252518 0.188841
0.235124 -0.204039 0.184420
0.238857 -0.244569 0.183980
0.232404 -0.251182 0.185147
0.235625 -0.223459 0.182345
0.231837 -0.244329 0.187410
0.234402 -0.235158 0.183233
0.231612 -0.226267 0.186851
0.231441 -0.231091 0.185613
0.236042 -0.222476 0.190419
0.233138 -0.256452 0.190941
0.240597 -0.218282 0.186563
0.232382 -0.238942 0.185963
0.231752 -0.191207 0.186239
0.232721 -0.262001 0.184272
0.232498 -0.218655 0.183825
0.234595 -0.229948 0.190706
0.231804 -0.276035 0.186342
0.234430 -0.229601 0.187975
0.232610 -0.265557 0.187838
0.233280 -0.214394 0.187260
0.231833 -0.201153 0.184760
0.234073 -0.248646 0.184421
0.236908 -0.247005 0.190291
0.233173 -0.237734 0.189099
0.231084 -0.212665 0.187167
0.241288 -0.232766 0.186483
-0.224124 -0.308282 -0.209825
-0.228847 -0.322357 -0.206831
-0.228933 -0.332180 -0.205907
-0.223002 -0.306922 -0.202138
-0.222130 -0.350511 -0.205721
-0.231922 -0.346579 -0.207063
-0.220364 -0.302023 -0.202682
-0.222318 -0.338247 -0.210641
-0.224997 -0.348395 -0.203137
-0.221859 -0.320388 -0.211048
-0.227516 -0.342253 -0.202368
-0.224062 -0.334367 -0.205256
-0.223290 -0.322032 -0.202637
-0.226285 -0.330664 -0.202378
-0.220772 -0.320566 -0.203903
-0.228721 -0.353327 -0.203751
-0.219999 -0.315387 -0.206558
-0.229094 -0.336417 -0.204935
-0.221771 -0.290510 -0.201818
-0.227895 -0.356059 -0.208571
-0.227618 -0.314980 -0.203321
-0.225636 -0.326829 -0.203478
-0.228326 -0.369475 -0.202545
-0.221170 -0.327393 -0.203793
-0.224090 -0.359967 -0.204128
-0.220470 -0.312728 -0.202129
-0.227739 -0.300770 -0.202579
-0.227055 -0.339715 -0.209619
-0.222292 -0.342492 -0.204026
-0.223027 -0.332905 -0.202525
-0.224945 -0.314549 -0.201713
-0.220548 -0.329166 -0.206465
-0.197103 -0.377747 -0.204543
-0.221558 -0.377071 -0.205184
-0.215103 -0.377167 -0.204491
-0.191882 -0.377855 -0.202318
-0.168244 -0.384038 -0.203431
-0.225629 -0.380171 -0.205282
-0.179563 -0.377626 -0.205502
-0.177525 -0.382254 -0.204900
-0.191582 -0.382235 -0.205966
-0.168689 -0.378014 -0.205022
-0.201333 -0.382157 -0.204840
-0.187369 -0.379134 -0.206486
-0.183070 -0.378447 -0.203747
-0.204369 -0.378114 -0.205632
-0.164626 -0.378629 -0.203675
-0.213413 -0.381559 -0.203887
-0.150057 -0.378972 -0.205599
-0.213189 -0.378937 -0.205559
-0.186083 -0.378122 -0.205009
-0.209156 -0.383280 -0.204507
-0.205449 -0.376684 -0.204784
-0.206455 -0.378140 -0.203430
-0.197418 -0.384013 -0.204771
-0.175054 -0.378698 -0.204442
-0.186542 -0.383557 -0.203421
-0.193005 -0.377913 -0.204960
-0.211493 -0.376868 -0.205203
-0.199074 -0.379926 -0.206615
-0.180013 -0.381670 -0.202971
-0.195114 -0.377908 -0.204719
-0.200007 -0.377762 -0.203567
-0.158279 -0.382176 -0.205753
-0.146448 0.102897 0.030185
-0.146462 0.098033 0.052139
-0.148198 0.084897 0.068898
-0.145923 0.104935 0.065861
-0.148361 0.076990 0.051123
-0.148055 0.080078 0.060349
-0.145695 0.107251 0.040163
-0.147823 0.087717 0.025120
-0.147989 0.081981 0.044810
-0.146370 0.099909 0.038648
-0.147082 0.090863 0.050221
-0.147008 0.094891 0.029572
-0.146921 0.092285 0.057294
-0.147771 0.089208 0.043478
-0.147020 0.098687 0.071355
-0.148823 0.075700 0.069333
-0.147095 0.095802 0.044762
-0.147469 0.084758 0.037325
-0.146001 0.110854 0.057061
-0.148805 0.074718 0.039157
-0.146453 0.102590 0.047586
-0.147485 0.091139 0.074668
-0.148533 0.069246 0.046897
-0.147498 0.092943 0.065986
-0.149212 0.071404 0.059160
-0.146850 0.098489 0.061522
-0.145745 0.110032 0.048437
-0.148236 0.079118 0.031604
-0.148324 0.085143 0.052184
-0.147782 0.087183 0.062129
-0.146090 0.104382 0.056691
-0.147219 0.092939 0.036199
-0.190859 0.318960 0.040920
-0.184823 0.310277 0.096461
-0.174055 0.277943 0.131683
-0.191194 0.323595 0.132050
-0.171422 0.253105 0.091406
-0.169999 0.258911 0.111612
-0.192638 0.325017 0.065152
-0.177964 0.280057 0.026922
-0.173995 0.268380 0.077359
-0.186835 0.311922 0.062811
-0.177257 0.285264 0.090003
-0.183557 0.300945 0.041121
-0.180325 0.294555 0.102220
-0.180314 0.292427 0.075824
-0.185933 0.307566 0.137618
-0.169530 0.254575 0.139112
-0.185478 0.303637 0.080932
-0.177141 0.278866 0.065784
-0.196942 0.337462 0.104274
-0.169153 0.250995 0.061451
-0.186905 0.317505 0.082543
-0.179177 0.289203 0.149458
-0.166369 0.230240 0.083007
-0.181764 0.297708 0.123270
-0.167891 0.237705 0.117343
-0.184073 0.309866 0.113447
-0.195147 0.331290 0.082789
-0.172298 0.265774 0.047608
-0.175221 0.269552 0.101490
-0.176075 0.281162 0.114908
-0.190115 0.321435 0.107378
-0.180776 0.294671 0.057938
-0.154460 0.047739 -0.004449
-0.160535 0.041948 0.025920
-0.156233 0.034688 0.042271
-0.154771 0.050690 0.043348
-0.156352 0.029940 0.023453
-0.161855 0.029558 0.028851
-0.153828 0.051660 0.009827
-0.155050 0.037030 -0.013930
-0.155997 0.033268 0.014845
-0.154263 0.045002 0.008121
-0.154840 0.036960 0.021576
-0.154893 0.040233 -0.001717
-0.154910 0.039316 0.027894
-0.154988 0.038218 0.013750
-0.155182 0.043095 0.047113
-0.156471 0.029569 0.048470
-0.155421 0.042114 0.017227
-0.160011 0.033987 0.007786
-0.154187 0.058281 0.029457
-0.156096 0.028237 0.005778
-0.154315 0.046473 0.019856
-0.156140 0.037085 0.054747
-0.158080 0.023688 0.017042
-0.155908 0.040037 0.039971
-0.158025 0.024944 0.034461
-0.155226 0.043528 0.033370
-0.153251 0.054930 0.019091
-0.155664 0.031319 -0.002592
-0.156357 0.032748 0.029157
-0.155576 0.035673 0.032974
-0.154425 0.049556 0.032119
-0.155059 0.037376 0.005004
-0.186170 -0.378895 -0.205291
-0.215530 -0.377488 -0.203690
-0.207053 -0.377120 -0.203182
-0.181826 -0.379069 -0.200416
-0.161914 -0.383737 -0.203160
-0.219725 -0.379363 -0.205245
-0.170272 -0.378192 -0.205075
-0.170115 -0.382239 -0.204768
-0.182288 -0.380185 -0.205341
-0.161081 -0.378890 -0.205317
-0.191834 -0.380576 -0.204010
-0.177884 -0.378586 -0.206265
-0.173891 -0.378325 -0.201835
-0.194522 -0.378146 -0.205854
-0.157799 -0.378457 -0.201202
-0.204676 -0.381331 -0.202233
-0.144666 -0.378042 -0.203854
-0.206506 -0.378768 -0.206382
-0.176380 -0.378596 -0.204467
-0.199823 -0.382247 -0.205541
-0.196830 -0.377295 -0.203593
-0.196197 -0.379445 -0.201546
-0.188259 -0.383601 -0.204625
-0.165620 -0.378501 -0.203107
-0.179050 -0.382874 -0.202581
-0.184443 -0.378144 -0.204058
-0.202554 -0.377922 -0.205229
-0.189544 -0.380433 -0.205346
-0.170382 -0.381033 -0.200332
-0.185105 -0.377804 -0.202629
-0.190647 -0.378518 -0.201659
-0.152489 -0.380234 -0.205499
-0.223952 -0.302273 -0.208429
-0.227826 -0.315537 -0.203607
-0.228398 -0.327954 -0.203336
-0.222764 -0.300034 -0.201231
-0.221152 -0.346909 -0.208096
-0.230700 -0.342174 -0.205970
-0.218696 -0.295098 -0.206478
-0.220705 -0.335514 -0.208058
-0.225562 -0.343387 -0.209859
-0.220557 -0.313590 -0.209147
-0.227975 -0.336809 -0.208014
-0.223079 -0.327527 -0.209272
-0.224954 -0.316871 -0.207788
-0.226547 -0.322089 -0.208064
-0.220212 -0.314307 -0.202364
-0.229131 -0.345827 -0.203400
-0.218352 -0.309618 -0.206019
-0.228346 -0.328173 -0.207709
-0.221383 -0.282267 -0.205804
-0.229036 -0.351152 -0.210040
-0.226642 -0.311228 -0.208254
-0.225520 -0.321285 -0.201790
-0.229220 -0.363291 -0.209646
-0.220991 -0.321055 -0.207374
-0.226180 -0.353767 -0.206949
-0.220756 -0.304673 -0.207059
-0.226070 -0.292972 -0.204947
-0.226223 -0.334720 -0.208793
-0.222622 -0.336832 -0.204601
-0.224639 -0.327897 -0.205613
-0.225499 -0.306456 -0.204754
-0.219249 -0.324911 -0.206098
-0.159801 0.244865 0.082308
-0.157618 0.238940 0.103882
-0.154625 0.225050 0.118675
-0.160332 0.247152 0.115159
-0.153399 0.218891 0.101622
-0.153022 0.220596 0.110415
-0.161011 0.249818 0.089990
-0.155955 0.228692 0.078127
-0.154342 0.223192 0.095576
-0.158740 0.241886 0.090159
-0.155862 0.230571 0.101180
-0.157965 0.236891 0.081224
-0.156575 0.233353 0.107364
-0.155963 0.230433 0.095159
-0.158651 0.240872 0.121246
-0.152913 0.217001 0.118562
-0.158086 0.237415 0.096354
-0.154755 0.225620 0.089897
-0.162445 0.254036 0.107109
-0.152838 0.216334 0.090726
-0.159400 0.244053 0.097346
-0.155968 0.230918 0.124444
-0.151406 0.211480 0.098078
-0.157213 0.234363 0.116227
-0.152164 0.213117 0.108953
-0.158162 0.240404 0.112771
-0.161585 0.252288 0.098032
-0.153589 0.220471 0.083737
-0.155626 0.225567 0.103009
-0.155416 0.227962 0.111400
-0.160084 0.246108 0.106169
-0.157245 0.234740 0.087630
-0.146728 0.155000 0.046950
-0.145762 0.149908 0.068724
-0.146173 0.135122 0.085222
-0.146660 0.157214 0.081767
-0.145893 0.127671 0.067271
-0.145302 0.130535 0.076634
-0.146710 0.159728 0.056115
-0.146545 0.138657 0.042103
-0.145949 0.132730 0.061106
-0.146366 0.151829 0.054999
-0.145953 0.141823 0.066660
-0.146471 0.146803 0.045783
-0.145991 0.143556 0.073566
-0.146283 0.140074 0.060026
-0.146758 0.150656 0.087799
-0.146002 0.125838 0.085280
-0.146519 0.147347 0.061135
-0.145593 0.135340 0.053949
-0.147243 0.163564 0.073591
-0.145942 0.125058 0.055761
-0.146554 0.154721 0.063354
-0.146292 0.141943 0.091129
-0.145414 0.119494 0.063513
-0.146619 0.144267 0.082565
-0.146051 0.121893 0.075032
-0.146348 0.150306 0.078344
-0.146780 0.162611 0.064428
-0.145856 0.129539 0.048284
-0.146617 0.135781 0.068128
-0.146180 0.137992 0.078103
-0.146541 0.156469 0.072463
-0.146405 0.144473 0.052393
0.083694 0.004049 0.175252
0.048728 0.002576 0.184586
0.056964 0.002251 0.185548
0.087128 0.001443 0.186724
0.105590 -0.003378 0.187571
0.042987 0.002349 0.185603
0.100118 0.005357 0.180997
0.096047 0.005020 0.171106
0.086226 0.002643 0.185635
0.106956 0.005439 0.175112
0.076542 0.001948 0.186453
0.090918 0.004472 0.182304
0.096053 0.004282 0.186090
0.073110 0.004259 0.181654
0.111503 0.004409 0.186902
0.057496 -0.002615 0.186666
0.122283 0.005618 0.185086
0.057472 0.004581 0.177742
0.094777 0.004265 0.181319
0.069265 0.003315 0.179174
0.067868 0.002942 0.184897
0.067098 -0.000745 0.184725
0.076594 -0.006384 0.187177
0.105846 0.005054 0.186034
0.090917 -0.004893 0.185229
0.085415 0.004023 0.183737
0.063441 0.003336 0.180860
0.074839 0.005440 0.168917
0.099097 0.000914 0.185235
0.083101 0.004698 0.184907
0.075626 0.003028 0.185775
0.114277 0.005455 0.182409
-0.173477 -0.379222 -0.206914
-0.197627 -0.379429 -0.202692
-0.191982 -0.380857 -0.202509
-0.169827 -0.379737 -0.200989
-0.149978 -0.384915 -0.202008
-0.202354 -0.383562 -0.202909
-0.157414 -0.379242 -0.203664
-0.158315 -0.384052 -0.206749
-0.169569 -0.383694 -0.203360
-0.150644 -0.380015 -0.206333
-0.178615 -0.384254 -0.202470
-0.165803 -0.380835 -0.205995
-0.162684 -0.380640 -0.201608
-0.180191 -0.380439 -0.204587
-0.147210 -0.381083 -0.201507
-0.189893 -0.384924 -0.202439
-0.134318 -0.381045 -0.201900
-0.190594 -0.381056 -0.206689
-0.164992 -0.379392 -0.203986
-0.184812 -0.383457 -0.206372
-0.182694 -0.379780 -0.202360
-0.183353 -0.382312 -0.202068
-0.174970 -0.384756 -0.204475
-0.155893 -0.381565 -0.201948
-0.165373 -0.385075 -0.202543
-0.169380 -0.379603 -0.203801
-0.186892 -0.379110 -0.204621
-0.176244 -0.381339 -0.207995
-0.158236 -0.383904 -0.201724
-0.172766 -0.381506 -0.202055
-0.177099 -0.380055 -0.201617
-0.141423 -0.383391 -0.204243
-0.147840 0.082927 0.007248
-0.148191 0.078066 0.029726
-0.150250 0.065621 0.046602
-0.147331 0.085005 0.043675
-0.150443 0.057551 0.028787
-0.150219 0.060663 0.037963
-0.146952 0.087200 0.017784
-0.149472 0.068064 0.001921
-0.149952 0.062417 0.022377
-0.147868 0.079918 0.016101
-0.148835 0.071189 0.027774
-0.148525 0.074756 0.006914
-0.148675 0.072469 0.034901
-0.149594 0.069562 0.020932
-0.148674 0.078599 0.049140
-0.151045 0.056461 0.047300
-0.148788 0.075873 0.022300
-0.149373 0.065211 0.014755
-0.147240 0.091032 0.034680
-0.150941 0.055301 0.016351
-0.147960 0.082500 0.025150
-0.149347 0.071498 0.052645
-0.150788 0.049761 0.024238
-0.149315 0.073090 0.043679
-0.151500 0.051895 0.037048
-0.148538 0.078445 0.039094
-0.147121 0.089980 0.026127
-0.150179 0.059784 0.008717
-0.150263 0.065592 0.029901
-0.149655 0.067479 0.039871
-0.147588 0.084471 0.034419
-0.148780 0.072916 0.013700
-0.058263 -0.010894 0.039455
-0.086453 -0.012926 0.074737
-0.078047 -0.011829 0.064894
-0.060583 -0.011036 0.089485
-0.045663 -0.010515 0.059610
-0.088411 -0.012430 0.058701
-0.051597 -0.010288 0.052676
-0.057011 -0.010562 0.028017
-0.056212 -0.009737 0.058630
-0.047401 -0.009554 0.039040
-0.063875 -0.011171 0.060521
-0.058360 -0.010532 0.048909
-0.052568 -0.009854 0.078448
-0.070051 -0.010747 0.047826
-0.042646 -0.009573 0.077741
-0.077296 -0.011677 0.084644
-0.037501 -0.008740 0.065710
-0.082061 -0.012198 0.044001
-0.055676 -0.011263 0.066434
-0.067285 -0.010809 0.038845
-0.071416 -0.011766 0.073286
-0.069974 -0.011595 0.093193
-0.064841 -0.014040 0.051847
-0.047915 -0.009218 0.069503
-0.062413 -0.013341 0.071490
-0.067648 -0.011338 0.065105
-0.074710 -0.012331 0.056026
-0.069341 -0.011444 0.028323
-0.049838 -0.009911 0.089486
-0.059244 -0.010051 0.077499
-0.066510 -0.011370 0.081807
-0.040160 -0.008749 0.049278
-0.191881 0.352653 0.098141
-0.188151 0.346862 0.122759
-0.183026 0.335255 0.137192
-0.192097 0.354630 0.135135
-0.181050 0.329006 0.120585
-0.180439 0.330594 0.128875
-0.193892 0.356236 0.107091
-0.185739 0.338794 0.092923
-0.182373 0.332708 0.114281
-0.190015 0.349991 0.107529
-0.184644 0.338276 0.119535
-0.188876 0.345117 0.098785
-0.186345 0.342042 0.125626
-0.185754 0.340596 0.113600
-0.189028 0.348812 0.140280
-0.179708 0.327825 0.139122
-0.188528 0.345959 0.115530
-0.183682 0.335820 0.108568
-0.195593 0.360234 0.124641
-0.180176 0.327095 0.108127
-0.190883 0.351207 0.116007
-0.184465 0.339386 0.144223
-0.177139 0.322641 0.115705
-0.186917 0.343460 0.134887
-0.178262 0.323447 0.129089
-0.188811 0.348265 0.130771
-0.194719 0.358213 0.115488
-0.181765 0.331710 0.100381
-0.183611 0.334630 0.123853
-0.183679 0.337435 0.130174
-0.191686 0.353534 0.126108
-0.187623 0.343775 0.105427
-0.218734 0.376441 0.082475
-0.221649 0.372161 0.125919
-0.219571 0.374007 0.126570
-0.216542 0.376961 0.142908
-0.213930 0.370597 0.111284
-0.220263 0.370205 0.115172
-0.213867 0.375920 0.103354
-0.215549 0.377392 0.065760
-0.215038 0.376172 0.106099
-0.211654 0.375510 0.087912
-0.218519 0.374658 0.111313
-0.217167 0.376813 0.093303
-0.215391 0.376780 0.130151
-0.218540 0.376758 0.100154
-0.209048 0.374521 0.131228
-0.219242 0.372599 0.141901
-0.204868 0.373319 0.115577
-0.220031 0.372777 0.095929
-0.216254 0.377991 0.119912
-0.217767 0.371591 0.085033
-0.218584 0.376464 0.119518
-0.218342 0.376554 0.150556
-0.216308 0.364073 0.102691
-0.211019 0.375398 0.123309
-0.217037 0.364413 0.126249
-0.216355 0.376025 0.114073
-0.220093 0.377237 0.107449
-0.218883 0.375263 0.074861
-0.208397 0.374664 0.140022
-0.216624 0.377044 0.125667
-0.219066 0.377115 0.135712
-0.206356 0.374127 0.097461
-0.062439 -0.006648 0.033266
-0.094046 -0.013550 0.072064
-0.081878 -0.015053 0.066422
-0.059116 -0.010506 0.089610
-0.050520 -0.013979 0.059844
-0.091493 -0.015989 0.057098
-0.051155 -0.005936 0.052129
-0.057772 -0.014684 0.028796
-0.058350 -0.013982 0.055158
-0.049468 -0.009969 0.036262
-0.070477 -0.015925 0.057365
-0.057917 -0.012678 0.043134
-0.057373 -0.011804 0.077638
-0.073127 -0.012587 0.045669
-0.045715 -0.009468 0.079325
-0.079116 -0.015464 0.080309
-0.042581 -0.010049 0.061993
-0.087237 -0.013391 0.040729
-0.056598 -0.006161 0.068703
-0.074367 -0.015349 0.036304
-0.073384 -0.012893 0.068077
-0.072018 -0.014501 0.091451
-0.065981 -0.016036 0.047699
-0.048941 -0.012082 0.070415
-0.061190 -0.015904 0.067180
-0.064431 -0.011269 0.061571
-0.078983 -0.007138 0.054684
-0.070851 -0.012788 0.024298
-0.054418 -0.014507 0.085674
-0.066214 -0.013126 0.072695
-0.071769 -0.010020 0.081363
-0.047973 -0.013290 0.047857
0.002696 -0.010172 0.054229
-0.044956 -0.010634 0.110620
-0.030935 -0.009836 0.095325
0.004322 -0.009461 0.131880
0.038433 -0.006268 0.087833
-0.047874 -0.010547 0.085677
0.023985 -0.008736 0.076511
0.016120 -0.007691 0.039326
0.007970 -0.007625 0.083775
0.034213 -0.008437 0.055469
-0.011029 -0.009690 0.085935
0.013455 -0.008014 0.065898
0.019028 -0.007289 0.118403
-0.014584 -0.009176 0.066613
0.044020 -0.006989 0.118044
-0.030619 -0.008854 0.123223
0.055670 -0.006574 0.099628
-0.038465 -0.011614 0.063312
0.019929 -0.010663 0.092725
-0.020351 -0.008434 0.051037
-0.018078 -0.009435 0.107369
-0.017774 -0.009086 0.135917
-0.002879 -0.007151 0.074602
0.032113 -0.007152 0.105113
0.008059 -0.007308 0.104392
-0.005598 -0.009504 0.098060
-0.025611 -0.011960 0.079389
-0.008617 -0.010530 0.034342
0.027077 -0.005870 0.135109
0.002737 -0.007423 0.115627
-0.010220 -0.009476 0.121935
0.050524 -0.006265 0.071058
-0.139037 -0.013658 -0.040913
-0.152384 -0.016950 0.011933
-0.146510 -0.017124 0.004014
-0.137524 -0.014974 0.033907
-0.126333 -0.016655 -0.006709
-0.152450 -0.018160 -0.007067
-0.131744 -0.013417 -0.018991
-0.134331 -0.015490 -0.055906
-0.135393 -0.015030 -0.013639
-0.125788 -0.014535 -0.037723
-0.142304 -0.016422 -0.009966
-0.137397 -0.015670 -0.029503
-0.134066 -0.014240 0.019038
-0.143517 -0.015325 -0.024201
-0.121260 -0.014255 0.018547
-0.145699 -0.017325 0.027627
-0.110165 -0.013113 0.000211
-0.150269 -0.017132 -0.028389
-0.134969 -0.012447 0.001700
-0.142830 -0.017150 -0.039263
-0.143241 -0.015441 0.004756
-0.141456 -0.016299 0.042555
-0.141054 -0.021153 -0.020289
-0.127805 -0.014320 0.007229
-0.138459 -0.020588 0.005731
-0.140240 -0.015627 -0.004242
-0.144346 -0.014187 -0.014408
-0.144649 -0.015487 -0.052279
-0.124542 -0.015627 0.035381
-0.138672 -0.014851 0.010145
-0.142164 -0.015101 0.022652
-0.114761 -0.014586 -0.023885
-0.093181 -0.010187 -0.007267
-0.124717 -0.013923 0.049931
-0.111090 -0.014226 0.041063
-0.090614 -0.011052 0.074244
-0.079823 -0.013370 0.030655
-0.121347 -0.015805 0.027043
-0.082811 -0.009838 0.017226
-0.089582 -0.012941 -0.015490
-0.088220 -0.012965 0.023423
-0.078974 -0.009329 -0.002225
-0.100392 -0.014764 0.026979
-0.090005 -0.010846 0.007822
-0.087088 -0.010949 0.056639
-0.103065 -0.011486 0.010459
-0.073752 -0.009448 0.057802
-0.108354 -0.015281 0.061853
-0.069821 -0.008892 0.034234
-0.118476 -0.013017 0.003637
-0.086700 -0.010190 0.040188
-0.104032 -0.014712 -0.002279
-0.102645 -0.012204 0.043698
-0.103279 -0.013332 0.079225
-0.096834 -0.016473 0.015566
-0.077756 -0.010227 0.045705
-0.092800 -0.016170 0.041552
-0.096484 -0.012668 0.032584
-0.109304 -0.011257 0.021681
-0.103612 -0.011603 -0.018399
-0.083157 -0.013360 0.068623
-0.094853 -0.011860 0.048471
-0.100755 -0.012294 0.061765
-0.075395 -0.011189 0.013480
-0.161536 -0.015267 -0.082579
-0.170152 -0.024805 -0.001343
-0.164398 -0.027267 0.008716
-0.157116 -0.016944 0.040593
-0.147358 -0.036216 -0.021769
-0.168513 -0.034068 -0.017792
-0.152684 -0.014671 -0.043944
-0.150193 -0.026302 -0.103156
-0.153431 -0.027673 -0.037670
-0.146497 -0.017052 -0.068188
-0.164082 -0.024450 -0.029835
-0.160209 -0.021819 -0.066748
-0.158031 -0.019609 0.012165
-0.160304 -0.019108 -0.048207
-0.144929 -0.019795 0.017681
-0.161606 -0.033037 0.038164
-0.140811 -0.019168 -0.023002
-0.168608 -0.026441 -0.055343
-0.154778 -0.012429 -0.004562
-0.162405 -0.033848 -0.076352
-0.162191 -0.018104 -0.014490
-0.159962 -0.023459 0.055222
-0.159745 -0.051016 -0.046238
-0.146996 -0.022048 -0.001214
-0.157758 -0.048065 0.004664
-0.152611 -0.019113 -0.020126
-0.161844 -0.014195 -0.036405
-0.164753 -0.022902 -0.096303
-0.148211 -0.029848 0.029955
-0.158616 -0.024409 -0.003946
-0.161419 -0.018128 0.022490
-0.143442 -0.025190 -0.054962
-0.151510 0.197620 0.053640
-0.150680 0.192356 0.074007
-0.148186 0.178694 0.089159
-0.151862 0.199850 0.085529
-0.147391 0.172445 0.071943
-0.147854 0.174192 0.080474
-0.152187 0.202257 0.061131
-0.149276 0.182168 0.049488
-0.148070 0.176701 0.066087
-0.150866 0.194552 0.061090
-0.149018 0.184210 0.071614
-0.150328 0.190162 0.052239
-0.149365 0.186619 0.077669
-0.149149 0.183679 0.065534
-0.150771 0.193582 0.091682
-0.147241 0.170577 0.088945
-0.150318 0.190421 0.067010
-0.148827 0.179204 0.060257
-0.153214 0.206111 0.077631
-0.147151 0.169887 0.061645
-0.151302 0.197008 0.068018
-0.149297 0.184422 0.095105
-0.146355 0.165151 0.068941
-0.149856 0.187466 0.086627
-0.146854 0.166968 0.079187
-0.150343 0.193112 0.082907
-0.152676 0.204861 0.068702
-0.147480 0.173963 0.054912
-0.148921 0.178942 0.073283
-0.148835 0.181510 0.081820
-0.151788 0.198914 0.076586
-0.149748 0.187435 0.058220
-0.220507 0.375885 0.066681
-0.222363 0.372699 0.116592
-0.219796 0.371799 0.122766
-0.217652 0.375885 0.139352
-0.207120 0.364579 0.103079
-0.218547 0.367757 0.106484
-0.213581 0.374609 0.091704
-0.212434 0.373893 0.049933
-0.212909 0.371685 0.094772
-0.209058 0.373053 0.074405
-0.218818 0.373391 0.098779
-0.217961 0.375340 0.077693
-0.216220 0.375495 0.125148
-0.219416 0.376616 0.088221
-0.206503 0.372496 0.127051
-0.217338 0.369303 0.138472
-0.199738 0.370363 0.107969
-0.219675 0.371673 0.081680
-0.217151 0.376814 0.112893
-0.215841 0.368573 0.069601
-0.220320 0.376580 0.109255
-0.219092 0.375095 0.148679
-0.213520 0.358742 0.090527
-0.207984 0.372573 0.115679
-0.213371 0.359025 0.119128
-0.215932 0.374717 0.104457
-0.221458 0.377148 0.095670
-0.218406 0.373712 0.057707
-0.203956 0.369532 0.135924
-0.216943 0.374440 0.117310
-0.221101 0.376864 0.130700
-0.201307 0.370162 0.084808
0.114099 0.004165 0.185921
0.081197 0.001386 0.185337
0.087042 -0.001545 0.186391
0.120099 0.001842 0.186039
0.145841 -0.004667 0.187167
0.071786 -0.004926 0.187783
0.139260 0.004870 0.185443
0.138866 -0.001888 0.187278
0.120024 -0.004837 0.186903
0.144974 0.003190 0.187234
0.108614 -0.005305 0.186788
0.125903 -0.000672 0.187938
0.130093 0.000913 0.186905
0.104744 -0.001718 0.186755
0.150925 0.001521 0.186635
0.085661 -0.006287 0.186154
0.163455 0.003968 0.186942
0.094739 -0.004736 0.187895
0.128507 0.005676 0.184079
0.099376 -0.006513 0.187191
0.103440 0.001282 0.186089
0.097341 -0.000975 0.184966
0.112170 -0.008142 0.186040
0.139101 0.000632 0.187526
0.129508 -0.007349 0.185194
0.127975 0.002628 0.185792
0.096283 0.003310 0.184270
0.114699 -0.002268 0.185674
0.133753 -0.001844 0.186020
0.117919 0.000046 0.186545
0.111148 0.000421 0.186137
0.156902 -0.002107 0.187303
0.015586 -0.006290 0.076185
-0.012297 -0.006761 0.107239
-0.005768 -0.006032 0.098587
0.012924 -0.005987 0.120786
0.029522 -0.004705 0.094951
-0.014463 -0.005916 0.093618
0.022624 -0.006282 0.087357
0.015426 -0.005575 0.065513
0.017413 -0.005405 0.094384
0.027263 -0.005317 0.074479
0.009753 -0.006368 0.095475
0.014631 -0.005885 0.085143
0.021718 -0.005441 0.111531
0.000913 -0.006181 0.082826
0.033492 -0.005292 0.111247
-0.004695 -0.005703 0.115546
0.039079 -0.004873 0.100644
-0.009022 -0.006360 0.079844
0.018073 -0.006850 0.101610
0.006687 -0.005695 0.075881
-0.000086 -0.006722 0.108006
0.002554 -0.006102 0.122041
0.007777 -0.005418 0.088615
0.026910 -0.005159 0.104015
0.010677 -0.005853 0.104361
0.003448 -0.006347 0.100453
-0.002442 -0.007150 0.091203
0.002065 -0.006280 0.065649
0.024660 -0.005433 0.120950
0.013759 -0.005519 0.111618
0.006240 -0.006498 0.114132
0.035771 -0.004584 0.085298
0.071302 -0.002643 0.131625
0.043484 -0.003805 0.159147
0.050746 -0.002927 0.151614
0.070365 -0.002398 0.169553
0.085554 -0.001173 0.148433
0.041425 -0.002958 0.146818
0.079062 -0.002206 0.142148
0.072583 -0.001980 0.121549
0.073410 -0.001955 0.147705
0.083177 -0.001582 0.130250
0.066013 -0.002883 0.148660
0.072241 -0.002332 0.139439
0.077914 -0.001692 0.161771
0.058581 -0.002739 0.138221
0.089270 -0.001357 0.161994
0.052586 -0.002589 0.165640
0.094481 -0.001036 0.153082
0.047864 -0.003153 0.134835
0.075657 -0.002894 0.153822
0.062291 -0.002278 0.130975
0.057772 -0.003407 0.158905
0.059186 -0.002767 0.170412
0.065552 -0.002144 0.143091
0.083546 -0.001293 0.156055
0.069426 -0.002737 0.156229
0.062259 -0.002891 0.153375
0.054641 -0.003718 0.145796
0.060307 -0.002914 0.121565
0.081179 -0.001964 0.169440
0.070571 -0.001891 0.161840
0.063642 -0.002761 0.164293
0.090978 -0.001053 0.139782
0.076965 0.002028 0.143652
0.033339 0.002268 0.174921
0.044325 0.002787 0.168268
0.077979 0.002336 0.181917
0.102338 0.004015 0.165929
0.030652 0.004020 0.162042
0.094038 0.003335 0.156614
0.084028 0.003914 0.132434
0.080488 0.005065 0.163078
0.101012 0.003493 0.140757
0.066281 0.002506 0.164963
0.084538 0.003961 0.152720
0.087185 0.004012 0.177249
0.059049 0.003033 0.153282
0.107726 0.004077 0.178479
0.048807 0.003115 0.176966
0.117492 0.005337 0.168722
0.041036 0.003332 0.148582
0.088341 0.003661 0.169382
0.058712 0.003663 0.143944
0.057629 0.002590 0.174080
0.056568 0.000968 0.177422
0.071020 0.004449 0.158370
0.100449 0.004276 0.173332
0.080246 0.003434 0.171535
0.069061 0.003409 0.170098
0.050347 0.002444 0.162004
0.063059 0.002607 0.130916
0.093607 0.002433 0.180089
0.073966 0.004077 0.177556
0.066390 0.002938 0.178188
0.111352 0.004502 0.154490
0.231547 -0.169018 0.184300
0.228784 -0.186103 0.185141
0.234259 -0.206293 0.185676
0.236372 -0.168748 0.190313
0.239278 -0.235881 0.187625
0.232025 -0.229355 0.185352
0.234949 -0.162476 0.187070
0.237142 -0.218073 0.187097
0.238122 -0.233424 0.184062
0.236823 -0.187102 0.186139
0.237588 -0.224858 0.183824
0.234382 -0.210305 0.185440
0.235298 -0.193543 0.183365
0.234168 -0.199695 0.184296
0.237170 -0.188476 0.192776
0.237506 -0.235722 0.187217
0.236551 -0.181123 0.191679
0.230014 -0.211477 0.185845
0.235171 -0.145541 0.184341
0.234869 -0.246383 0.184342
0.232088 -0.179932 0.184766
0.237046 -0.199111 0.189589
0.238919 -0.261351 0.185137
0.238184 -0.195978 0.187263
0.240107 -0.249010 0.186652
0.236238 -0.174655 0.186382
0.229808 -0.156816 0.184027
0.232913 -0.221623 0.185377
0.238712 -0.224154 0.189772
0.238019 -0.207666 0.185571
0.235553 -0.175776 0.185486
0.237524 -0.203868 0.191216
-0.167153 0.277323 0.070228
-0.164500 0.271101 0.092372
-0.160688 0.257373 0.107050
-0.167546 0.279801 0.103732
-0.159442 0.250793 0.090176
-0.158937 0.252558 0.098786
-0.168603 0.282388 0.078014
-0.162516 0.260801 0.066166
-0.160537 0.255114 0.083995
-0.165873 0.274404 0.078389
-0.162291 0.262188 0.089586
-0.165032 0.269101 0.069457
-0.163260 0.265602 0.095554
-0.162495 0.262858 0.083811
-0.165517 0.273456 0.109622
-0.158638 0.249304 0.106898
-0.165022 0.270003 0.084786
-0.161125 0.257816 0.078474
-0.170103 0.286873 0.095201
-0.158715 0.248357 0.079026
-0.166617 0.276388 0.085667
-0.162214 0.263147 0.112780
-0.156956 0.243437 0.086296
-0.163854 0.266827 0.104531
-0.157800 0.244966 0.097396
-0.165094 0.272923 0.101117
-0.169211 0.284827 0.086137
-0.159789 0.252752 0.071889
-0.161966 0.257604 0.091550
-0.161671 0.260101 0.099728
-0.167328 0.278681 0.094618
-0.164144 0.267272 0.076183
0.094178 -0.000872 0.153025
0.064702 -0.002508 0.173314
0.071679 -0.001490 0.168094
0.095279 -0.000391 0.179596
0.113119 0.000773 0.166657
0.060982 -0.001391 0.164703
0.105482 -0.000180 0.162115
0.099105 0.000164 0.143054
0.096728 0.000108 0.165672
0.110515 0.000389 0.151333
0.088006 -0.001210 0.166159
0.098576 -0.000440 0.159092
0.102916 0.000467 0.174396
0.081873 -0.001217 0.159000
0.117151 0.001305 0.175425
0.074477 -0.000924 0.177028
0.124369 0.001233 0.169922
0.069309 -0.001712 0.155047
0.102392 -0.000632 0.169101
0.082620 -0.000403 0.151796
0.080988 -0.001793 0.172818
0.080840 -0.001100 0.178737
0.089712 -0.000516 0.162833
0.110575 0.000824 0.171546
0.096991 -0.000797 0.171001
0.088364 -0.001040 0.170623
0.076991 -0.001964 0.165029
0.084652 -0.001167 0.142323
0.107614 0.000161 0.179057
0.094243 -0.000057 0.174539
0.087604 -0.000809 0.176097
0.119389 0.001249 0.159758
-0.217785 -0.266511 -0.208355
-0.225053 -0.281484 -0.206180
-0.224630 -0.295014 -0.206421
-0.213475 -0.265510 -0.201875
-0.216315 -0.316174 -0.206743
-0.228383 -0.311767 -0.207417
-0.211679 -0.259108 -0.205966
-0.216210 -0.303693 -0.206828
-0.218883 -0.315141 -0.209908
-0.214155 -0.280193 -0.207960
-0.221423 -0.308404 -0.209413
-0.217779 -0.297740 -0.208933
-0.217649 -0.284797 -0.210047
-0.220086 -0.291194 -0.208679
-0.213983 -0.281693 -0.201360
-0.223819 -0.316129 -0.205445
-0.212489 -0.274731 -0.203998
-0.224769 -0.297299 -0.208073
-0.212054 -0.244961 -0.207070
-0.224304 -0.322812 -0.209525
-0.221849 -0.277689 -0.208797
-0.218870 -0.290519 -0.202147
-0.223162 -0.335102 -0.209437
-0.214333 -0.288689 -0.207525
-0.218670 -0.325325 -0.207791
-0.213820 -0.270025 -0.207582
-0.221055 -0.256347 -0.206083
-0.222152 -0.303634 -0.208397
-0.216830 -0.306660 -0.204419
-0.217001 -0.296187 -0.207946
-0.217459 -0.272608 -0.207198
-0.214416 -0.293343 -0.203373
0.229798 -0.116626 0.178655
0.229935 -0.139306 0.183170
0.232009 -0.163180 0.185540
0.232028 -0.112905 0.188690
0.236378 -0.196025 0.189647
0.229881 -0.189985 0.184220
0.231091 -0.106494 0.187372
0.232607 -0.170283 0.181240
0.232892 -0.188761 0.190104
0.229503 -0.140390 0.179824
0.232660 -0.178588 0.189959
0.230708 -0.162522 0.185627
0.230654 -0.142735 0.188656
0.229169 -0.154360 0.188192
0.237123 -0.138856 0.188390
0.233352 -0.199869 0.189273
0.235829 -0.128454 0.187603
0.230851 -0.171507 0.187769
0.230944 -0.084534 0.187729
0.230562 -0.208346 0.183841
0.229382 -0.126743 0.184357
0.236022 -0.149341 0.186893
0.231777 -0.231135 0.191619
0.234951 -0.149318 0.189950
0.234220 -0.214221 0.190214
0.233212 -0.124851 0.190000
0.229368 -0.099347 0.183055
0.230714 -0.182364 0.181756
0.237415 -0.181235 0.190036
0.235543 -0.163422 0.190509
0.229553 -0.123297 0.188824
0.237176 -0.153634 0.188899
-0.215455 0.363817 0.014907
-0.209168 0.357532 0.082519
-0.199684 0.335835 0.114731
-0.216765 0.364343 0.115443
-0.195525 0.322330 0.077275
-0.193982 0.326059 0.094715
-0.217826 0.365635 0.047276
-0.202384 0.342298 -0.002769
-0.197941 0.331068 0.061738
-0.211625 0.360312 0.041162
-0.202763 0.343057 0.072416
-0.209295 0.351778 0.020733
-0.205038 0.345394 0.088323
-0.205219 0.347467 0.056119
-0.211560 0.355135 0.121138
-0.193941 0.322574 0.124726
-0.209520 0.353865 0.064074
-0.200249 0.336949 0.044612
-0.222585 0.371677 0.086871
-0.193811 0.321875 0.038545
-0.213455 0.360822 0.068499
-0.204030 0.342378 0.133723
-0.188734 0.308653 0.063980
-0.206894 0.349080 0.108758
-0.190960 0.310544 0.102292
-0.209769 0.355568 0.096081
-0.221627 0.369060 0.064483
-0.196651 0.331362 0.019209
-0.199326 0.332230 0.086835
-0.200448 0.337990 0.101908
-0.216149 0.363362 0.096462
-0.205469 0.349136 0.037634
-0.168951 -0.000902 -0.102137
-0.175448 -0.023991 -0.022616
-0.170225 -0.030473 0.001926
-0.165954 0.000069 0.028344
-0.153001 -0.033137 -0.039677
-0.175607 -0.034299 -0.035399
-0.163911 0.003206 -0.067431
-0.157703 -0.029029 -0.122196
-0.159338 -0.029628 -0.057821
-0.158218 -0.012896 -0.081160
-0.169591 -0.025456 -0.048272
-0.168572 -0.021033 -0.092207
-0.167213 -0.020870 -0.009468
-0.165865 -0.017554 -0.064991
-0.160178 -0.017705 0.009780
-0.164172 -0.035320 0.028519
-0.154489 -0.021409 -0.044696
-0.175569 -0.026510 -0.072805
-0.164484 0.018040 -0.015473
-0.166698 -0.033744 -0.091951
-0.167605 -0.009076 -0.042625
-0.165691 -0.024468 0.046663
-0.166086 -0.041605 -0.062291
-0.155503 -0.025463 -0.011830
-0.162866 -0.040862 -0.015282
-0.158905 -0.011351 -0.028598
-0.167012 0.012832 -0.052169
-0.171722 -0.025167 -0.112598
-0.156627 -0.034257 0.006759
-0.164883 -0.028146 -0.024721
-0.167834 -0.004337 -0.001612
-0.155167 -0.029790 -0.076327
0.057198 -0.000143 0.113901
0.015965 -0.000957 0.158927
0.028093 -0.001693 0.149878
0.060132 0.000761 0.172823
0.078628 -0.000036 0.144343
0.017105 -0.001714 0.140346
0.072435 0.001341 0.133691
0.063428 -0.000194 0.102863
0.062080 0.000577 0.140291
0.077687 0.001154 0.113565
0.046761 -0.002151 0.142250
0.064349 0.000640 0.126317
0.067439 0.000607 0.162645
0.041243 -0.000355 0.126910
0.085255 0.002214 0.164882
0.033271 -0.001218 0.163004
0.091937 0.002342 0.148300
0.023853 -0.000707 0.122446
0.068291 0.000680 0.151606
0.040477 -0.000819 0.116835
0.041672 -0.000778 0.156080
0.039425 -0.001846 0.169611
0.052691 -0.000125 0.133584
0.079866 0.001161 0.155858
0.060514 -0.001441 0.153625
0.051197 0.000194 0.148796
0.033344 -0.000471 0.138809
0.044425 -0.000816 0.100167
0.072959 -0.000410 0.169783
0.055074 0.000440 0.160772
0.047538 0.000856 0.165416
0.085697 0.000841 0.129778
-0.176903 0.313365 0.076391
-0.174019 0.307103 0.098770
-0.170062 0.293888 0.113723
-0.177403 0.315727 0.109851
-0.168651 0.287775 0.096184
-0.167956 0.289210 0.105122
-0.178656 0.318143 0.083936
-0.171943 0.297496 0.072008
-0.169701 0.292047 0.090076
-0.175665 0.310388 0.084582
-0.171774 0.298720 0.095790
-0.174672 0.305429 0.075451
-0.172848 0.301820 0.102082
-0.172107 0.299548 0.089757
-0.175332 0.309678 0.116146
-0.167544 0.286032 0.113416
-0.174712 0.306412 0.091017
-0.170302 0.294546 0.084383
-0.180139 0.322326 0.101307
-0.167650 0.285255 0.085290
-0.176374 0.312443 0.091746
-0.171747 0.299546 0.119243
-0.165694 0.280718 0.092552
-0.173536 0.303185 0.111143
-0.166612 0.281976 0.103926
-0.174813 0.309012 0.107476
-0.179126 0.320343 0.092418
-0.168864 0.289478 0.078038
-0.171129 0.294150 0.098262
-0.171049 0.296617 0.106198
-0.177066 0.314508 0.100750
-0.173842 0.303687 0.081795
-0.003208 -0.007274 0.044800
-0.035372 -0.008535 0.087192
-0.025755 -0.008679 0.078566
-0.002181 -0.007796 0.103624
0.015505 -0.006959 0.072943
-0.034775 -0.009335 0.070587
0.008335 -0.007113 0.063092
0.001124 -0.008234 0.034645
0.000923 -0.007642 0.069731
0.013286 -0.006793 0.046113
-0.011634 -0.009454 0.070485
0.001298 -0.007682 0.055432
0.004793 -0.007466 0.093436
-0.016728 -0.007716 0.056331
0.019219 -0.006155 0.094869
-0.023545 -0.008848 0.095433
0.025224 -0.005569 0.078331
-0.029952 -0.008333 0.052882
0.005211 -0.007678 0.079294
-0.016281 -0.008736 0.045962
-0.017217 -0.008650 0.086023
-0.016916 -0.009014 0.105170
-0.006806 -0.007058 0.061059
0.013642 -0.006888 0.085700
-0.001760 -0.007620 0.082606
-0.010290 -0.007884 0.078909
-0.021723 -0.008265 0.066799
-0.014399 -0.008505 0.032780
0.008830 -0.008232 0.102766
-0.005681 -0.007451 0.090497
-0.012452 -0.007624 0.095857
0.020434 -0.007041 0.059015
-0.175389 0.259135 0.004166
-0.172717 0.249978 0.060031
-0.165371 0.215639 0.096889
-0.177166 0.265627 0.097875
-0.163176 0.190004 0.054357
-0.162433 0.195199 0.075011
-0.177350 0.266478 0.029128
-0.167199 0.218266 -0.009605
-0.164393 0.205426 0.040916
-0.172767 0.250805 0.026537
-0.166450 0.222466 0.053902
-0.170391 0.238637 0.005434
-0.169028 0.233440 0.065229
-0.168962 0.229910 0.039588
-0.174001 0.247373 0.104460
-0.162224 0.190630 0.105381
-0.172954 0.241958 0.044258
-0.166593 0.216012 0.029042
-0.180517 0.282041 0.069374
-0.160851 0.185972 0.024542
-0.172999 0.257807 0.045799
-0.168871 0.228101 0.117451
-0.159940 0.165206 0.046543
-0.170084 0.236249 0.088371
-0.160705 0.173617 0.080715
-0.171140 0.249539 0.078747
-0.178571 0.274487 0.046753
-0.163011 0.202093 0.010698
-0.165761 0.206743 0.064550
-0.166053 0.219711 0.078178
-0.175857 0.263716 0.071524
-0.169049 0.231900 0.022198
-0.039970 -0.008732 0.034207
-0.075667 -0.009203 0.077345
-0.063408 -0.009317 0.066994
-0.039251 -0.008881 0.094220
-0.022951 -0.007393 0.061291
-0.074505 -0.008836 0.057876
-0.028848 -0.007916 0.051326
-0.036409 -0.008368 0.025377
-0.035826 -0.007753 0.057904
-0.025330 -0.007650 0.035602
-0.047792 -0.009541 0.059193
-0.035576 -0.008025 0.045345
-0.033006 -0.008316 0.081991
-0.053469 -0.008399 0.046289
-0.019471 -0.007490 0.083504
-0.060831 -0.008878 0.084538
-0.014633 -0.006485 0.066485
-0.067865 -0.008024 0.041077
-0.032765 -0.008740 0.068222
-0.052843 -0.008407 0.037008
-0.053420 -0.009394 0.074638
-0.054501 -0.009842 0.095106
-0.043478 -0.007550 0.050841
-0.023942 -0.007912 0.074148
-0.038999 -0.008359 0.070553
-0.047235 -0.009465 0.066588
-0.060171 -0.009327 0.055744
-0.051202 -0.008811 0.023786
-0.028789 -0.008342 0.091834
-0.042332 -0.008361 0.078985
-0.048509 -0.009475 0.084993
-0.018795 -0.007007 0.048937
0.231457 -0.142768 0.183799
0.231852 -0.155157 0.183934
0.236455 -0.175265 0.187581
0.235852 -0.138697 0.191155
0.239528 -0.196609 0.185793
0.234726 -0.192129 0.184879
0.234767 -0.134675 0.184643
0.237018 -0.181734 0.185963
0.238272 -0.192128 0.183644
0.235962 -0.157386 0.184053
0.237838 -0.185579 0.183478
0.233760 -0.173314 0.184536
0.236368 -0.162837 0.183169
0.235921 -0.167785 0.183665
0.236383 -0.156172 0.191471
0.238383 -0.196213 0.189994
0.236753 -0.153329 0.188221
0.232416 -0.176305 0.184568
0.235070 -0.116860 0.183963
0.236610 -0.203483 0.183320
0.234351 -0.151253 0.183407
0.236466 -0.168501 0.191386
0.239430 -0.217439 0.184841
0.237645 -0.163186 0.187184
0.239599 -0.207170 0.186548
0.236223 -0.146790 0.185541
0.232220 -0.128469 0.182932
0.233884 -0.186814 0.184059
0.238268 -0.186472 0.188370
0.237725 -0.174121 0.185815
0.235640 -0.144216 0.185515
0.237552 -0.170319 0.187643
-0.154225 0.046940 -0.036328
-0.159959 0.041336 -0.006802
-0.155851 0.034711 0.009415
-0.154681 0.049737 0.010204
-0.156068 0.030218 -0.009270
-0.161247 0.029735 -0.003703
-0.153675 0.050783 -0.022476
-0.154794 0.036912 -0.045818
-0.155746 0.033368 -0.017564
-0.154098 0.044397 -0.023993
-0.154557 0.036907 -0.010966
-0.154621 0.039850 -0.033575
-0.154728 0.038927 -0.004890
-0.154803 0.038083 -0.018704
-0.155057 0.042610 0.014131
-0.156221 0.029769 0.015354
-0.155210 0.041661 -0.015192
-0.159417 0.033860 -0.024453
-0.154163 0.057065 -0.003303
-0.155807 0.028440 -0.026491
-0.154251 0.045825 -0.012665
-0.156033 0.036917 0.021457
-0.157612 0.024080 -0.015402
-0.155734 0.039871 0.007105
-0.157604 0.025331 0.001787
-0.155184 0.042877 0.000764
-0.153085 0.053859 -0.013391
-0.155308 0.031335 -0.034564
-0.155993 0.032971 -0.003736
-0.155461 0.035621 0.000476
-0.154244 0.048712 -0.000881
-0.154795 0.037223 -0.027235
0.124549 0.005347 0.184156
0.096826 0.003804 0.185038
0.102298 0.002287 0.186047
0.128739 0.003988 0.185685
0.149359 -0.003130 0.187274
0.090901 -0.000850 0.187711
0.143185 0.006123 0.184792
0.143747 0.000716 0.187127
0.128824 -0.002449 0.186853
0.149238 0.005366 0.185986
0.120479 -0.002089 0.187054
0.133526 0.002399 0.187516
0.137056 0.004103 0.186511
0.116751 0.002040 0.186711
0.153523 0.003851 0.186509
0.101896 -0.003727 0.186424
0.164024 0.005610 0.185994
0.108465 0.000174 0.187547
0.135495 0.006475 0.182924
0.113183 -0.003976 0.187582
0.115282 0.003772 0.185785
0.110639 0.001946 0.185536
0.122710 -0.007269 0.186555
0.144366 0.003388 0.187258
0.136055 -0.005935 0.185581
0.133633 0.004688 0.185294
0.109290 0.005150 0.183805
0.123850 0.001791 0.185762
0.139180 -0.000250 0.186075
0.126627 0.003318 0.185810
0.120952 0.003352 0.186147
0.158093 0.000268 0.187147
-0.145874 0.123183 0.004046
-0.145533 0.118421 0.025054
-0.146670 0.104083 0.041188
-0.145522 0.125395 0.038048
-0.146686 0.096199 0.024141
-0.146394 0.099281 0.033088
-0.145419 0.127723 0.013312
-0.146889 0.107252 -0.000551
-0.146511 0.101283 0.018044
-0.145722 0.120043 0.012169
-0.145847 0.110210 0.023330
-0.146185 0.115052 0.003299
-0.145816 0.112264 0.029893
-0.146468 0.108809 0.016954
-0.146181 0.118861 0.043711
-0.147063 0.094755 0.041379
-0.146129 0.115745 0.018104
-0.146136 0.104208 0.010929
-0.145774 0.131493 0.029958
-0.146945 0.093704 0.012867
-0.145760 0.123063 0.020386
-0.146390 0.110726 0.046671
-0.146711 0.088013 0.020263
-0.146367 0.112881 0.038420
-0.147344 0.090419 0.031475
-0.145968 0.118678 0.034399
-0.145400 0.130837 0.021216
-0.146716 0.098355 0.005529
-0.146922 0.104351 0.024845
-0.146395 0.106874 0.034576
-0.145558 0.124800 0.029047
-0.146281 0.112885 0.009834
-0.146043 -0.015379 -0.072605
-0.157049 -0.017884 -0.018490
-0.150860 -0.017368 -0.023407
-0.145192 -0.016242 0.003326
-0.142024 -0.019654 -0.036496
-0.157670 -0.018112 -0.035894
-0.143271 -0.014750 -0.048252
-0.144613 -0.015614 -0.090632
-0.144127 -0.015545 -0.043316
-0.140659 -0.015286 -0.065671
-0.147431 -0.016601 -0.038365
-0.146917 -0.016480 -0.059145
-0.144100 -0.014657 -0.012865
-0.147773 -0.015955 -0.051609
-0.137630 -0.015846 -0.012843
-0.149941 -0.017519 0.000716
-0.130627 -0.014180 -0.031873
-0.155327 -0.017495 -0.057616
-0.144310 -0.014167 -0.027440
-0.147752 -0.018861 -0.069381
-0.147783 -0.016743 -0.026697
-0.145818 -0.016819 0.014524
-0.146956 -0.028236 -0.049664
-0.140818 -0.015234 -0.021997
-0.146569 -0.026897 -0.021087
-0.145513 -0.016659 -0.034240
-0.148447 -0.015645 -0.043136
-0.150494 -0.016009 -0.080610
-0.137745 -0.016562 0.002755
-0.144696 -0.015497 -0.021657
-0.146296 -0.016302 -0.007659
-0.133725 -0.015549 -0.054454
-0.215076 -0.225856 -0.211380
-0.217902 -0.239702 -0.206392
-0.218442 -0.250114 -0.204246
-0.211784 -0.221989 -0.201047
-0.212108 -0.267042 -0.203060
-0.221328 -0.264053 -0.205719
-0.208171 -0.217687 -0.202365
-0.211573 -0.256130 -0.209944
-0.217138 -0.263297 -0.203114
-0.211735 -0.238234 -0.211016
-0.218683 -0.258004 -0.202053
-0.215609 -0.249704 -0.208146
-0.215778 -0.240417 -0.202049
-0.217589 -0.246869 -0.202852
-0.208331 -0.237438 -0.201506
-0.218851 -0.267248 -0.202691
-0.206963 -0.232067 -0.203022
-0.220005 -0.252904 -0.206824
-0.211083 -0.203878 -0.201221
-0.220352 -0.270535 -0.209700
-0.216563 -0.232787 -0.206598
-0.214699 -0.244347 -0.202431
-0.222110 -0.281744 -0.202134
-0.211455 -0.245398 -0.201669
-0.217042 -0.273705 -0.202817
-0.209862 -0.229913 -0.200976
-0.215665 -0.215024 -0.203833
-0.218844 -0.257323 -0.210373
-0.211237 -0.259222 -0.202380
-0.213478 -0.252751 -0.201224
-0.215568 -0.228822 -0.201100
-0.207877 -0.248119 -0.203417
0.232274 -0.121408 0.182056
0.231200 -0.131642 0.187705
0.233166 -0.153099 0.189308
0.232522 -0.116316 0.190200
0.234719 -0.171720 0.185644
0.232302 -0.167198 0.188518
0.231376 -0.112884 0.182570
0.236278 -0.156288 0.182598
0.232348 -0.163294 0.185535
0.232784 -0.135149 0.181426
0.231629 -0.156536 0.187744
0.233073 -0.145639 0.182499
0.231348 -0.138342 0.186645
0.230724 -0.144466 0.185687
0.233757 -0.131655 0.190273
0.233823 -0.171833 0.190689
0.235413 -0.130338 0.185517
0.232669 -0.153120 0.185457
0.230914 -0.097160 0.186401
0.232972 -0.177612 0.183950
0.231936 -0.127558 0.183243
