-0.210300 -0.385120 0.215365
-0.230827 -0.354281 0.212979
-0.183799 -0.379253 0.212642
-0.222587 -0.304100 0.213034
-0.215399 -0.368822 0.182624
-0.189690 -0.389503 0.185265
-0.139511 -0.379917 0.212289
-0.214821 -0.254536 0.212874
-0.159617 -0.357104 0.190434
-0.111626 -0.380448 0.211901
-0.201663 -0.271945 0.183940
-0.202317 -0.221556 0.206563
-0.073079 -0.381816 0.210438
-0.195045 -0.180829 0.206248
-0.191040 -0.132252 0.212924
-0.037496 -0.378936 0.212546
-0.184838 -0.187953 0.179682
-0.183917 -0.100229 0.212574
-0.188289 -0.122439 0.189217
0.010651 -0.379745 0.212123
-0.177592 -0.072452 0.211806
-0.175635 -0.041041 0.212927
-0.171528 -0.076954 0.188130
0.055418 -0.380603 0.211576
-0.168117 0.009724 0.212887
-0.165467 -0.017600 0.201271
-0.174745 -0.037082 0.180524
0.093824 -0.378867 0.212365
-0.153113 -0.026700 0.183771
-0.158623 0.021539 0.192041
-0.167192 0.027428 0.186981
-0.133036 -0.011374 0.194500
-0.138998 -0.013581 0.186219
0.124110 -0.376124 0.212309
-0.165479 -0.018047 0.160488
-0.151639 -0.010398 0.163507
-0.158630 0.060870 0.187563
-0.138891 0.007166 0.177159
-0.155520 0.037607 0.171369
-0.147530 -0.024446 0.147681
-0.168849 0.031644 0.151787
-0.172394 0.067861 0.163438
-0.121873 -0.025434 0.157792
-0.114341 -0.013535 0.165940
-0.092028 -0.001882 0.185125
-0.183345 0.139308 0.174106
0.174941 -0.383730 0.199569
-0.146835 0.099762 0.181338
-0.086638 0.001760 0.182174
-0.149702 0.086764 0.169728
-0.150664 0.134753 0.187952
-0.154228 0.003904 0.125556
-0.064702 -0.009232 0.185701
-0.151302 0.057966 0.150927
-0.094385 -0.018434 0.156406
-0.171720 -0.007142 0.103129
-0.151284 0.166107 0.187571
-0.062673 -0.001644 0.178068
-0.120915 -0.013950 0.124021
-0.166179 0.171314 0.168719
-0.156039 0.034842 0.114225
-0.032457 -0.022234 0.179159
-0.074909 0.016477 0.164344
-0.157914 0.209946 0.187999
0.222916 -0.380962 0.198937
0.236659 -0.332863 0.229762
-0.177759 0.126383 0.134277
-0.147352 0.090353 0.139386
-0.146181 0.117642 0.149591
-0.166133 0.238753 0.187502
-0.150462 0.063171 0.118050
-0.146892 0.148804 0.158449
-0.013615 -0.005342 0.186370
-0.017412 -0.013952 0.177674
-0.019081 -0.007461 0.179483
-0.046533 -0.009283 0.158261
-0.041680 -0.000332 0.164526
-0.092807 0.005383 0.125278
-0.172797 0.283291 0.187989
-0.126117 -0.014279 0.090853
-0.069418 0.013233 0.145745
-0.181581 0.274923 0.176736
-0.157871 0.207632 0.165057
-0.150322 0.188620 0.160870
-0.155858 0.035454 0.084430
-0.173686 0.259034 0.167287
-0.155660 0.224959 0.162083
0.231709 -0.341906 0.187212
-0.203405 0.373698 0.187990
0.022723 -0.014936 0.184781
-0.171567 0.063789 0.074348
-0.180675 0.186249 0.120021
-0.146603 0.143686 0.125536
-0.023963 0.008753 0.156301
-0.185125 0.338969 0.180596
-0.147988 -0.008503 0.052646
-0.146194 0.112566 0.106297
-0.173597 0.302730 0.169290
0.017500 -0.005266 0.174496
-0.163412 -0.007718 0.037304
-0.166118 0.274894 0.160084
-0.204272 -0.391365 -0.181766
-0.050840 -0.009557 0.117833
-0.152259 0.203825 0.136118
-0.147758 0.085048 0.085187
0.239623 -0.258725 0.212132
-0.172204 0.327801 0.171644
-0.153860 0.044364 0.060158
0.044230 -0.001707 0.186285
0.031453 -0.005381 0.174940
0.013164 0.004859 0.164668
0.043509 -0.016221 0.174478
0.237559 -0.299888 0.184826
-0.229889 -0.366700 -0.202478
-0.179872 0.323502 0.151388
-0.091565 0.015576 0.080493
-0.210097 0.379347 0.151490
-0.159617 0.246040 0.131217
-0.190776 0.126567 0.053955
-0.135353 -0.014863 0.031954
-0.175610 0.011363 0.011572
0.015798 -0.005375 0.146408
-0.195800 0.322285 0.133038
-0.110859 -0.008157 0.048811
0.069228 -0.015659 0.179657
0.235381 -0.261925 0.186776
-0.171583 0.295902 0.137717
-0.190951 0.354899 0.149137
-0.146064 0.114569 0.076242
-0.150976 0.194825 0.107891
-0.147678 0.162891 0.095310
-0.045570 0.008150 0.098271
-0.180070 0.372990 0.157644
-0.017821 0.020465 0.123094
0.095096 -0.014516 0.188475
-0.001200 0.000313 0.124975
-0.165587 0.272880 0.122392
0.231709 -0.230383 0.187212
-0.222489 -0.325014 -0.202430
-0.204155 -0.373788 -0.212679
-0.146831 0.094948 0.054958
-0.195388 0.262074 0.092252
-0.155476 0.036747 0.021584
-0.194662 -0.369785 -0.208184
-0.223665 -0.322083 -0.209311
-0.157053 0.233195 0.103661
-0.146541 0.144234 0.070761
0.092636 0.008226 0.186446
-0.172863 -0.380798 -0.202760
-0.148617 0.074891 0.032344
-0.056595 -0.009922 0.063820
-0.186362 0.342729 0.123224
-0.214614 0.375860 0.114665
-0.059668 0.005112 0.066409
0.021909 -0.029116 0.111116
-0.141267 -0.015237 -0.005756
-0.097943 0.014914 0.040944
-0.156398 -0.019018 -0.023939
-0.149891 0.186130 0.073440
-0.211326 0.369273 0.106074
0.122391 -0.001603 0.188537
0.013415 -0.005528 0.107095
0.074260 -0.001708 0.153725
0.082429 0.028848 0.172261
0.239774 -0.204003 0.179599
-0.163606 0.264624 0.094089
0.100123 -0.001040 0.170461
-0.215342 -0.294727 -0.209524
0.229773 -0.150425 0.193951
-0.209965 0.333014 0.085175
-0.174099 -0.014793 -0.044793
0.074257 0.021554 0.157514
-0.173692 0.303457 0.097113
0.003065 -0.000149 0.093282
-0.174790 0.204861 0.051612
-0.032889 0.020802 0.075327
0.237559 -0.171156 0.184826
-0.155274 0.037429 -0.011589
0.133097 0.004780 0.186826
-0.146035 0.113451 0.028963
-0.145378 -0.015497 -0.031969
-0.214532 -0.253368 -0.201798
0.231709 -0.142339 0.187212
-0.216436 -0.250465 -0.202653
-0.155656 0.225783 0.064036
-0.218368 0.375104 0.081842
-0.147013 0.155466 0.038945
-0.148436 0.076278 -0.000408
-0.143219 0.018971 -0.023917
0.236219 -0.117440 0.192526
-0.187482 0.345878 0.087585
0.073748 -0.001743 0.125984
-0.149737 0.185240 0.042186
-0.002576 0.010089 0.068440
-0.207073 -0.227395 -0.201585
0.202170 -0.046333 0.191902
-0.111164 -0.377933 -0.201665
-0.062164 -0.010275 0.011553
-0.035070 -0.000677 0.035326
0.237559 -0.109715 0.184826
-0.146097 0.110879 0.001487
0.165107 0.008065 0.184402
0.010894 -0.005689 0.065485
-0.174000 0.304701 0.066243
0.170956 -0.015038 0.177142
-0.082758 -0.005697 -0.009025
-0.146677 0.149173 0.012097
-0.115061 -0.338826 -0.196000
0.110541 0.002295 0.135277
0.127794 0.001648 0.147340
-0.050240 -0.027153 0.001229
0.231709 -0.071903 0.187212
-0.194697 0.364377 0.067089
0.178659 -0.013742 0.174470
-0.161316 0.254858 0.044038
-0.150687 0.060105 -0.036458
-0.180606 0.161506 -0.013423
0.131257 0.013789 0.150584
-0.200616 -0.201811 -0.202286
-0.182978 0.333263 0.059763
0.143788 0.002851 0.154623
-0.155573 0.225602 0.032350
-0.209574 0.369259 0.054326
-0.198049 0.305144 0.032798
0.233873 -0.081617 0.175842
-0.154993 0.038379 -0.057784
-0.147061 0.090641 -0.027619
-0.193938 -0.177952 -0.192699
-0.203375 0.325125 0.033720
-0.179368 0.104734 -0.048958
0.176037 0.004675 0.170589
-0.178361 0.020703 -0.087752
0.087298 0.012095 0.108700
-0.191104 0.228471 -0.003532
-0.154036 -0.016045 -0.087172
-0.100211 0.015072 -0.032571
0.235381 -0.042435 0.186776
-0.151154 0.197649 0.008522
-0.168095 0.283360 0.033551
0.238098 -0.056248 0.179555
0.212240 -0.011283 0.178646
-0.178891 -0.119777 -0.169514
0.214875 0.013401 0.187067
0.072846 -0.001803 0.077180
-0.145968 0.130287 -0.026701
-0.193433 -0.161349 -0.202239
0.074589 -0.007440 0.074498
-0.135660 -0.017652 -0.088336
-0.055335 -0.380720 -0.202881
0.219999 -0.013808 0.176042
0.234455 -0.014525 0.185767
0.188289 0.006778 0.161408
-0.160379 0.250604 0.012253
-0.148757 0.177697 -0.011911
-0.181875 0.330190 0.028537
0.229426 -0.093086 0.141455
-0.126834 0.024767 -0.070270
0.069914 0.006090 0.065556
-0.082497 0.009335 -0.049295
-0.147259 0.087908 -0.062989
0.238381 -0.010297 0.177240
-0.154113 0.217707 -0.010641
-0.159764 -0.016407 -0.123699
0.224732 0.016206 0.176940
0.208556 -0.023947 0.147565
-0.068836 -0.010699 -0.051071
-0.192999 0.360401 0.020150
-0.002570 0.010233 0.004500
0.128811 0.001708 0.097275
-0.186696 -0.126181 -0.202577
0.030160 -0.022618 0.011445
-0.150338 0.061853 -0.090002
0.238493 -0.049759 0.146889
-0.145855 0.119291 -0.061760
-0.177346 0.165114 -0.066015
-0.168520 0.285211 -0.005346
-0.161739 -0.006666 -0.137436
0.177799 0.005292 0.123031
-0.005486 0.010084 -0.010776
0.117053 0.009342 0.078179
0.133971 -0.021299 0.076284
-0.147119 0.158988 -0.050983
-0.179629 -0.063521 -0.182303
-0.213562 0.371326 -0.011239
0.072078 -0.001855 0.035625
-0.162409 0.260303 -0.023129
0.233152 -0.005860 0.148339
-0.189316 0.351179 -0.004865
0.216012 0.016927 0.144986
0.239028 -0.005538 0.149228
-0.178295 0.319302 -0.013152
-0.179613 -0.086277 -0.202529
-0.155602 0.035125 -0.126220
0.009936 -0.380321 -0.202665
0.223273 -0.087317 0.097298
-0.016444 -0.029029 -0.055058
-0.176600 0.068196 -0.133654
-0.073110 -0.010970 -0.091186
-0.095719 0.003962 -0.102903
-0.194347 0.261678 -0.060179
-0.151413 0.200183 -0.054691
-0.172717 -0.034234 -0.182252
-0.164761 -0.016826 -0.167615
0.114698 0.009576 0.055185
-0.056306 -0.028971 -0.092438
-0.203278 0.322283 -0.044415
0.039306 0.013811 -0.000960
-0.145818 0.121244 -0.092078
-0.157336 0.236100 -0.047951
-0.146469 0.147826 -0.080401
-0.146597 0.094489 -0.105216
-0.169791 0.005595 -0.167940
0.238529 -0.019960 0.124209
-0.127885 -0.015372 -0.149141
0.231250 -0.014006 0.118671
-0.172583 -0.046665 -0.202481
0.251545 -0.014286 0.126597
-0.166647 0.278331 -0.049951
-0.172791 -0.036360 -0.202963
-0.191731 0.357512 -0.035480
-0.175599 0.310857 -0.045669
-0.215362 0.355065 -0.058166
-0.076082 -0.011159 -0.119080
0.048801 -0.380611 -0.202885
-0.162442 -0.009139 -0.185801
-0.148501 0.176061 -0.088346
0.238573 -0.048665 0.095873
-0.147284 0.086475 -0.131229
0.212937 0.017509 0.104711
-0.173331 0.134051 -0.131655
0.010951 -0.007251 -0.057099
0.092327 -0.002906 0.002663
0.106459 -0.082162 -0.023239
-0.146738 0.154432 -0.105346
0.230086 -0.019420 0.094307
-0.164756 -0.017115 -0.201586
0.172882 0.037568 0.077254
-0.161297 0.031350 -0.177669
-0.145778 0.123263 -0.123405
-0.093668 0.001546 -0.140941
0.008354 0.026972 -0.052884
-0.180302 0.078519 -0.174685
-0.154830 0.222517 -0.087883
-0.162675 0.040699 -0.179261
-0.181066 0.108351 -0.161670
-0.025521 0.009946 -0.088674
-0.172627 0.095821 -0.161867
-0.161069 0.254607 -0.081173
0.076265 -0.378599 -0.202055
0.219185 -0.081022 0.047406
-0.130092 0.005982 -0.175010
0.244433 0.014334 0.106762
-0.218774 0.375288 -0.075531
0.236777 -0.001575 0.093743
-0.068012 0.002169 -0.131854
-0.181493 0.329521 -0.068520
-0.149838 0.064348 -0.166432
-0.192173 0.358707 -0.065488
-0.117350 -0.030704 -0.187926
0.098694 -0.000668 -0.011769
-0.196582 0.265995 -0.115570
-0.170474 0.293160 -0.083325
-0.150370 0.192669 -0.114992
-0.146412 0.097036 -0.156449
0.213292 -0.001622 0.065705
-0.184827 0.199874 -0.142162
0.194342 -0.007034 0.047249
-0.147584 0.165989 -0.131513
-0.102718 -0.008805 -0.181071
0.050115 -0.001912 -0.060720
-0.022058 0.021969 -0.104259
0.166364 0.019428 0.033779
0.232549 -0.021625 0.062627
0.238635 -0.040456 0.056055
-0.181424 0.170029 -0.163272
-0.145738 0.125349 -0.155793
0.222421 0.014633 0.066700
0.238614 -0.011241 0.066231
0.008146 0.001581 -0.098374
-0.165268 0.273062 -0.109730
-0.179948 0.324989 -0.097829
-0.194331 0.364089 -0.091758
-0.157222 0.236114 -0.121343
-0.146721 0.093603 -0.183521
0.084844 0.005245 -0.049501
-0.146631 0.153873 -0.156663
0.217857 -0.087183 0.002828
0.125077 -0.372498 -0.205439
-0.061429 0.000493 -0.168704
-0.067962 -0.022878 -0.186301
0.111199 0.018360 -0.031253
0.157873 0.013536 -0.000492
0.008903 -0.002130 -0.119558
-0.187783 0.347521 -0.111034
-0.152097 0.205725 -0.148798
-0.211900 0.372808 -0.119614
0.238685 -0.048040 0.024542
-0.206033 0.339209 -0.133870
0.239568 -0.018604 0.035658
-0.145853 0.136682 -0.182652
0.137518 0.017470 -0.025336
-0.178444 0.320351 -0.128087
0.104226 -0.019548 -0.071357
-0.196654 0.374314 -0.119162
0.236895 -0.001649 0.032921
-0.063637 0.000231 -0.191523
0.166108 -0.378648 -0.202201
0.218283 -0.092358 -0.024843
-0.167741 0.283075 -0.144052
-0.037678 -0.008275 -0.179835
-0.148619 0.165932 -0.185423
0.187895 -0.387455 -0.196482
-0.017359 -0.026313 -0.179438
-0.176417 0.240863 -0.177381
-0.159183 0.246171 -0.162221
-0.015062 0.029847 -0.155284
-0.020217 -0.010091 -0.179151
-0.164703 0.319025 -0.140278
0.227336 -0.018907 -0.002349
0.226333 -0.010054 0.000617
0.200518 -0.017373 -0.022485
0.221107 0.015302 0.007054
0.195547 -0.375055 -0.199745
-0.153532 0.214380 -0.183534
-0.015088 -0.015439 -0.186292
-0.176894 0.315572 -0.159263
-0.190713 0.355469 -0.152387
-0.192018 0.308910 -0.176081
-0.171150 0.254155 -0.184681
0.238745 -0.039182 -0.014162
0.238728 -0.011829 -0.002881
0.047487 0.004806 -0.140092
0.232431 -0.000333 -0.005361
0.153784 0.004870 -0.062261
0.219886 -0.090827 -0.057995
-0.167674 0.283022 -0.177155
-0.193938 0.374651 -0.160625
-0.206734 0.380775 -0.167237
0.238916 -0.378673 -0.193956
0.235750 -0.337441 -0.177707
0.021518 0.003250 -0.175842
0.055618 0.002167 -0.150461
0.016979 -0.019546 -0.192629
0.229635 -0.038277 -0.043362
0.215014 -0.383248 -0.221108
-0.182132 0.330240 -0.184412
0.220160 0.015697 -0.028078
0.138580 -0.022824 -0.107979
0.127655 0.015966 -0.100951
0.117656 0.011860 -0.112238
0.231481 -0.296328 -0.177636
0.230364 -0.003661 -0.039938
0.238781 -0.012122 -0.037281
0.217592 0.022663 -0.038553
0.238809 -0.047341 -0.055127
0.222778 -0.278804 -0.184306
0.119692 -0.035420 -0.145775
0.061388 -0.011571 -0.182326
0.243721 -0.325818 -0.199709
0.224066 -0.093266 -0.101656
0.068366 0.016132 -0.169682
0.241558 0.002713 -0.047765
0.068969 -0.010978 -0.184658
0.081465 -0.004264 -0.173318
0.231481 -0.246621 -0.177636
0.063431 0.006169 -0.182736
0.219157 0.016114 -0.065083
0.069769 0.003879 -0.182728
0.233295 -0.020101 -0.075976
0.238857 -0.048350 -0.085885
0.238838 -0.019531 -0.073426
0.089966 0.007469 -0.178833
0.238449 -0.203967 -0.180350
0.235638 -0.225845 -0.196904
0.220645 -0.030379 -0.114899
0.134406 0.007498 -0.164279
0.222502 -0.080913 -0.143522
0.236342 -0.171444 -0.180166
0.230311 0.009086 -0.098713
0.133435 -0.007431 -0.178305
0.238897 -0.030971 -0.111453
0.231481 -0.154855 -0.177636
0.205939 0.001129 -0.126343
0.207459 0.008310 -0.124979
0.234239 -0.001743 -0.110059
0.196155 0.012021 -0.136177
0.152018 -0.021747 -0.186406
0.238939 -0.050057 -0.137923
0.209886 -0.008353 -0.143079
0.159468 0.008601 -0.173628
0.195559 -0.013603 -0.161884
0.216643 0.016881 -0.132422
0.160940 0.005935 -0.179217
0.238449 -0.116280 -0.180350
0.168736 0.027824 -0.164861
0.173552 -0.030015 -0.188325
0.203286 -0.033986 -0.174699
0.238808 -0.009272 -0.138131
0.175554 0.024466 -0.172700
0.228556 -0.058410 -0.172979
0.172451 0.010791 -0.182986
0.231481 -0.070736 -0.177636
0.188716 0.012527 -0.176787
0.236682 0.008315 -0.144681
0.217833 0.007396 -0.158672
0.228195 -0.064768 -0.187380
0.229131 -0.008913 -0.160849
0.194330 0.005128 -0.184592
0.194958 0.029460 -0.175092
0.238730 -0.009168 -0.161592
0.235023 -0.089447 -0.203417
0.234104 -0.026347 -0.175495
