-0.046578 0.116754 0.008221
-0.048763 0.146093 0.007992
-0.048629 0.137333 0.005897
-0.043796 0.113567 0.008634
-0.039364 0.135059 0.006536
-0.040954 0.117221 0.006669
-0.041550 0.145909 0.007776
-0.050402 0.153339 0.006802
-0.045015 0.127690 0.007786
-0.040766 0.125099 0.006294
-0.043416 0.134399 0.007917
-0.045611 0.141189 0.007237
-0.037962 0.132534 0.004303
-0.035911 0.128232 -0.006547
-0.033644 0.124134 -0.000597
-0.034279 0.112809 0.004370
-0.035029 0.130719 0.002094
-0.035498 0.107567 -0.000779
-0.033989 0.109529 0.002658
-0.035764 0.132461 -0.005095
-0.036870 0.114719 -0.007766
-0.035529 0.110026 -0.003341
-0.035619 0.124011 -0.005102
-0.034575 0.114879 -0.000915
-0.036181 0.121149 -0.007359
-0.034574 0.120938 -0.001005
-0.035145 0.116126 -0.002934
-0.035411 0.125166 0.005008
-0.034644 0.107392 0.003475
-0.036437 0.121795 -0.003382
-0.034617 0.113205 -0.004090
-0.035293 0.139682 0.001173
-0.034574 0.106006 -0.003301
-0.034480 0.128034 -0.002849
-0.035503 0.116975 0.004875
-0.034532 0.102139 -0.001174
-0.034490 0.120540 0.002668
-0.034757 0.104720 0.000074
-0.034983 0.126142 0.001933
-0.034712 0.136512 -0.002300
-0.035827 0.109527 -0.006047
-0.035266 0.113044 -0.001260
-0.034920 0.116645 0.001236
-0.034993 0.130431 -0.001469
-0.036508 0.119446 -0.006068
-0.047191 0.160293 0.007680
-0.051141 0.150973 0.005435
-0.050747 0.141827 0.005119
-0.046276 0.156663 0.006714
-0.038894 0.129366 0.008173
-0.051530 0.132935 0.005946
-0.040241 0.162362 0.007257
-0.039967 0.136961 0.007964
-0.045131 0.126726 0.008359
-0.039326 0.151259 0.006430
-0.046931 0.131358 0.008167
-0.043709 0.138184 0.008206
-0.042432 0.149121 0.006358
-0.048202 0.141413 0.006723
-0.038570 0.147662 0.005910
-0.050175 0.127720 0.006377
-0.038174 0.154234 0.004971
-0.048974 0.136902 0.007115
-0.044883 0.168141 0.008080
-0.047306 0.123161 0.007862
-0.049417 0.156065 0.007605
-0.049030 0.146425 0.005769
-0.044501 0.119385 0.008637
-0.039985 0.143578 0.006575
-0.041536 0.123525 0.006959
-0.042135 0.155857 0.007814
-0.050844 0.164251 0.006530
-0.045734 0.135171 0.007576
-0.041459 0.132448 0.006477
-0.044003 0.142958 0.007853
-0.046174 0.151007 0.007242
-0.038331 0.140779 0.004770
-0.036238 0.142448 -0.006429
-0.033768 0.137488 -0.000466
-0.034374 0.124290 0.003926
-0.035209 0.145341 0.002019
-0.035716 0.118139 -0.000837
-0.034149 0.120536 0.002826
-0.036058 0.147437 -0.005047
-0.037265 0.126121 -0.007690
-0.035789 0.120910 -0.003323
-0.035795 0.136906 -0.005136
-0.034721 0.126336 -0.000890
-0.036475 0.133503 -0.007294
-0.034786 0.133694 -0.001343
-0.035288 0.128025 -0.002917
-0.035473 0.138264 0.004677
-0.034783 0.118063 0.003300
-0.036695 0.134549 -0.003308
-0.034881 0.124636 -0.003947
-0.035427 0.156587 0.001323
-0.034785 0.116506 -0.003158
-0.034607 0.141700 -0.002849
-0.035518 0.128824 0.004457
-0.034824 0.111877 -0.001228
-0.034610 0.133169 0.002267
-0.034841 0.114886 -0.000030
-0.035052 0.140004 0.001709
-0.034804 0.152186 -0.002223
-0.036149 0.120594 -0.005953
-0.035394 0.124228 -0.001214
-0.035034 0.128870 0.000938
-0.035065 0.144808 -0.001631
-0.036731 0.131703 -0.005947
-0.042045 0.124467 -0.011636
-0.044367 0.118414 -0.012578
-0.042610 0.113174 -0.012707
-0.039775 0.122964 -0.012179
-0.037958 0.104358 -0.007901
-0.044258 0.106375 -0.012193
-0.038103 0.126052 -0.008854
-0.039844 0.109839 -0.008862
-0.039950 0.103331 -0.010766
-0.038720 0.119084 -0.010018
-0.040869 0.105753 -0.011506
-0.040978 0.110566 -0.010497
-0.039710 0.117384 -0.011604
-0.041348 0.113794 -0.011523
-0.037618 0.117511 -0.007399
-0.042207 0.104632 -0.012801
-0.038098 0.121501 -0.007759
-0.043347 0.110167 -0.011588
-0.039762 0.130866 -0.011449
-0.041515 0.100068 -0.011072
-0.042109 0.121767 -0.011702
-0.040920 0.114947 -0.012432
-0.040486 0.097160 -0.010680
-0.037971 0.114872 -0.009526
-0.038507 0.100901 -0.010111
-0.038248 0.122655 -0.009537
-0.043580 0.127982 -0.012772
-0.042623 0.109072 -0.011684
-0.038496 0.107298 -0.009956
-0.039673 0.112017 -0.010631
-0.040438 0.120030 -0.011466
-0.038447 0.112132 -0.007110
-0.039558 0.103012 -0.009300
-0.035212 0.097972 -0.006011
-0.035854 0.082925 0.000364
-0.036975 0.105587 -0.000706
-0.037661 0.073211 -0.004171
-0.035576 0.076018 -0.001787
-0.039339 0.106950 -0.008115
-0.040471 0.083997 -0.009022
-0.037552 0.077027 -0.005957
-0.037875 0.095653 -0.007859
-0.035860 0.083159 -0.003941
-0.041084 0.091478 -0.009584
-0.036922 0.092820 -0.005599
-0.037881 0.088345 -0.006957
-0.037495 0.097596 0.001688
-0.037434 0.074856 0.000813
-0.038275 0.095025 -0.005952
-0.038275 0.083082 -0.006950
-0.036978 0.116020 -0.003196
-0.038193 0.070986 -0.007390
-0.036417 0.102079 -0.006249
-0.037203 0.087654 0.002301
-0.038295 0.065064 -0.004872
-0.036793 0.092323 -0.000712
-0.036951 0.068992 -0.001761
-0.037169 0.100377 -0.000921
-0.036399 0.112655 -0.006229
-0.040438 0.077841 -0.009899
-0.037227 0.080912 -0.003318
-0.036340 0.088253 -0.001562
-0.036713 0.105533 -0.004031
-0.038597 0.089181 -0.007876
-0.048290 0.134604 -0.010549
-0.051979 0.126661 -0.006767
-0.051172 0.114990 -0.006894
-0.051521 0.132299 -0.010566
-0.044920 0.105198 -0.011785
-0.052666 0.107799 -0.006174
-0.045503 0.136610 -0.011562
-0.044464 0.111897 -0.010975
-0.048711 0.103754 -0.011599
-0.045311 0.125900 -0.012170
-0.049187 0.108808 -0.010160
-0.045759 0.114530 -0.011421
-0.047717 0.124099 -0.012861
-0.050081 0.118218 -0.011251
-0.045678 0.123133 -0.012538
-0.051633 0.102087 -0.008371
-0.044309 0.128542 -0.012728
-0.049135 0.112888 -0.009842
-0.049101 0.142778 -0.011118
-0.048155 0.100813 -0.010686
-0.050104 0.129153 -0.009951
-0.051084 0.121105 -0.008923
-0.048849 0.093814 -0.010727
-0.046661 0.120429 -0.012124
-0.047541 0.099198 -0.013368
-0.046790 0.131178 -0.011938
-0.051459 0.139161 -0.009521
-0.046924 0.110649 -0.010663
-0.048968 0.108443 -0.012760
-0.048754 0.117956 -0.011295
-0.049418 0.127049 -0.011355
-0.044936 0.119177 -0.012620
-0.037203 0.149665 -0.007575
-0.034419 0.144743 -0.001607
-0.035044 0.131241 0.003834
-0.035786 0.152316 0.001703
-0.036528 0.124709 -0.001923
-0.034434 0.127393 0.001982
-0.036976 0.154191 -0.006107
-0.038054 0.133346 -0.008745
-0.036541 0.127683 -0.004521
-0.036867 0.144598 -0.006003
-0.035658 0.133361 -0.001907
-0.037495 0.140638 -0.008484
-0.035583 0.140630 -0.001759
-0.036122 0.135307 -0.003920
-0.036121 0.145399 0.004551
-0.035160 0.124207 0.002710
-0.037368 0.141772 -0.003995
-0.035644 0.132039 -0.005080
-0.036430 0.162468 0.000709
-0.035650 0.122808 -0.004293
-0.035432 0.148966 -0.003889
-0.036145 0.136295 0.004502
-0.035455 0.117840 -0.001945
-0.035351 0.140256 0.001917
-0.035633 0.121093 -0.001082
-0.035693 0.146999 0.001043
-0.035769 0.158822 -0.003261
-0.037021 0.127331 -0.006893
-0.036120 0.130977 -0.002121
-0.035791 0.135720 0.000151
-0.035750 0.151735 -0.002388
-0.037722 0.139209 -0.007048
-0.047300 0.177834 0.007953
-0.051399 0.168712 0.005688
-0.051137 0.159646 0.005406
-0.046312 0.174143 0.006977
-0.038870 0.147427 0.008128
-0.051880 0.150945 0.006237
-0.040036 0.179922 0.007178
-0.039904 0.154856 0.008085
-0.045232 0.144788 0.008524
-0.039095 0.169021 0.006504
-0.047190 0.149304 0.008361
-0.043651 0.156185 0.008442
-0.042406 0.166916 0.006462
-0.048328 0.158982 0.006998
-0.038495 0.165331 0.005893
-0.050648 0.145812 0.006447
-0.038041 0.172127 0.004786
-0.049349 0.154827 0.007384
-0.044747 0.185572 0.008138
-0.047521 0.141309 0.008278
-0.049647 0.173655 0.007919
-0.049216 0.164154 0.006051
-0.044589 0.138012 0.008858
-0.039926 0.161433 0.006742
-0.041536 0.141928 0.007027
-0.042104 0.173372 0.007949
-0.051232 0.181705 0.006642
-0.045881 0.153333 0.007892
-0.041386 0.150381 0.006564
-0.044034 0.160706 0.008108
-0.046301 0.168539 0.007338
-0.038101 0.158543 0.004589
-0.048505 0.155310 -0.009761
-0.051557 0.147550 -0.004655
-0.051043 0.130666 0.000583
-0.052871 0.158581 -0.000808
-0.048032 0.119956 -0.009552
-0.052155 0.121029 -0.003247
-0.047575 0.160582 -0.010485
-0.045570 0.129218 -0.010548
-0.049397 0.121145 -0.010051
-0.046340 0.145295 -0.012332
-0.049755 0.127823 -0.007865
-0.047164 0.135541 -0.010749
-0.049217 0.142692 -0.010219
-0.050019 0.136765 -0.010337
-0.049338 0.146095 -0.003171
-0.051187 0.117308 0.000803
-0.047409 0.147151 -0.011062
-0.049341 0.131152 -0.009253
-0.051046 0.172445 -0.007084
-0.048078 0.115856 -0.010038
-0.049818 0.149752 -0.009060
-0.050871 0.138114 0.001913
-0.049465 0.107647 -0.008185
-0.048275 0.140303 -0.006763
-0.049934 0.113640 -0.007627
-0.049408 0.152526 -0.008095
-0.051403 0.165240 -0.008539
-0.047412 0.125601 -0.010638
-0.050892 0.126544 -0.005998
-0.050051 0.135009 -0.006437
-0.050566 0.155327 -0.006853
-0.046772 0.139217 -0.011459
-0.044702 0.182983 0.008259
-0.050380 0.175836 0.006821
-0.050215 0.168216 0.006346
-0.044352 0.179754 0.006646
-0.038416 0.158207 0.007351
-0.051318 0.161111 0.007403
-0.038739 0.184434 0.006972
-0.039098 0.164177 0.007438
-0.043703 0.155673 0.008268
-0.038087 0.175507 0.006084
-0.045779 0.159617 0.008276
-0.041452 0.165340 0.008094
-0.040839 0.174428 0.006322
-0.046406 0.166986 0.007310
-0.038343 0.172951 0.005701
-0.049596 0.156291 0.006677
-0.037896 0.178589 0.004311
-0.047569 0.164054 0.007957
-0.042636 0.189014 0.008045
-0.045451 0.153024 0.008458
-0.047829 0.179589 0.008451
-0.047984 0.171553 0.006012
-0.043087 0.149664 0.008549
-0.038930 0.169688 0.006488
-0.040480 0.153132 0.006324
-0.040718 0.179617 0.007741
-0.049422 0.186133 0.007428
-0.043744 0.162947 0.008162
-0.040323 0.160613 0.006064
-0.042740 0.169153 0.007881
-0.044708 0.174838 0.007320
-0.038153 0.167892 0.004116
-0.038895 0.149891 -0.010071
-0.034959 0.145911 -0.006780
-0.035071 0.135561 -0.001618
-0.035273 0.151653 -0.003605
-0.036922 0.129623 -0.005759
-0.034524 0.131844 -0.003731
-0.037890 0.153172 -0.009080
-0.039321 0.137347 -0.010851
-0.036972 0.131977 -0.007607
-0.037803 0.146558 -0.009167
-0.036026 0.136365 -0.005779
-0.039402 0.142981 -0.010339
-0.035785 0.142933 -0.005801
-0.036863 0.139029 -0.007438
-0.035516 0.147460 -0.000390
-0.034950 0.129564 -0.002017
-0.037618 0.143970 -0.007188
-0.037069 0.136487 -0.008194
-0.036433 0.159312 -0.004115
-0.036840 0.127399 -0.007729
-0.036321 0.149707 -0.007339
-0.035834 0.139374 -0.000844
-0.036048 0.123258 -0.005461
-0.035114 0.142943 -0.002826
-0.035732 0.126121 -0.005190
-0.035631 0.148042 -0.003671
-0.036593 0.157140 -0.007294
-0.038793 0.131975 -0.009904
-0.036142 0.135195 -0.005628
-0.035692 0.139110 -0.004551
-0.036107 0.151663 -0.005939
-0.038529 0.141720 -0.009510
-0.037882 0.145109 -0.007476
-0.034749 0.136933 -0.000280
-0.036878 0.117126 0.005046
-0.037447 0.148287 0.003660
-0.037160 0.105553 -0.000822
-0.034936 0.109453 0.004300
-0.038449 0.151654 -0.005689
-0.038889 0.118002 -0.007618
-0.036461 0.109651 -0.003209
-0.036800 0.134471 -0.005127
-0.034751 0.118594 0.000005
-0.039597 0.128656 -0.007701
-0.036477 0.130290 -0.002277
-0.037569 0.122937 -0.004284
-0.038315 0.136200 0.005830
-0.038049 0.106485 0.004682
-0.037763 0.133472 -0.002628
-0.036689 0.116598 -0.004009
-0.036945 0.165160 0.001554
-0.036818 0.102686 -0.003786
-0.035519 0.142231 -0.003334
-0.038081 0.123538 0.005165
-0.038086 0.096732 -0.001767
-0.037027 0.129538 0.003080
-0.036669 0.101151 0.002331
-0.037247 0.140443 0.002649
-0.035808 0.158852 -0.002261
-0.038502 0.111061 -0.007135
-0.037066 0.114758 -0.000494
-0.036078 0.123638 0.002957
-0.036568 0.147431 -0.000262
-0.037207 0.125418 -0.005065
-0.035973 0.174029 -0.006632
-0.033830 0.168982 0.000266
-0.034786 0.155229 0.005656
-0.035675 0.177188 0.003437
-0.035795 0.149241 -0.000142
-0.034316 0.151681 0.003883
-0.035847 0.179248 -0.004918
-0.037121 0.157290 -0.007700
-0.035914 0.151950 -0.003054
-0.035671 0.168456 -0.004931
-0.034881 0.157960 -0.000341
-0.036273 0.164863 -0.007448
-0.034938 0.164863 -0.000460
-0.035461 0.159162 -0.002502
-0.035871 0.169574 0.006206
-0.035281 0.148936 0.004383
-0.036671 0.165923 -0.002890
-0.034889 0.155687 -0.003841
-0.035614 0.188228 0.002342
-0.034721 0.147686 -0.002832
-0.034568 0.173233 -0.002474
-0.035973 0.160125 0.006266
-0.034850 0.143342 -0.000669
-0.034870 0.164256 0.003628
-0.035110 0.146338 0.000770
-0.035386 0.171363 0.002950
-0.034860 0.184057 -0.001689
-0.036014 0.151612 -0.005901
-0.035564 0.155377 -0.000852
-0.035351 0.159734 0.001995
-0.035227 0.176487 -0.001148
-0.036619 0.162932 -0.005777
-0.048851 0.172873 -0.010113
-0.052405 0.163152 -0.005626
-0.051838 0.146759 -0.003971
-0.052842 0.173192 -0.006339
-0.047197 0.135372 -0.010971
-0.052955 0.137560 -0.004775
-0.046993 0.177717 -0.010892
-0.045916 0.143962 -0.010920
-0.049400 0.134813 -0.011107
-0.046257 0.161103 -0.012283
-0.050056 0.141324 -0.009428
-0.046629 0.148633 -0.011156
-0.048682 0.158862 -0.012308
-0.050391 0.151407 -0.011025
-0.048139 0.159855 -0.009781
-0.052142 0.132174 -0.005153
-0.046451 0.164493 -0.011890
-0.049791 0.145268 -0.009384
-0.050599 0.189261 -0.009878
-0.048619 0.130914 -0.010257
-0.050601 0.165452 -0.009430
-0.051167 0.153858 -0.004856
-0.049610 0.122678 -0.009996
-0.047695 0.154818 -0.010595
-0.049006 0.129158 -0.011609
-0.048395 0.169152 -0.010983
-0.052207 0.181875 -0.009041
-0.047632 0.141721 -0.010817
-0.050502 0.140620 -0.010403
-0.049718 0.150427 -0.009914
-0.050192 0.167928 -0.010094
-0.046296 0.153769 -0.011764
-0.051150 0.253610 0.004926
-0.050867 0.236995 -0.000248
-0.050983 0.224546 0.001769
-0.048703 0.249770 0.004298
-0.041584 0.206199 0.005841
-0.050673 0.211421 0.000538
-0.044719 0.257735 0.005133
-0.043943 0.217919 0.007269
-0.046859 0.206690 0.004481
-0.046016 0.239051 0.006258
-0.048565 0.211602 0.003889
-0.049342 0.222175 0.004498
-0.047516 0.234772 0.004807
-0.049866 0.227956 0.004525
-0.040826 0.234634 0.005145
-0.049277 0.204056 0.002677
-0.040793 0.244124 0.005435
-0.050213 0.219640 0.002826
-0.049480 0.266482 0.004750
-0.050136 0.199227 0.004210
-0.051127 0.245372 0.002253
-0.048948 0.232489 0.003113
-0.047231 0.192463 0.005782
-0.043304 0.229332 0.004949
-0.043322 0.198626 0.004391
-0.043249 0.246118 0.005401
-0.051494 0.259199 0.001506
-0.048968 0.215690 0.004408
-0.043582 0.212018 0.004424
-0.045889 0.224971 0.005622
-0.048567 0.242275 0.004921
-0.042148 0.224557 0.004778
-0.043033 0.196037 0.008800
-0.049092 0.189261 0.007448
-0.049113 0.182092 0.006936
-0.043343 0.192846 0.006803
-0.037841 0.172720 0.006958
-0.050153 0.175425 0.008003
-0.037833 0.197369 0.006895
-0.038366 0.178260 0.007284
-0.042669 0.169844 0.008492
-0.037245 0.188867 0.005786
-0.044603 0.173765 0.008604
-0.040167 0.179193 0.008273
-0.039724 0.188126 0.006465
-0.044971 0.180536 0.007692
-0.037999 0.186659 0.005484
-0.048490 0.170362 0.006959
-0.037574 0.192115 0.003757
-0.046067 0.177852 0.008680
-0.041349 0.201744 0.008355
-0.043740 0.167431 0.009054
-0.046738 0.192842 0.009053
-0.046768 0.185011 0.006376
-0.041790 0.163959 0.008832
-0.038192 0.183594 0.006522
-0.039567 0.167552 0.006217
-0.039806 0.192953 0.007927
-0.048140 0.199010 0.008094
-0.042232 0.176844 0.008608
-0.039464 0.174762 0.005923
-0.041663 0.183064 0.008137
-0.043579 0.187962 0.007561
-0.037986 0.182182 0.003449
-0.038167 0.159284 -0.008289
-0.034186 0.153567 -0.004124
-0.035340 0.137938 0.001326
-0.036064 0.161578 -0.000412
-0.036979 0.129405 -0.003326
-0.034451 0.132328 0.000233
-0.038240 0.163805 -0.007496
-0.039411 0.139577 -0.009097
-0.036629 0.133087 -0.005000
-0.037128 0.152047 -0.007655
-0.035304 0.138960 -0.002838
-0.039285 0.147710 -0.009074
-0.036411 0.148532 -0.004117
-0.036644 0.143078 -0.005576
-0.036585 0.153649 0.002395
-0.035992 0.130150 0.001270
-0.037722 0.150296 -0.005537
-0.036707 0.138200 -0.005829
-0.035997 0.173121 -0.001560
-0.036610 0.127521 -0.005553
-0.035543 0.158562 -0.005163
-0.036375 0.143120 0.002460
-0.036429 0.121319 -0.003027
-0.035844 0.148206 0.000183
-0.035851 0.125101 -0.001466
-0.036137 0.156580 -0.000169
-0.035629 0.169062 -0.004904
-0.038313 0.132292 -0.008496
-0.036219 0.136547 -0.002554
-0.035467 0.143569 -0.000834
-0.035918 0.161558 -0.003626
-0.038169 0.145890 -0.007657
-0.051947 0.226418 0.002489
-0.052009 0.208954 0.001707
-0.050986 0.189272 0.005150
-0.048285 0.227178 0.006972
-0.047285 0.168832 0.005973
-0.051205 0.172445 0.003014
-0.050089 0.232930 0.005665
-0.049471 0.184639 0.004472
-0.049078 0.171737 0.004694
-0.049788 0.209710 0.003377
-0.048948 0.178989 0.004980
-0.051462 0.192572 0.002783
-0.049108 0.204142 0.005452
-0.050357 0.195141 0.004231
-0.044777 0.207599 0.006573
-0.048410 0.166250 0.006057
-0.046813 0.212355 0.006534
-0.051327 0.185774 0.002142
-0.050576 0.247413 0.005888
-0.050212 0.160986 0.002812
-0.051802 0.217682 0.002280
-0.047333 0.196511 0.006516
-0.049416 0.151036 0.005775
-0.046164 0.199281 0.006401
-0.046477 0.158558 0.005127
-0.047288 0.220023 0.006094
-0.052652 0.237988 0.002537
-0.050420 0.177413 0.001659
-0.046192 0.177607 0.006756
-0.047026 0.190511 0.006901
-0.049928 0.220969 0.005505
-0.047940 0.196909 0.005374
-0.036686 0.172273 -0.005835
-0.034815 0.165907 0.001496
-0.037513 0.148776 0.005792
-0.037601 0.174736 0.003856
-0.037253 0.139635 0.000436
-0.035891 0.143168 0.005727
-0.037543 0.177678 -0.004478
-0.038520 0.150454 -0.006892
-0.036732 0.143414 -0.001727
-0.036495 0.164240 -0.004645
-0.035566 0.150838 0.001336
-0.038226 0.159605 -0.006728
-0.036672 0.160675 -0.000522
-0.037050 0.153795 -0.002315
-0.038256 0.165582 0.005970
-0.038499 0.139957 0.005313
-0.037761 0.162586 -0.002227
-0.036036 0.148533 -0.002548
-0.036560 0.187870 0.002874
-0.036102 0.137515 -0.002303
-0.035494 0.170967 -0.001508
-0.038691 0.155036 0.005826
-0.037121 0.131795 0.000162
-0.037225 0.160088 0.003971
-0.036938 0.135440 0.002626
-0.037186 0.168980 0.003664
-0.035358 0.183124 -0.000478
-0.037178 0.143367 -0.005770
-0.037009 0.147197 0.000564
-0.036643 0.154990 0.003826
-0.036629 0.174348 0.000342
-0.037369 0.157429 -0.004439
-0.042035 0.168131 -0.011618
-0.044331 0.162132 -0.012796
-0.042403 0.156855 -0.012855
-0.039573 0.166799 -0.012040
-0.037944 0.147857 -0.007794
-0.044178 0.149921 -0.012507
-0.038036 0.169796 -0.008653
-0.039706 0.153508 -0.008788
-0.039923 0.146880 -0.010666
-0.038678 0.162808 -0.009944
-0.040640 0.149455 -0.011442
-0.041035 0.154423 -0.010649
-0.039429 0.161116 -0.011439
-0.041195 0.157593 -0.011466
-0.037542 0.161492 -0.007233
-0.041957 0.148043 -0.012815
-0.038027 0.165134 -0.007540
-0.043127 0.153832 -0.011606
-0.039654 0.174386 -0.011235
-0.041373 0.143363 -0.011253
-0.042001 0.165462 -0.011727
-0.040644 0.158657 -0.012498
-0.040507 0.140135 -0.010712
-0.037889 0.158596 -0.009453
-0.038409 0.143958 -0.010102
-0.038110 0.166345 -0.009325
-0.043386 0.171702 -0.012702
-0.042425 0.152569 -0.011611
-0.038360 0.150917 -0.009994
-0.039519 0.155796 -0.010639
-0.040301 0.163977 -0.011417
-0.038356 0.155961 -0.006897
-0.040488 0.211254 0.008506
-0.047598 0.205336 0.008102
-0.047833 0.198299 0.007446
-0.041670 0.208738 0.006794
-0.037841 0.189437 0.005955
-0.048900 0.191794 0.008659
-0.037135 0.212953 0.006425
-0.037907 0.194649 0.006214
-0.041262 0.187201 0.008119
-0.036844 0.204258 0.004822
-0.043132 0.190879 0.008418
-0.038564 0.195735 0.007813
-0.038628 0.203949 0.006360
-0.042703 0.196506 0.007648
-0.038184 0.202993 0.005446
-0.046941 0.186873 0.007125
-0.037636 0.207772 0.003166
-0.044090 0.194457 0.009046
-0.039812 0.217182 0.008036
-0.041393 0.184830 0.008829
-0.044937 0.208026 0.009074
-0.044955 0.200578 0.006578
-0.040510 0.180914 0.008445
-0.037652 0.199783 0.006230
-0.038966 0.184575 0.005820
-0.038570 0.208852 0.007535
-0.046159 0.214456 0.008304
-0.040046 0.193194 0.008135
-0.038838 0.191495 0.005694
-0.040530 0.198965 0.007964
-0.042001 0.204109 0.007494
-0.038166 0.199109 0.002932
-0.038975 0.180669 -0.010014
-0.034694 0.176581 -0.006377
-0.034901 0.165373 -0.000528
-0.035223 0.182615 -0.002670
-0.036943 0.159215 -0.005405
-0.034217 0.161539 -0.003071
-0.037954 0.184073 -0.008978
-0.039464 0.167448 -0.010604
-0.036923 0.161760 -0.007460
-0.037873 0.177186 -0.008832
-0.035976 0.166452 -0.005497
-0.039597 0.173458 -0.010353
-0.035752 0.173202 -0.005256
-0.036789 0.169229 -0.007244
-0.035543 0.177990 0.000727
-0.034830 0.159005 -0.001191
-0.037687 0.174387 -0.006883
-0.037015 0.166533 -0.008115
-0.036373 0.190342 -0.003525
-0.036809 0.156997 -0.007497
-0.036073 0.180520 -0.007013
-0.035814 0.169591 0.000372
-0.036004 0.152736 -0.005075
-0.035089 0.173311 -0.001965
-0.035692 0.155638 -0.004695
-0.035541 0.178629 -0.002934
-0.036373 0.188271 -0.007050
-0.038864 0.161725 -0.009709
-0.036145 0.165023 -0.005289
-0.035611 0.169225 -0.003938
-0.035894 0.182585 -0.005524
-0.038717 0.172092 -0.009351
-0.047527 0.435815 -0.008104
-0.042694 0.419657 -0.001127
-0.044215 0.384121 0.004574
-0.049398 0.437830 0.007597
-0.047431 0.353176 -0.001596
-0.039579 0.366282 0.000286
-0.047017 0.443228 -0.006658
-0.046500 0.386020 -0.006224
-0.047465 0.374491 -0.004041
-0.045591 0.416679 -0.007616
-0.046406 0.384130 -0.002004
-0.045621 0.404007 -0.007150
-0.047914 0.407592 0.003105
-0.042957 0.399633 -0.004497
-0.046497 0.413899 0.005518
-0.043941 0.360194 0.001344
-0.044404 0.420745 -0.000777
-0.039630 0.389482 -0.005859
-0.048892 0.465791 0.000172
-0.043678 0.352294 -0.005813
-0.044366 0.427926 -0.009884
-0.040703 0.401990 0.006400
-0.048145 0.323386 -0.003527
-0.048262 0.402775 0.002558
-0.047358 0.337982 0.004709
-0.048120 0.424582 -0.001423
-0.046169 0.451631 -0.009542
-0.043087 0.370421 -0.010177
-0.047026 0.374830 0.003519
-0.046004 0.390532 0.001457
-0.048093 0.435446 -0.000372
-0.046843 0.403037 -0.003150
-0.048298 0.188696 -0.010682
-0.051787 0.180123 -0.007291
-0.050980 0.168686 -0.007661
-0.051054 0.185800 -0.011711
-0.044257 0.158970 -0.011795
-0.052374 0.161568 -0.006754
-0.045008 0.190853 -0.011700
-0.044304 0.165533 -0.010885
-0.048282 0.157144 -0.011904
-0.045011 0.179575 -0.012163
-0.049008 0.162094 -0.010644
-0.045475 0.167840 -0.011476
-0.047099 0.177690 -0.013120
-0.049783 0.171563 -0.011422
-0.044680 0.176398 -0.013084
-0.051491 0.155982 -0.009475
-0.043754 0.182415 -0.012790
-0.049066 0.166357 -0.010091
-0.048645 0.197353 -0.011499
-0.048017 0.154565 -0.010746
-0.049961 0.183156 -0.010097
-0.050794 0.174686 -0.010401
-0.048451 0.147963 -0.011016
-0.045868 0.173666 -0.012493
-0.046698 0.153286 -0.013640
-0.045989 0.185259 -0.012067
-0.051380 0.193544 -0.009799
-0.046781 0.164537 -0.010754
-0.047878 0.161838 -0.013595
-0.048144 0.171243 -0.011715
-0.049061 0.180117 -0.011829
-0.044270 0.172135 -0.012538
-0.044013 0.169383 -0.010576
-0.047740 0.161055 -0.010537
-0.046974 0.153806 -0.011516
-0.043628 0.166094 -0.012280
-0.038042 0.141372 -0.007931
-0.047823 0.144403 -0.010076
-0.039561 0.169898 -0.008529
-0.040731 0.149017 -0.008247
-0.042239 0.139834 -0.010747
-0.038941 0.161398 -0.009704
-0.043959 0.144177 -0.010857
-0.042176 0.149735 -0.009366
-0.041983 0.158730 -0.011977
-0.045237 0.154330 -0.011359
-0.038313 0.157113 -0.008400
-0.047054 0.141253 -0.012800
-0.039291 0.163352 -0.007514
-0.046513 0.149355 -0.010351
-0.041379 0.175616 -0.010615
-0.043426 0.137510 -0.009770
-0.045659 0.165635 -0.010259
-0.044788 0.155720 -0.012015
-0.042344 0.134654 -0.009740
-0.039482 0.154901 -0.009525
-0.039697 0.138099 -0.010417
-0.040715 0.165827 -0.009407
-0.047696 0.172374 -0.011149
-0.045052 0.148491 -0.010515
-0.039843 0.144611 -0.010124
-0.041592 0.152703 -0.010392
-0.043215 0.161545 -0.012129
-0.038935 0.151448 -0.006727
-0.039256 0.191595 -0.011118
-0.034294 0.187220 -0.007830
-0.034335 0.174536 -0.002178
-0.034948 0.193694 -0.004286
-0.036977 0.167633 -0.006241
-0.033882 0.169652 -0.004259
-0.038321 0.195332 -0.010055
-0.040145 0.176574 -0.011121
-0.036709 0.170163 -0.008277
-0.037496 0.186973 -0.009941
-0.035416 0.175077 -0.006511
-0.040238 0.183185 -0.010972
-0.035780 0.183206 -0.007269
-0.036685 0.178780 -0.008361
-0.035350 0.188565 -0.000521
-0.034574 0.168227 -0.002563
-0.037912 0.184692 -0.008040
-0.037506 0.175542 -0.009175
-0.035533 0.202706 -0.005009
-0.036841 0.165373 -0.008417
-0.035510 0.191673 -0.008021
-0.035080 0.178547 -0.001142
-0.036209 0.160946 -0.005929
-0.034804 0.183600 -0.003136
-0.035332 0.164108 -0.004998
-0.035395 0.189688 -0.003948
-0.035916 0.200313 -0.008442
-0.039631 0.170195 -0.010873
-0.035925 0.173851 -0.005734
-0.035038 0.178925 -0.004897
-0.035506 0.194056 -0.006801
-0.038955 0.181352 -0.010095
-0.047652 0.200089 -0.011411
-0.050910 0.191863 -0.008712
-0.050239 0.181786 -0.009167
-0.049866 0.196464 -0.013240
-0.042768 0.172762 -0.011959
-0.051509 0.175201 -0.008138
-0.043870 0.201651 -0.012316
-0.043558 0.178660 -0.011019
-0.047291 0.170732 -0.012471
-0.044008 0.191711 -0.012573
-0.048268 0.175067 -0.011585
-0.044710 0.180590 -0.011716
-0.046013 0.189873 -0.013662
-0.049045 0.184068 -0.011858
-0.042768 0.187921 -0.013402
-0.050751 0.170253 -0.010922
-0.042341 0.194224 -0.013007
-0.048674 0.179419 -0.010814
-0.047455 0.207275 -0.012383
-0.047498 0.168578 -0.011175
-0.049113 0.195365 -0.010775
-0.049987 0.187036 -0.012248
-0.047452 0.163334 -0.011630
-0.044523 0.185797 -0.012878
-0.045194 0.167929 -0.013925
-0.044721 0.196872 -0.012446
-0.050597 0.204190 -0.010939
-0.046263 0.178131 -0.011245
-0.045923 0.174957 -0.014321
-0.046853 0.183863 -0.012258
-0.048058 0.190865 -0.012634
-0.042769 0.183605 -0.012598
-0.038363 0.197402 -0.009624
-0.034705 0.193643 -0.006156
-0.034846 0.183640 -0.001424
-0.035227 0.199081 -0.003381
-0.036742 0.178357 -0.005294
-0.034361 0.180204 -0.003117
-0.037587 0.200642 -0.008697
-0.039020 0.185547 -0.010400
-0.036706 0.180380 -0.007232
-0.037399 0.194131 -0.008698
-0.035829 0.184519 -0.005368
-0.038789 0.190973 -0.009883
-0.035608 0.190862 -0.005625
-0.036532 0.186726 -0.007066
-0.035517 0.194974 -0.000325
-0.034880 0.178270 -0.001852
-0.037489 0.191677 -0.007123
-0.036711 0.184406 -0.007728
-0.036165 0.206834 -0.003867
-0.036462 0.176495 -0.007065
-0.035959 0.197253 -0.006867
-0.035622 0.187109 -0.000715
-0.035818 0.172806 -0.005067
-0.035008 0.190803 -0.002572
-0.035595 0.175409 -0.004726
-0.035556 0.195582 -0.003489
-0.036362 0.204525 -0.006887
-0.038418 0.180502 -0.009356
-0.036032 0.183508 -0.005305
-0.035517 0.187049 -0.004213
-0.035994 0.199102 -0.005749
-0.038304 0.189617 -0.009254
-0.036180 0.212094 -0.006755
-0.033959 0.207012 -0.000399
-0.034741 0.193651 0.004645
-0.035590 0.215148 0.002624
-0.035891 0.187391 -0.000709
-0.034414 0.189796 0.003074
-0.036045 0.217191 -0.005093
-0.037173 0.195603 -0.007849
-0.035973 0.190278 -0.003319
-0.035895 0.206544 -0.005249
-0.034930 0.196003 -0.000806
-0.036428 0.202964 -0.007515
-0.035036 0.203054 -0.001029
-0.035484 0.197574 -0.002867
-0.035943 0.207783 0.005324
-0.035107 0.187178 0.003676
-0.036794 0.204217 -0.003250
-0.034876 0.194177 -0.004096
-0.035715 0.226168 0.001642
-0.034878 0.185686 -0.003286
-0.034731 0.211352 -0.002817
-0.035990 0.198543 0.005235
-0.034928 0.180904 -0.001042
-0.034923 0.202510 0.002745
-0.035137 0.184042 0.000092
-0.035350 0.209565 0.002191
-0.034918 0.221894 -0.002178
-0.036064 0.189808 -0.006128
-0.035597 0.193563 -0.001170
-0.035396 0.198183 0.001306
-0.035266 0.214477 -0.001436
-0.036833 0.201323 -0.006032
-0.035431 0.200760 -0.001745
-0.035886 0.195813 0.005535
-0.039570 0.181674 0.007509
-0.038316 0.203093 0.005842
-0.037507 0.173179 0.003409
-0.037632 0.176772 0.008233
-0.036728 0.205362 -0.000437
-0.037157 0.182990 -0.003453
-0.036924 0.176978 0.002087
-0.036131 0.194179 -0.001715
-0.036391 0.182922 0.004871
-0.037166 0.189977 -0.002777
-0.036799 0.191728 0.002876
-0.036893 0.185655 0.001654
-0.039530 0.195272 0.006782
-0.040040 0.173407 0.007075
-0.037341 0.193959 0.000798
-0.035412 0.181525 0.001804
-0.037043 0.213200 0.005642
-0.035930 0.171506 0.000564
-0.035792 0.199827 0.002600
-0.040650 0.187969 0.006491
-0.036884 0.165798 0.003621
-0.037810 0.190623 0.005811
-0.037907 0.169605 0.005009
-0.037425 0.198498 0.005676
-0.035384 0.208659 0.003920
-0.036107 0.176615 -0.002252
-0.037437 0.179608 0.003406
-0.037906 0.186657 0.006674
-0.037291 0.201828 0.004305
-0.036993 0.189133 -0.000500
-0.040298 0.162939 -0.009641
-0.035684 0.157531 -0.007670
-0.035548 0.143200 -0.001467
-0.036899 0.165461 -0.002103
-0.037597 0.133435 -0.005100
-0.035686 0.135880 -0.003798
-0.039698 0.166834 -0.008641
-0.040797 0.143617 -0.009230
-0.037661 0.136729 -0.006788
-0.038070 0.155276 -0.008548
-0.036002 0.142767 -0.005178
-0.041692 0.150774 -0.009773
-0.037175 0.152579 -0.006824
-0.038133 0.148212 -0.008016
-0.037188 0.157245 0.000367
-0.037018 0.135289 -0.000984
-0.038305 0.154951 -0.006606
-0.038959 0.143141 -0.007733
-0.037033 0.176229 -0.004477
-0.038331 0.131386 -0.008011
-0.036762 0.161842 -0.007238
-0.036589 0.147095 0.000786
-0.038468 0.125950 -0.005921
-0.036658 0.151835 -0.001961
-0.036802 0.129658 -0.003057
-0.037255 0.160152 -0.002340
-0.036992 0.172767 -0.007327
-0.041118 0.138076 -0.010245
-0.037040 0.140794 -0.004094
-0.036254 0.147715 -0.003297
-0.036878 0.165350 -0.005458
-0.038741 0.148211 -0.008465
-0.051098 0.294843 -0.003368
-0.049259 0.280692 0.003893
-0.049138 0.253651 0.009186
-0.049090 0.299368 0.008677
-0.050193 0.238120 0.002384
-0.049039 0.243413 0.007026
-0.050494 0.302343 -0.001253
-0.049206 0.254759 -0.004776
-0.049789 0.245743 -0.000326
-0.049722 0.278710 -0.002375
-0.050188 0.253712 0.003739
-0.049549 0.267778 -0.005531
-0.050617 0.271942 0.004679
-0.049475 0.263058 0.001096
-0.048049 0.278654 0.009377
-0.047642 0.237288 0.008187
-0.050139 0.276138 0.002757
-0.050110 0.255444 -0.001419
-0.050615 0.320613 0.007308
-0.050522 0.234102 -0.001159
-0.049404 0.287108 -0.001204
-0.046631 0.264808 0.010458
-0.050114 0.222811 0.002891
-0.048638 0.269951 0.007613
-0.049042 0.229579 0.004990
-0.047967 0.287307 0.005853
-0.051103 0.311197 0.001366
-0.049590 0.246379 -0.003800
-0.048856 0.248289 0.006022
-0.048865 0.259964 0.006195
-0.050300 0.295048 0.002874
-0.050601 0.268075 -0.001902
-0.036095 0.230505 0.004540
-0.042171 0.227347 0.008921
-0.042746 0.219328 0.007860
-0.039107 0.231718 0.007174
-0.037941 0.212095 0.004336
-0.043089 0.214217 0.008950
-0.036500 0.233927 0.004858
-0.036735 0.217777 0.001833
-0.038172 0.212945 0.006232
-0.036314 0.225002 0.001708
-0.039266 0.215690 0.007726
-0.036299 0.219707 0.004680
-0.037166 0.225129 0.005823
-0.037382 0.219104 0.006608
-0.038741 0.226311 0.006064
-0.041466 0.210437 0.007480
-0.037362 0.227913 0.002365
-0.038320 0.217892 0.008073
-0.037820 0.238295 0.006948
-0.036258 0.209484 0.005744
-0.038599 0.228564 0.007703
-0.041474 0.222497 0.006923
-0.037660 0.204819 0.006977
-0.037516 0.222678 0.005814
-0.039132 0.208716 0.005616
-0.037363 0.229698 0.005986
-0.039267 0.235056 0.007376
-0.036137 0.214319 0.004670
-0.038392 0.215079 0.005393
-0.039305 0.220581 0.007416
-0.038516 0.228475 0.007315
-0.037710 0.222517 0.002391
-0.038754 0.182954 -0.009025
-0.034396 0.178281 -0.005659
-0.035318 0.163921 0.000247
-0.036231 0.185391 -0.001206
-0.037267 0.155602 -0.004147
-0.034774 0.158047 -0.001345
-0.038725 0.186746 -0.008082
-0.039786 0.165599 -0.009428
-0.036988 0.159006 -0.005709
-0.037275 0.176670 -0.008328
-0.035541 0.164655 -0.003783
-0.040128 0.172765 -0.009561
-0.036592 0.173607 -0.005260
-0.037098 0.169033 -0.006576
-0.036951 0.178331 0.001449
-0.036644 0.156587 0.000470
-0.037996 0.175401 -0.006436
-0.037464 0.164283 -0.006588
-0.036177 0.195167 -0.002871
-0.037358 0.153613 -0.006777
-0.035838 0.182664 -0.005751
-0.036569 0.168550 0.001864
-0.037265 0.147749 -0.004215
-0.036180 0.173326 -0.000671
-0.036354 0.151407 -0.002121
-0.036567 0.180589 -0.000920
-0.035770 0.191992 -0.005879
-0.039402 0.158952 -0.009504
-0.036671 0.162568 -0.003441
-0.035719 0.169260 -0.001723
-0.036198 0.185692 -0.004333
-0.038426 0.170781 -0.008243
-0.042050 0.203597 -0.011789
-0.043770 0.197502 -0.012992
-0.041671 0.191941 -0.012812
-0.039191 0.202707 -0.011819
-0.038054 0.182903 -0.007949
-0.043399 0.184936 -0.012562
-0.038281 0.205590 -0.008828
-0.039912 0.188752 -0.009080
-0.039753 0.182318 -0.010639
-0.038957 0.198132 -0.010201
-0.040364 0.184930 -0.011346
-0.041269 0.190020 -0.010799
-0.039336 0.196378 -0.011381
-0.040942 0.193024 -0.011478
-0.037506 0.197231 -0.007290
-0.041062 0.183241 -0.012493
-0.038041 0.200444 -0.007749
-0.042806 0.189270 -0.011651
-0.039511 0.210595 -0.011160
-0.041203 0.178491 -0.011246
-0.041606 0.200897 -0.011841
-0.039993 0.193821 -0.012173
-0.040292 0.174973 -0.010588
-0.037767 0.194034 -0.009511
-0.038360 0.178871 -0.010080
-0.038039 0.201784 -0.009475
-0.042842 0.207640 -0.012688
-0.042360 0.187453 -0.011692
-0.038280 0.186275 -0.009726
-0.039295 0.191083 -0.010685
-0.039993 0.199978 -0.011331
-0.038531 0.191419 -0.007218
-0.036023 0.227547 -0.006674
-0.033887 0.222778 -0.000649
-0.034531 0.210062 0.003879
-0.035242 0.230473 0.002023
-0.035668 0.204143 -0.000932
-0.034373 0.206403 0.002645
-0.035810 0.232440 -0.005175
-0.036983 0.211922 -0.007862
-0.035684 0.207018 -0.003377
-0.035623 0.222247 -0.005378
-0.034665 0.212239 -0.000965
-0.036272 0.219052 -0.007466
-0.034794 0.219144 -0.001364
-0.035263 0.213729 -0.003058
-0.035559 0.223607 0.004664
-0.034940 0.204066 0.003387
-0.036498 0.220032 -0.003512
-0.034809 0.210481 -0.004142
-0.035290 0.241185 0.001127
-0.034811 0.202592 -0.003410
-0.034542 0.226867 -0.003024
-0.035659 0.214590 0.004578
-0.034847 0.197989 -0.001379
-0.034749 0.218651 0.002287
-0.034890 0.200878 -0.000022
-0.035087 0.225130 0.001648
-0.034745 0.236895 -0.002377
-0.035959 0.206429 -0.006196
-0.035402 0.210044 -0.001306
-0.035050 0.214513 0.000928
-0.035103 0.229941 -0.001696
-0.036497 0.217325 -0.006082
-0.037037 0.245384 0.006368
-0.044829 0.241567 0.009038
-0.045236 0.234084 0.008029
-0.039878 0.245165 0.007177
-0.037878 0.225924 0.004176
-0.045752 0.228084 0.009101
-0.036614 0.248196 0.005482
-0.036883 0.231167 0.003275
-0.039135 0.225525 0.007125
-0.036315 0.239301 0.002363
-0.040843 0.228626 0.008252
-0.036584 0.232668 0.006209
-0.037524 0.239284 0.006359
-0.038838 0.232511 0.007292
-0.038544 0.239824 0.005402
-0.043374 0.223496 0.007303
-0.037579 0.242462 0.002091
-0.040806 0.231511 0.008980
-0.038416 0.252320 0.007623
-0.037358 0.222470 0.007212
-0.041173 0.242745 0.008599
-0.042512 0.236328 0.006963
-0.038178 0.217908 0.007546
-0.037441 0.236148 0.005754
-0.038892 0.221980 0.005483
-0.037551 0.244162 0.006628
-0.042419 0.249526 0.008207
-0.036957 0.228743 0.005981
-0.038592 0.228270 0.005134
-0.039561 0.234684 0.007686
-0.039848 0.241268 0.007675
-0.038001 0.236174 0.002032
-0.047750 0.216563 -0.011084
-0.051080 0.208630 -0.008254
-0.050361 0.198619 -0.008824
-0.049949 0.213125 -0.013041
-0.042897 0.189414 -0.012088
-0.051770 0.192109 -0.007817
-0.044036 0.217955 -0.012081
-0.043404 0.195528 -0.011020
-0.047486 0.187482 -0.012266
-0.044156 0.208451 -0.012371
-0.048265 0.191903 -0.011248
-0.044797 0.197384 -0.011724
-0.046229 0.206634 -0.013389
-0.049153 0.201032 -0.011716
-0.043142 0.204924 -0.013544
-0.050825 0.186637 -0.010621
-0.042442 0.210811 -0.013013
-0.048507 0.196218 -0.010630
-0.047635 0.223063 -0.012004
-0.047468 0.185094 -0.011205
-0.049199 0.211807 -0.010632
-0.050302 0.204130 -0.011830
-0.047663 0.179212 -0.011522
-0.044874 0.202803 -0.012825
-0.045537 0.183949 -0.014041
-0.044902 0.213286 -0.012348
-0.050617 0.220260 -0.010432
-0.046174 0.194789 -0.010999
-0.046468 0.191690 -0.014347
-0.047211 0.200897 -0.012148
-0.048299 0.207686 -0.012307
-0.043041 0.200876 -0.012799
-0.048206 0.232162 -0.010887
-0.051739 0.223635 -0.007163
-0.051149 0.211376 -0.007339
-0.051340 0.229773 -0.011398
-0.044921 0.201875 -0.011978
-0.052380 0.204239 -0.006563
-0.045304 0.234834 -0.011882
-0.044574 0.208306 -0.011269
-0.048375 0.200219 -0.012042
-0.045104 0.222659 -0.012457
-0.049276 0.205241 -0.010678
-0.045551 0.211068 -0.011738
-0.047332 0.220932 -0.013331
-0.049717 0.214420 -0.011564
-0.045406 0.219891 -0.013143
-0.051706 0.198835 -0.009226
-0.044314 0.225807 -0.013011
-0.049030 0.209234 -0.010131
-0.048850 0.242097 -0.011673
-0.048147 0.197607 -0.010798
-0.050012 0.226384 -0.010156
-0.050989 0.217476 -0.010068
-0.048597 0.191226 -0.011139
-0.046138 0.216791 -0.012618
-0.047172 0.196448 -0.013697
-0.046212 0.228709 -0.012250
-0.051413 0.237763 -0.009962
-0.046744 0.207243 -0.011042
-0.048374 0.204840 -0.013570
-0.048407 0.214107 -0.011794
-0.049189 0.224162 -0.011857
-0.044701 0.215370 -0.012721
-0.039650 0.220345 -0.009373
-0.034698 0.213977 -0.005623
-0.035382 0.198495 -0.000087
-0.036758 0.222623 -0.001153
-0.037399 0.190134 -0.004093
-0.034615 0.192426 -0.001288
-0.039229 0.225187 -0.008300
-0.040719 0.199955 -0.009390
-0.037160 0.192650 -0.005741
-0.037546 0.212694 -0.008420
-0.035483 0.199177 -0.003927
-0.040817 0.207830 -0.009215
-0.037079 0.208851 -0.005776
-0.037599 0.203291 -0.006749
-0.036739 0.214341 0.001354
-0.036662 0.190971 -0.000206
-0.038272 0.211155 -0.006535
-0.037952 0.198358 -0.006744
-0.036447 0.235657 -0.002907
-0.037226 0.188138 -0.006090
-0.036239 0.219088 -0.005967
-0.036323 0.202608 0.001717
-0.037722 0.183204 -0.004177
-0.036293 0.208872 -0.000816
-0.036310 0.186649 -0.002272
-0.036982 0.216898 -0.001321
-0.036577 0.231295 -0.006115
-0.040001 0.193464 -0.009190
-0.036670 0.197034 -0.003668
-0.035821 0.203771 -0.002108
-0.036684 0.222843 -0.004930
-0.038766 0.205128 -0.008292
-0.048244 0.268159 0.008453
-0.051721 0.258351 0.005979
-0.051361 0.248881 0.005614
-0.047556 0.264345 0.007381
-0.039842 0.236190 0.008658
-0.052128 0.239823 0.006225
-0.041168 0.270394 0.008155
-0.040936 0.244038 0.008651
-0.046111 0.233362 0.008857
-0.040136 0.258890 0.007191
-0.047706 0.238230 0.008672
-0.044929 0.245103 0.008907
-0.043491 0.256329 0.007042
-0.049141 0.248713 0.007192
-0.039294 0.254909 0.006278
-0.050980 0.234365 0.006669
-0.038872 0.261976 0.005688
-0.049795 0.243920 0.007633
-0.045877 0.276249 0.008879
-0.048230 0.229619 0.008228
-0.050304 0.263764 0.008299
-0.049740 0.253720 0.006470
-0.045519 0.225849 0.008873
-0.040911 0.250815 0.007034
-0.042440 0.230091 0.007269
-0.043114 0.263388 0.008664
-0.051715 0.272363 0.007252
-0.046783 0.242266 0.007952
-0.042493 0.239173 0.006749
-0.044979 0.250009 0.008388
-0.047203 0.258646 0.007841
-0.039036 0.248096 0.005305
-0.038163 0.232529 -0.009412
-0.034711 0.228660 -0.005762
-0.034909 0.218197 -0.001106
-0.035253 0.234172 -0.003037
-0.036727 0.212673 -0.005119
-0.034442 0.214585 -0.002620
-0.037544 0.235736 -0.008489
-0.038844 0.220110 -0.010317
-0.036581 0.214918 -0.007012
-0.037315 0.228980 -0.008501
-0.035775 0.219180 -0.005046
-0.038564 0.225768 -0.009871
-0.035573 0.225776 -0.005349
-0.036390 0.221422 -0.006866
-0.035619 0.229768 -0.000091
-0.034915 0.212413 -0.001349
-0.037458 0.226424 -0.006983
-0.036509 0.219000 -0.007556
-0.036146 0.242001 -0.003503
-0.036418 0.210785 -0.006869
-0.035838 0.232308 -0.006678
-0.035671 0.221881 -0.000355
-0.035776 0.206693 -0.004812
-0.035087 0.225524 -0.002312
-0.035604 0.209341 -0.004365
-0.035543 0.230563 -0.003223
-0.036247 0.239527 -0.006548
-0.038167 0.214885 -0.009193
-0.036016 0.217904 -0.005016
-0.035495 0.221828 -0.003884
-0.035917 0.234127 -0.005492
-0.038222 0.224483 -0.009205
-0.037883 0.266780 0.006366
-0.045865 0.260156 0.008501
-0.047489 0.250777 0.006740
-0.041900 0.265814 0.006192
-0.038975 0.238403 0.003114
-0.047539 0.243564 0.008943
-0.038120 0.270770 0.004106
-0.038262 0.246850 0.002644
-0.040989 0.239813 0.007032
-0.037806 0.257532 0.001840
-0.042934 0.243314 0.008039
-0.038857 0.249286 0.005436
-0.040370 0.257335 0.005710
-0.041237 0.249592 0.006555
-0.040191 0.257338 0.004431
-0.046104 0.237656 0.006719
-0.038127 0.261953 0.001484
-0.042191 0.246702 0.009959
-0.040042 0.275832 0.006607
-0.040206 0.235629 0.007013
-0.042837 0.262518 0.008049
-0.044420 0.253962 0.005971
-0.040683 0.229193 0.006491
-0.039543 0.253773 0.005128
-0.040592 0.234079 0.004650
-0.039085 0.263909 0.005693
-0.043252 0.270289 0.008206
-0.038263 0.243324 0.005586
-0.040164 0.242431 0.004612
-0.041606 0.252423 0.007281
-0.041433 0.260447 0.007369
-0.038479 0.252489 0.001513
-0.039385 0.217368 -0.009280
-0.034508 0.211448 -0.005823
-0.035234 0.196359 0.000050
-0.036575 0.219722 -0.001202
-0.037261 0.187981 -0.004135
-0.034575 0.190280 -0.001402
-0.039067 0.221981 -0.008306
-0.040384 0.197841 -0.009381
-0.037081 0.190670 -0.005796
-0.037459 0.210034 -0.008444
-0.035404 0.197046 -0.003980
-0.040600 0.205473 -0.009390
-0.036904 0.206421 -0.005647
-0.037392 0.201225 -0.006823
-0.036747 0.211694 0.001374
-0.036554 0.188951 -0.000010
-0.038150 0.208678 -0.006596
-0.037776 0.196354 -0.006799
-0.036330 0.231950 -0.002967
-0.037198 0.186056 -0.006346
-0.036118 0.216399 -0.006004
-0.036308 0.200537 0.001849
-0.037558 0.180897 -0.004289
-0.036159 0.206293 -0.000805
-0.036269 0.184406 -0.002275
-0.036805 0.214252 -0.001191
-0.036335 0.227918 -0.006145
-0.039802 0.191339 -0.009349
-0.036630 0.194911 -0.003689
-0.035733 0.201575 -0.002024
-0.036499 0.219944 -0.004785
-0.038614 0.202936 -0.008379
-0.047683 0.240625 -0.011501
-0.050746 0.233148 -0.008523
-0.050277 0.223369 -0.009112
-0.049903 0.237345 -0.013491
-0.042633 0.215149 -0.012210
-0.051276 0.217531 -0.007983
-0.043688 0.242174 -0.012431
-0.043274 0.220497 -0.011116
-0.047157 0.213393 -0.012716
-0.043821 0.232800 -0.012625
-0.048307 0.217302 -0.011735
-0.044596 0.222470 -0.011945
-0.046064 0.231292 -0.013833
-0.048918 0.225647 -0.011958
-0.042694 0.229289 -0.013640
-0.050837 0.212879 -0.011066
-0.042065 0.235387 -0.013106
-0.048487 0.221273 -0.010784
-0.047355 0.247359 -0.012642
-0.047567 0.211462 -0.011211
-0.049045 0.236281 -0.010885
-0.050371 0.228460 -0.012407
-0.047468 0.206823 -0.011917
-0.044426 0.227339 -0.013144
-0.045223 0.210870 -0.014221
-0.044513 0.237592 -0.012612
-0.050502 0.244573 -0.011050
-0.046085 0.220071 -0.011259
-0.045908 0.217082 -0.014699
-0.047020 0.225507 -0.012510
-0.048179 0.232052 -0.012782
-0.042500 0.225038 -0.012666
-0.038299 0.243788 -0.009459
-0.034860 0.239823 -0.005797
-0.034981 0.229115 -0.001393
-0.035343 0.245503 -0.003200
-0.036807 0.223409 -0.005200
-0.034606 0.225387 -0.002745
-0.037656 0.247124 -0.008496
-0.038971 0.230959 -0.010331
-0.036650 0.225727 -0.007081
-0.037360 0.240005 -0.008556
-0.035819 0.229998 -0.005137
-0.038691 0.236755 -0.009883
-0.035676 0.236808 -0.005552
-0.036481 0.232357 -0.006927
-0.035669 0.240851 -0.000327
-0.034999 0.223297 -0.001550
-0.037521 0.237465 -0.006945
-0.036692 0.229869 -0.007584
-0.036156 0.253761 -0.003630
-0.036543 0.221505 -0.006951
-0.035910 0.243486 -0.006761
-0.035671 0.232761 -0.000628
-0.035944 0.217314 -0.004957
-0.035190 0.236614 -0.002515
-0.035639 0.220022 -0.004438
-0.035603 0.241773 -0.003377
-0.036351 0.251064 -0.006647
-0.038334 0.225709 -0.009282
-0.036097 0.228724 -0.005063
-0.035537 0.232828 -0.004031
-0.035979 0.245438 -0.005620
-0.038248 0.235384 -0.009143
-0.047459 0.274982 0.008829
-0.051734 0.265788 0.006488
-0.051356 0.256608 0.005945
-0.047008 0.271162 0.007444
-0.039516 0.244412 0.008561
-0.052333 0.248062 0.006659
-0.040574 0.276924 0.008309
-0.040473 0.251895 0.008534
-0.045775 0.241378 0.009005
-0.039491 0.266077 0.007136
-0.047452 0.246233 0.008890
-0.044210 0.252864 0.008929
-0.042870 0.263799 0.007196
-0.048748 0.256182 0.007442
-0.039101 0.262396 0.006229
-0.050977 0.242393 0.006838
-0.038563 0.269102 0.005564
-0.049439 0.251681 0.008029
-0.045155 0.282292 0.009216
-0.047818 0.237914 0.008443
-0.049914 0.270863 0.008748
-0.049676 0.261180 0.006509
-0.045156 0.233909 0.008962
-0.040480 0.258444 0.007052
-0.042141 0.238165 0.007192
-0.042709 0.270463 0.008827
-0.051315 0.278794 0.007825
-0.046196 0.250061 0.008281
-0.042159 0.247247 0.006653
-0.044620 0.257881 0.008502
-0.046770 0.265579 0.008009
-0.038876 0.256086 0.005107
-0.043794 0.204492 -0.010497
-0.044289 0.195786 -0.011176
-0.041743 0.186566 -0.011118
-0.039842 0.204424 -0.009502
-0.037867 0.172144 -0.006516
-0.043875 0.175395 -0.010139
-0.040850 0.207389 -0.007911
-0.042394 0.182081 -0.008457
-0.040227 0.172958 -0.009107
-0.039868 0.194895 -0.008586
-0.040244 0.178866 -0.009293
-0.043835 0.185619 -0.009003
-0.040492 0.192423 -0.011195
-0.042609 0.188136 -0.010794
-0.038078 0.193958 -0.005528
-0.041642 0.174705 -0.010902
-0.039331 0.197283 -0.006152
-0.044692 0.182719 -0.009934
-0.040113 0.215928 -0.009361
-0.041849 0.169600 -0.009370
-0.042681 0.200572 -0.009929
-0.039387 0.187715 -0.009707
-0.041467 0.164669 -0.009097
-0.038402 0.189319 -0.007611
-0.038292 0.168690 -0.008038
-0.039952 0.200639 -0.007682
-0.044082 0.211597 -0.010350
-0.045398 0.180332 -0.010997
-0.038488 0.179018 -0.007548
-0.039341 0.185859 -0.009293
-0.040541 0.201402 -0.010342
-0.039315 0.184843 -0.006069
-0.047982 0.254943 -0.011125
-0.051268 0.247236 -0.007807
-0.050816 0.236862 -0.008390
-0.050557 0.251927 -0.012807
-0.043339 0.228217 -0.012166
-0.051902 0.230717 -0.007317
-0.044237 0.256687 -0.012188
-0.043642 0.233903 -0.011115
-0.047769 0.226485 -0.012451
-0.044291 0.246787 -0.012516
-0.048785 0.230737 -0.011297
-0.045000 0.236107 -0.011875
-0.046651 0.245209 -0.013641
-0.049380 0.239463 -0.011735
-0.043599 0.243404 -0.013542
-0.051399 0.225636 -0.010347
-0.042749 0.249502 -0.013073
-0.048800 0.234782 -0.010425
-0.047907 0.262163 -0.012210
-0.047946 0.224323 -0.011016
-0.049546 0.250206 -0.010515
-0.050829 0.242311 -0.011532
-0.048065 0.219032 -0.011629
-0.045149 0.241263 -0.012999
-0.046026 0.223448 -0.014131
-0.045145 0.251784 -0.012472
-0.050890 0.259131 -0.010461
-0.046389 0.233301 -0.011055
-0.046830 0.230463 -0.014347
-0.047691 0.239269 -0.012226
-0.048688 0.246518 -0.012418
-0.043245 0.239211 -0.012709
-0.038143 0.251492 -0.009271
-0.034837 0.247583 -0.005829
-0.034928 0.237256 -0.001470
-0.035216 0.253187 -0.003215
-0.036668 0.231657 -0.005225
-0.034611 0.233525 -0.002817
-0.037494 0.254642 -0.008309
-0.038693 0.239065 -0.010286
-0.036489 0.234041 -0.006962
-0.037266 0.247815 -0.008486
-0.035716 0.238131 -0.005063
-0.038475 0.244645 -0.009851
-0.035528 0.244793 -0.005438
-0.036301 0.240519 -0.006887
-0.035603 0.248636 -0.000409
-0.034882 0.231342 -0.001371
-0.037363 0.245324 -0.006897
-0.036449 0.238030 -0.007520
-0.036093 0.260950 -0.003620
-0.036494 0.229626 -0.006999
-0.035829 0.251175 -0.006720
-0.035621 0.240926 -0.000628
-0.035807 0.225308 -0.004907
-0.035136 0.244454 -0.002548
-0.035574 0.227995 -0.004418
-0.035493 0.249471 -0.003375
-0.036206 0.258243 -0.006495
-0.038069 0.233803 -0.009238
-0.035945 0.236829 -0.004992
-0.035438 0.240937 -0.003984
-0.035859 0.253067 -0.005506
-0.038089 0.243485 -0.009152
-0.050823 0.361827 0.004620
-0.050424 0.347617 -0.000106
-0.050652 0.336885 0.001877
-0.048921 0.359134 0.004662
-0.041324 0.319734 0.005174
-0.050652 0.324770 0.000761
-0.044394 0.365840 0.004828
-0.043653 0.330512 0.006319
-0.046783 0.320854 0.004560
-0.045356 0.348733 0.006123
-0.048823 0.325349 0.004332
-0.049633 0.335053 0.004142
-0.047452 0.345615 0.004979
-0.049821 0.339839 0.004877
-0.040232 0.345717 0.004804
-0.049414 0.317496 0.002678
-0.040545 0.354107 0.004795
-0.049699 0.332115 0.002938
-0.049271 0.373442 0.005053
-0.050374 0.313968 0.004158
-0.050836 0.355512 0.002575
-0.048928 0.344101 0.003086
-0.047636 0.306729 0.005391
-0.043244 0.341061 0.004690
-0.043715 0.312217 0.003983
-0.043116 0.355058 0.005716
-0.050498 0.367383 0.001857
-0.049470 0.328595 0.003815
-0.043272 0.325840 0.003955
-0.045878 0.337571 0.005772
-0.048361 0.352570 0.005246
-0.041729 0.336219 0.004213
-0.038588 0.285703 0.008056
-0.046825 0.280853 0.009190
-0.047075 0.273310 0.008306
-0.040833 0.284376 0.007579
-0.037894 0.264403 0.005106
-0.048008 0.266856 0.009337
-0.036892 0.288136 0.006468
-0.037328 0.269729 0.005068
-0.040196 0.263248 0.007974
-0.036653 0.278994 0.003779
-0.042174 0.266826 0.008820
-0.037473 0.271278 0.007261
-0.038121 0.278709 0.006922
-0.040668 0.271598 0.007880
-0.038666 0.278687 0.005722
-0.045477 0.261684 0.007665
-0.037628 0.282287 0.002867
-0.042589 0.270131 0.009453
-0.039147 0.292287 0.008492
-0.039343 0.260433 0.008247
-0.043249 0.282602 0.009316
-0.043868 0.275522 0.007413
-0.039406 0.255616 0.008299
-0.037686 0.275003 0.006246
-0.039028 0.259764 0.005936
-0.037971 0.283855 0.007512
-0.044683 0.289474 0.009046
-0.038276 0.267908 0.007469
-0.038882 0.266680 0.005701
-0.039997 0.273864 0.008305
-0.041112 0.279980 0.008133
-0.038218 0.274915 0.002644
