-0.033437 -0.478288 0.027451
-0.042338 -0.488432 0.010343
-0.037847 -0.493901 0.006332
-0.029555 -0.498768 0.007362
-0.037847 -0.483665 0.006332
-0.035255 -0.496593 -0.001929
-0.034266 -0.488247 0.002850
-0.002776 -0.493559 0.023709
-0.024147 -0.487231 0.010595
-0.037847 -0.473429 0.006332
-0.045660 -0.497082 -0.013238
-0.043449 -0.469641 0.000142
-0.043767 -0.476627 -0.003508
-0.022793 -0.495593 0.002163
-0.037847 -0.463192 0.006332
-0.032211 -0.454981 0.013418
-0.036734 -0.485738 -0.007149
-0.035255 -0.476220 -0.001929
-0.045660 -0.481787 -0.013238
-0.043858 -0.473856 -0.009410
-0.037847 -0.447838 0.006332
-0.035255 -0.466033 -0.001929
-0.052418 -0.439962 -0.005627
-0.040156 -0.470618 -0.010942
-0.037847 -0.437602 0.006332
-0.035255 -0.455847 -0.001929
-0.007445 -0.489638 0.001361
-0.029700 -0.488580 -0.017305
-0.040156 -0.460442 -0.010942
-0.020218 -0.489463 -0.010875
-0.045660 -0.451198 -0.013238
-0.037847 -0.422247 0.006332
-0.025986 -0.481306 -0.014591
-0.019579 -0.481663 -0.009732
-0.036734 -0.445048 -0.007149
-0.013707 -0.471332 -0.003821
-0.045660 -0.441001 -0.013238
-0.037847 -0.412011 0.006332
-0.040372 -0.406989 0.003693
-0.036734 -0.434876 -0.007149
-0.013566 -0.476260 -0.010981
-0.004807 -0.486696 -0.011092
-0.045660 -0.425706 -0.013238
-0.037847 -0.396656 0.006332
-0.039382 -0.356751 0.024328
-0.025618 -0.429124 -0.001333
-0.044081 -0.394558 -0.000016
-0.024263 -0.416351 0.004791
-0.036734 -0.419617 -0.007149
-0.037847 -0.386420 0.006332
-0.045660 -0.410412 -0.013238
-0.020006 -0.461943 -0.019306
-0.037452 -0.413198 -0.009510
-0.036734 -0.409444 -0.007149
-0.030572 -0.422406 -0.009606
-0.035255 -0.399821 -0.001929
-0.019909 -0.411121 0.003639
-0.029113 -0.413308 -0.005744
-0.031419 -0.388726 0.002507
-0.037847 -0.371066 0.006332
-0.028121 -0.404559 -0.003935
-0.045660 -0.395117 -0.013238
-0.010761 -0.425580 -0.002717
-0.042108 -0.370881 -0.000413
-0.021023 -0.401674 0.000498
-0.014621 -0.400727 0.005403
-0.017594 -0.419804 -0.007290
-0.040834 -0.370105 -0.002615
-0.036734 -0.384013 -0.007149
-0.035255 -0.374355 -0.001929
-0.050902 -0.370977 -0.012994
-0.038690 -0.392992 -0.014378
-0.045660 -0.379822 -0.013238
-0.037847 -0.350593 0.006332
-0.025711 -0.358817 0.010075
-0.030815 -0.351317 0.009124
-0.041321 -0.345650 0.002922
-0.035255 -0.359075 -0.001929
-0.040156 -0.368863 -0.010942
-0.037847 -0.335239 0.006332
-0.045660 -0.359429 -0.013238
-0.025822 -0.359388 0.001436
-0.040295 -0.303508 0.016153
-0.031070 -0.332645 0.008759
-0.037847 -0.325002 0.006332
-0.039521 -0.309317 0.012142
-0.042204 -0.327839 0.000536
-0.036734 -0.348409 -0.007149
-0.018223 -0.374221 -0.005667
-0.045660 -0.344134 -0.013238
-0.028693 -0.346090 -0.001606
-0.037847 -0.314766 0.006332
-0.028056 -0.346837 -0.001944
-0.025730 -0.371856 -0.013004
-0.033474 -0.311099 0.009298
-0.022385 -0.361086 -0.006703
-0.032381 -0.339400 -0.006864
-0.036734 -0.333150 -0.007149
-0.025551 -0.305600 0.013767
-0.045660 -0.328839 -0.013238
-0.026391 -0.326878 0.001937
-0.037847 -0.299412 0.006332
-0.033838 -0.355897 -0.019063
-0.031154 -0.318309 0.000274
-0.036734 -0.322978 -0.007149
-0.054165 -0.270885 0.004394
-0.045660 -0.318642 -0.013238
-0.020477 -0.374891 -0.023271
-0.033602 -0.297168 0.000371
-0.037847 -0.278939 0.006332
-0.036734 -0.307719 -0.007149
-0.026712 -0.298386 0.002386
-0.020717 -0.328124 -0.007985
-0.045660 -0.298249 -0.013238
-0.037847 -0.268703 0.006332
-0.036734 -0.297547 -0.007149
-0.035255 -0.287769 -0.001929
-0.031174 -0.280899 0.003711
-0.021956 -0.321746 -0.009170
-0.027831 -0.271538 0.006768
-0.035123 -0.268415 0.001857
-0.026666 -0.274137 0.005227
-0.023351 -0.297316 -0.003766
-0.019669 -0.296327 -0.000657
-0.026993 -0.311598 -0.014344
-0.031540 -0.273522 0.000258
-0.040156 -0.282371 -0.010942
-0.021503 -0.299550 -0.007347
-0.045660 -0.272758 -0.013238
-0.039363 -0.260655 -0.003334
-0.037847 -0.243112 0.006332
-0.036734 -0.272115 -0.007149
-0.022832 -0.299215 -0.012217
-0.021671 -0.277297 -0.001216
-0.035255 -0.257210 -0.001929
-0.045660 -0.262561 -0.013238
-0.035486 -0.223537 0.010396
-0.021999 -0.264082 0.000708
-0.033132 -0.261748 -0.006443
-0.037847 -0.227758 0.006332
-0.018385 -0.252411 0.007397
-0.045660 -0.247267 -0.013238
-0.041624 -0.225555 -0.000215
-0.036734 -0.246684 -0.007149
-0.035255 -0.236837 -0.001929
-0.037847 -0.212403 0.006332
-0.045660 -0.237070 -0.013238
-0.026698 -0.205992 0.014463
-0.033122 -0.201236 0.010096
-0.021206 -0.241264 -0.000006
-0.037847 -0.202167 0.006332
-0.016055 -0.303455 -0.026632
-0.022585 -0.238202 -0.000308
-0.025400 -0.250233 -0.008132
-0.034905 -0.205054 0.005202
-0.026913 -0.288591 -0.029144
-0.041604 -0.202770 -0.001154
-0.036734 -0.221253 -0.007149
-0.025829 -0.229743 -0.004445
-0.033328 -0.211583 -0.002159
-0.013597 -0.233976 0.002447
-0.030568 -0.236329 -0.012126
-0.037847 -0.186812 0.006332
-0.043434 -0.190466 -0.001626
-0.045660 -0.211579 -0.013238
-0.036734 -0.211080 -0.007149
-0.013094 -0.231839 0.000625
-0.037847 -0.176576 0.006332
-0.026349 -0.215535 -0.003635
-0.035255 -0.196091 -0.001929
-0.026905 -0.184185 0.008554
-0.046359 -0.155357 0.005478
-0.040156 -0.200967 -0.010942
-0.010555 -0.187724 0.016158
-0.029564 -0.189000 0.000924
-0.031630 -0.179968 0.003647
-0.045660 -0.191186 -0.013238
-0.037847 -0.161222 0.006332
-0.039286 -0.156845 0.004954
-0.035747 -0.157005 0.005849
-0.037847 -0.150985 0.006332
-0.024421 -0.199946 -0.007449
-0.036734 -0.180562 -0.007149
-0.008640 -0.224809 -0.007716
-0.045660 -0.175891 -0.013238
-0.035255 -0.165531 -0.001929
-0.045660 -0.165694 -0.013238
-0.049950 -0.131756 -0.000946
-0.044079 -0.142212 -0.001017
-0.035255 -0.155344 -0.001929
-0.038710 -0.172244 -0.013789
-0.037847 -0.130513 0.006332
-0.033258 -0.154009 -0.003397
-0.023400 -0.164379 -0.001329
-0.030424 -0.142913 0.002108
-0.035255 -0.140065 -0.001929
-0.029584 -0.111080 0.015599
-0.027136 -0.155623 -0.003845
-0.040156 -0.150089 -0.010942
-0.037847 -0.115158 0.006332
-0.045660 -0.140203 -0.013238
-0.008858 -0.166578 0.001535
-0.022186 -0.169766 -0.010470
-0.021837 -0.124844 0.010062
-0.037847 -0.104922 0.006332
-0.045660 -0.130006 -0.013238
-0.036734 -0.129700 -0.007149
-0.037847 -0.094686 0.006332
-0.059316 -0.073693 -0.002143
-0.045660 -0.119810 -0.013238
-0.036734 -0.119527 -0.007149
-0.028098 -0.101414 0.007437
-0.033642 -0.122997 -0.008832
-0.037847 -0.079331 0.006332
-0.045660 -0.109613 -0.013238
-0.036734 -0.109355 -0.007149
-0.030037 -0.103717 -0.002239
-0.014973 -0.098670 0.010611
-0.045660 -0.099416 -0.013238
-0.036547 -0.096856 -0.005370
-0.036734 -0.099182 -0.007149
-0.035255 -0.089132 -0.001929
-0.014551 -0.147886 -0.014538
-0.026638 -0.098631 -0.002462
-0.045660 -0.089220 -0.013238
-0.037847 -0.058859 0.006332
-0.016651 -0.092944 0.006182
-0.020058 -0.123984 -0.013581
-0.043213 -0.068428 -0.005975
-0.010911 -0.138540 -0.015345
-0.037847 -0.048622 0.006332
-0.036734 -0.078837 -0.007149
-0.045660 -0.073925 -0.013238
-0.023885 -0.101370 -0.010765
-0.024968 -0.052304 0.010931
-0.035255 -0.063666 -0.001929
-0.045660 -0.063729 -0.013238
-0.023578 -0.054138 0.007630
-0.035255 -0.053479 -0.001929
-0.029072 -0.057396 0.000652
-0.031605 -0.041055 0.005786
-0.037847 -0.023032 0.006332
-0.040156 -0.053422 -0.010942
-0.020778 -0.058934 0.000412
-0.035255 -0.038199 -0.001929
-0.017423 -0.042934 0.006688
-0.045660 -0.038237 -0.013238
-0.037847 -0.007677 0.006332
-0.035255 -0.028013 -0.001929
-0.028832 -0.027801 -0.000171
-0.024677 -0.014161 0.008443
-0.022162 -0.021369 0.007420
-0.037847 0.002559 0.006332
-0.036927 -0.007887 0.001626
-0.023350 -0.070331 -0.019532
-0.025705 -0.030321 -0.002836
-0.035864 -0.001327 0.002833
-0.035255 -0.012733 -0.001929
-0.033459 -0.034065 -0.011086
-0.040156 -0.022895 -0.010942
-0.046382 0.039099 0.011823
-0.029136 0.003582 0.008363
-0.037847 0.012795 0.006332
-0.045660 -0.012746 -0.013238
-0.027906 -0.014004 -0.001579
-0.030946 -0.019978 -0.006552
-0.035696 -0.000996 -0.002043
-0.029852 0.046427 0.024276
-0.032536 0.022515 0.008403
-0.045660 -0.002549 -0.013238
-0.036734 -0.002543 -0.007149
-0.037847 0.028150 0.006332
-0.035255 0.007640 -0.001929
-0.021597 -0.067135 -0.027135
-0.028455 -0.003369 -0.003551
-0.040156 0.007632 -0.010942
-0.025016 0.013221 0.001053
-0.035255 0.022920 -0.001929
-0.003903 -0.060121 -0.018059
-0.037847 0.048622 0.006332
-0.045660 0.022942 -0.013238
-0.015478 -0.012466 -0.007782
-0.037358 0.046682 0.001091
-0.037847 0.058859 0.006332
-0.015127 0.003071 -0.002753
-0.035255 0.038199 -0.001929
-0.040156 0.033070 -0.010942
-0.037847 0.069095 0.006332
-0.045660 0.043335 -0.013238
-0.037847 0.084449 0.006332
-0.036734 0.053406 -0.007149
-0.045660 0.053532 -0.013238
-0.006473 -0.022007 -0.023080
-0.025652 0.070319 0.004024
-0.036734 0.063578 -0.007149
-0.037847 0.094686 0.006332
-0.033025 0.066097 -0.004602
-0.045660 0.068827 -0.013238
-0.029513 0.096226 0.010750
-0.021358 0.034332 -0.011328
-0.036734 0.073751 -0.007149
-0.022673 0.101705 0.015055
-0.037847 0.110040 0.006332
-0.035255 0.089132 -0.001929
-0.016962 0.033897 -0.016405
-0.036898 0.087246 -0.007160
-0.040156 0.083948 -0.010942
-0.012689 0.045488 -0.008545
-0.029798 0.074515 -0.008291
-0.037847 0.120277 0.006332
-0.035255 0.099319 -0.001929
-0.018342 0.091135 0.006101
-0.018472 0.087531 0.002119
-0.045660 0.099416 -0.013238
-0.035160 0.112467 -0.001584
-0.025744 0.079773 -0.010019
-0.037847 0.135631 0.006332
-0.035255 0.114598 -0.001929
-0.037847 0.145867 0.006332
-0.035255 0.124785 -0.001929
-0.040156 0.114475 -0.010942
-0.015410 0.087087 -0.007093
-0.045660 0.124908 -0.013238
-0.036609 0.134473 -0.003844
-0.037847 0.161222 0.006332
-0.045660 0.140203 -0.013238
-0.037847 0.171458 0.006332
-0.036734 0.139872 -0.007149
-0.010062 0.108626 -0.003736
-0.035255 0.155344 -0.001929
-0.045660 0.150399 -0.013238
-0.047457 0.225645 0.017778
-0.037847 0.186812 0.006332
-0.026050 0.143616 -0.006197
-0.044029 0.196509 0.003912
-0.021585 0.147458 -0.001724
-0.040156 0.160264 -0.010942
-0.037847 0.202167 0.006332
-0.036734 0.170390 -0.007149
-0.118750 0.359586 0.015030
-0.045660 0.175891 -0.013238
-0.035846 0.151621 -0.019392
-0.033542 0.176018 -0.008279
-0.045660 0.186087 -0.013238
-0.036734 0.185649 -0.007149
-0.035255 0.196091 -0.001929
-0.023188 0.186258 0.002172
-0.015958 0.146310 -0.010500
-0.065584 0.255701 -0.000229
-0.037847 0.222639 0.006332
-0.021212 0.169268 -0.008107
-0.040156 0.195879 -0.010942
-0.035255 0.211370 -0.001929
-0.037847 0.237994 0.006332
-0.045660 0.206480 -0.013238
-0.045660 0.216677 -0.013238
-0.022342 0.194129 -0.008706
-0.037847 0.253348 0.006332
-0.036734 0.221253 -0.007149
-0.029279 0.255266 0.011582
-0.021220 0.195561 -0.008649
-0.045660 0.226873 -0.013238
-0.036734 0.231425 -0.007149
-0.037847 0.263585 0.006332
-0.019840 0.182918 -0.018248
-0.045660 0.242168 -0.013238
-0.036734 0.241598 -0.007149
-0.048095 0.341074 0.027917
-0.037847 0.278939 0.006332
-0.021855 0.262929 0.009688
-0.036734 0.251770 -0.007149
-0.036394 0.294242 0.010266
-0.045660 0.257463 -0.013238
-0.035255 0.267396 -0.001929
-0.038006 0.283742 0.002046
-0.037847 0.294293 0.006332
-0.045660 0.267660 -0.013238
-0.014064 0.233741 -0.007276
-0.037847 0.304530 0.006332
-0.045660 0.277856 -0.013238
-0.018580 0.255347 -0.003721
-0.036734 0.282288 -0.007149
-0.037847 0.314766 0.006332
-0.004381 0.246362 0.000715
-0.045660 0.293151 -0.013238
-0.031146 0.264802 -0.017383
-0.044080 0.298524 -0.012231
-0.037847 0.330121 0.006332
-0.036734 0.297547 -0.007149
-0.045660 0.303348 -0.013238
-0.037847 0.340357 0.006332
-0.036734 0.307719 -0.007149
-0.036141 0.338196 0.005841
-0.035255 0.323422 -0.001929
-0.045660 0.318642 -0.013238
-0.037847 0.355711 0.006332
-0.040156 0.328161 -0.010942
-0.037847 0.365948 0.006332
-0.053231 0.372069 -0.002746
0.006562 0.287729 0.002995
-0.045660 0.339036 -0.013238
-0.036734 0.338237 -0.007149
-0.038804 0.341891 -0.007593
-0.012010 0.330628 0.006328
-0.012865 0.337721 0.008963
-0.037847 0.376184 0.006332
-0.008179 0.407324 0.041612
-0.019115 0.327819 -0.003350
-0.035455 0.390478 0.011677
-0.045660 0.354330 -0.013238
-0.016940 0.322934 -0.005745
-0.036734 0.353496 -0.007149
-0.033577 0.352171 -0.008180
-0.037847 0.391538 0.006332
-0.031964 0.378513 0.003367
-0.045660 0.364527 -0.013238
-0.036734 0.363668 -0.007149
-0.037847 0.406893 0.006332
-0.045660 0.374724 -0.013238
-0.002577 0.337288 -0.000343
-0.012457 0.297304 -0.025556
-0.036734 0.378927 -0.007149
-0.045660 0.384920 -0.013238
-0.002619 0.386716 0.018681
-0.037847 0.417129 0.006332
-0.066428 0.458152 0.002014
-0.033005 0.411954 0.006090
0.024188 0.309914 0.003829
-0.020144 0.405273 0.011854
-0.036734 0.394186 -0.007149
-0.037847 0.427365 0.006332
-0.013917 0.389714 0.006422
-0.037280 0.443622 0.012365
-0.043235 0.423903 -0.001215
-0.045660 0.400215 -0.013238
-0.054037 0.450996 0.000913
-0.007488 0.366580 -0.001115
-0.011851 0.399555 0.010542
-0.036734 0.404358 -0.007149
-0.037847 0.437602 0.006332
0.042157 0.304274 0.005650
-0.035255 0.420194 -0.001929
-0.037847 0.447838 0.006332
-0.040156 0.414653 -0.010942
-0.023243 0.383480 -0.015830
-0.007038 0.438591 0.020729
-0.045660 0.425706 -0.013238
-0.035255 0.435474 -0.001929
-0.039194 0.454371 0.002118
-0.022783 0.435533 0.004081
0.017108 0.361452 0.000037
-0.021893 0.458144 0.013706
-0.040156 0.435004 -0.010942
-0.045660 0.446099 -0.013238
0.020803 0.353751 -0.006023
-0.036734 0.450135 -0.007149
-0.041707 0.467378 -0.003511
-0.045660 0.461394 -0.013238
-0.026300 0.451548 -0.003317
-0.036734 0.460307 -0.007149
0.000484 0.475040 0.026282
0.042592 0.398495 0.023823
-0.045513 0.477885 -0.007052
-0.024709 0.471751 0.005472
-0.005832 0.468672 0.015792
-0.036269 0.481732 -0.001181
0.000872 0.422126 -0.000202
-0.013914 0.478831 0.013779
0.033869 0.348226 -0.008996
-0.020058 0.478835 0.005733
0.004733 0.456839 0.009244
-0.002031 0.470929 0.008695
-0.010629 0.434184 -0.013204
-0.015321 0.454188 -0.009312
0.004124 0.478832 0.012599
-0.026344 0.463268 -0.017588
0.004415 0.444576 -0.003779
-0.001961 0.478838 0.004642
-0.008037 0.478841 -0.003323
0.018565 0.469402 0.006619
-0.018581 0.484463 -0.014216
0.010686 0.466057 -0.000738
0.024038 0.484915 0.016721
0.003479 0.467705 -0.006432
0.049041 0.459326 0.023657
0.011409 0.450152 -0.008770
0.021788 0.478833 0.011444
0.071180 0.412449 0.018137
0.021871 0.466548 0.002269
0.015767 0.478839 0.003568
-0.003120 0.458057 -0.021279
0.001591 0.440680 -0.025819
0.009751 0.478843 -0.004312
-0.003546 0.491679 -0.011104
-0.010187 0.497187 -0.014202
-0.001870 0.484924 -0.014189
0.039090 0.478834 0.010312
0.075042 0.470278 0.028942
0.009465 0.460450 -0.022599
0.030151 0.478843 -0.001380
0.014533 0.480449 -0.014163
0.006369 0.497528 -0.014176
0.057478 0.479593 0.012933
0.039939 0.440931 -0.016171
0.035729 0.482633 -0.001321
-0.006873 0.480995 -0.034299
0.037506 0.485703 -0.001638
0.059692 0.483376 0.012489
0.053094 0.478836 0.005343
0.022621 0.488053 -0.014150
0.060486 0.468028 0.003952
0.024363 0.490031 -0.014578
