-0.073363 0.156865 -0.053915
-0.046689 0.154393 -0.013695
-0.021762 0.155177 -0.063397
-0.086331 0.155387 -0.065639
-0.032404 0.154112 -0.076138
-0.038817 0.154583 -0.119118
-0.042083 0.154234 -0.066504
-0.026708 0.155053 -0.098531
-0.057456 0.154042 -0.066282
-0.041031 0.155389 -0.087745
-0.036201 0.154948 -0.028875
-0.062846 0.155567 -0.085649
-0.019066 0.154290 -0.028552
-0.072195 0.155299 -0.022564
-0.010901 0.155140 -0.050200
-0.080700 0.156053 -0.089871
-0.033462 0.153964 -0.057372
-0.066114 0.155142 -0.103347
-0.063064 0.154925 -0.040637
-0.063389 0.155860 -0.004855
-0.049323 0.158291 -0.078083
-0.026213 0.155468 -0.041964
-0.041244 0.157033 -0.048612
-0.055005 0.155685 -0.051958
-0.069431 0.154927 -0.072791
-0.059696 0.155983 -0.121411
-0.029946 0.154691 -0.010986
-0.046904 0.155204 -0.034213
-0.057640 0.154151 -0.023613
-0.014855 0.154559 -0.081941
0.126342 0.160527 0.028526
0.120472 0.153627 0.071208
0.123843 0.151815 0.082924
0.125777 0.163300 0.089521
0.124382 0.152051 0.065583
0.118801 0.150718 0.067509
0.125389 0.162448 0.048703
0.125509 0.153825 0.015063
0.125406 0.152619 0.055082
0.125930 0.159209 0.042826
0.126463 0.152469 0.062366
0.125491 0.155117 0.034836
0.126372 0.155219 0.071581
0.126048 0.154753 0.050470
0.125099 0.156836 0.090254
0.124782 0.151683 0.092742
0.125273 0.156712 0.058665
0.120025 0.150746 0.047192
0.125457 0.164730 0.071768
0.124791 0.151080 0.038339
0.126891 0.158399 0.064589
0.125510 0.153381 0.099381
0.120151 0.151905 0.054586
0.126307 0.155796 0.082149
0.122209 0.151461 0.074511
0.125538 0.158196 0.074135
0.127220 0.163895 0.060061
0.124705 0.152084 0.027886
0.124537 0.152072 0.079588
0.126411 0.153538 0.075833
0.126401 0.161036 0.079445
0.125073 0.153776 0.042613
0.077351 0.151980 0.015580
0.058421 0.152118 0.047250
0.062863 0.152762 0.039388
0.075219 0.152003 0.063275
0.087391 0.152836 0.034696
0.057799 0.152984 0.032824
0.082796 0.151752 0.026932
0.077779 0.152102 0.005027
0.078963 0.152399 0.033367
0.085557 0.151979 0.014926
0.073364 0.151896 0.034646
0.076554 0.151922 0.023945
0.081572 0.152352 0.053013
0.066668 0.152399 0.022833
0.090532 0.152207 0.053559
0.063704 0.152723 0.058004
0.094321 0.152550 0.040952
0.060363 0.152998 0.020164
0.079453 0.151882 0.040268
0.071512 0.152464 0.015798
0.066870 0.151950 0.047272
0.068106 0.152700 0.068099
0.072233 0.153262 0.028391
0.085600 0.152530 0.045316
0.074047 0.152898 0.043475
0.069002 0.152445 0.040047
0.064945 0.151646 0.030499
0.067441 0.152590 0.006605
0.084315 0.152003 0.064311
0.075880 0.152278 0.051193
0.070283 0.151196 0.056087
0.091609 0.152439 0.024068
0.047349 0.154167 -0.072272
0.008203 0.154798 -0.012281
0.021625 0.155003 -0.027404
0.048278 0.152881 0.008442
0.073418 0.155277 -0.034920
0.007442 0.154736 -0.038811
0.064030 0.153089 -0.048837
0.059104 0.154494 -0.090672
0.052226 0.154623 -0.039654
0.070722 0.154627 -0.069444
0.036343 0.154130 -0.037814
0.053647 0.154522 -0.058159
0.057076 0.154195 -0.006462
0.034110 0.155193 -0.055114
0.076274 0.154187 -0.004935
0.024052 0.154774 -0.000467
0.082927 0.154840 -0.025228
0.015423 0.155181 -0.061229
0.060673 0.153499 -0.030463
0.029768 0.155694 -0.072833
0.034473 0.154805 -0.017648
0.030996 0.154807 0.016007
0.046060 0.156104 -0.049659
0.068764 0.155048 -0.017894
0.053693 0.155621 -0.023243
0.041377 0.154832 -0.025774
0.027412 0.154039 -0.044494
0.037032 0.156274 -0.090356
0.066120 0.153617 0.010835
0.046768 0.154706 -0.011689
0.038335 0.153818 -0.001586
0.081288 0.154771 -0.053072
0.030180 0.169926 -0.023382
0.004067 0.170213 0.019505
0.012635 0.170049 0.011120
0.030511 0.169498 0.038237
0.045376 0.170292 0.002865
0.004137 0.170508 0.001195
0.040318 0.169190 -0.006257
0.035524 0.170370 -0.032801
0.033662 0.170007 0.001028
0.044303 0.170441 -0.020999
0.022524 0.169410 0.002143
0.033605 0.170232 -0.012618
0.037179 0.169696 0.026924
0.019674 0.170376 -0.012331
0.048228 0.169763 0.027933
0.012285 0.170011 0.031566
0.051895 0.169673 0.011363
0.007027 0.170980 -0.014619
0.039032 0.169136 0.008277
0.018138 0.170155 -0.022454
0.019632 0.169710 0.018131
0.019648 0.170315 0.043729
0.027581 0.171551 -0.005745
0.044481 0.170388 0.018395
0.032247 0.171152 0.013503
0.025051 0.169950 0.010629
0.015237 0.169266 -0.002973
0.021480 0.171018 -0.034505
0.041785 0.169536 0.037885
0.029048 0.169844 0.023415
0.022372 0.169189 0.029907
0.050414 0.169974 -0.009603
-0.077947 0.167288 -0.099854
-0.098177 0.164466 -0.069565
-0.093074 0.164908 -0.077955
-0.079877 0.164071 -0.054761
-0.069841 0.164910 -0.083523
-0.097964 0.165433 -0.084124
-0.072859 0.166297 -0.089672
-0.077421 0.164352 -0.109237
-0.075515 0.164660 -0.084428
-0.069707 0.164401 -0.101057
-0.081606 0.164043 -0.082836
-0.078412 0.163925 -0.093144
-0.074353 0.164377 -0.065141
-0.089960 0.164368 -0.092596
-0.066800 0.164695 -0.064512
-0.092041 0.164859 -0.060652
-0.063304 0.165398 -0.076548
-0.095266 0.165300 -0.096024
-0.076723 0.167903 -0.074566
-0.082742 0.164615 -0.099486
-0.088976 0.163790 -0.070339
-0.087077 0.164770 -0.051470
-0.082546 0.165141 -0.089351
-0.070278 0.164707 -0.072458
-0.080385 0.164904 -0.075334
-0.086432 0.163802 -0.076811
-0.090016 0.167097 -0.084674
-0.087594 0.164790 -0.108289
-0.072516 0.164472 -0.055164
-0.079805 0.164512 -0.065948
-0.085561 0.163075 -0.061903
-0.064845 0.165046 -0.091703
0.041855 0.154292 -0.065714
0.013262 0.155787 -0.005147
0.021610 0.156398 -0.022558
0.043835 0.153791 0.018597
0.066011 0.154932 -0.030312
0.012239 0.155990 -0.032097
0.057089 0.153369 -0.042534
0.052743 0.153949 -0.078194
0.048492 0.154685 -0.033122
0.061878 0.155677 -0.062247
0.035096 0.153648 -0.031912
0.047830 0.155457 -0.051348
0.053832 0.154328 0.002143
0.030462 0.154445 -0.050191
0.068943 0.154045 0.003159
0.018949 0.155880 0.011080
0.075032 0.155449 -0.017581
0.015715 0.156222 -0.053264
0.053577 0.154489 -0.024717
0.027733 0.156638 -0.064136
0.028433 0.153391 -0.005983
0.029118 0.155250 0.026238
0.040129 0.158792 -0.041538
0.061593 0.155333 -0.010940
0.048052 0.157543 -0.015689
0.034761 0.154215 -0.017139
0.023825 0.153867 -0.039022
0.033288 0.156980 -0.079843
0.059072 0.154443 0.021108
0.043448 0.154648 0.000222
0.033976 0.153688 0.008364
0.073157 0.155530 -0.047443
-0.110854 0.163546 -0.136764
-0.131342 0.163158 -0.099041
-0.127465 0.163983 -0.107617
-0.112681 0.162421 -0.081565
-0.096800 0.163646 -0.114906
-0.131866 0.164024 -0.114839
-0.103062 0.162790 -0.123404
-0.109332 0.163420 -0.148860
-0.107630 0.164067 -0.115602
-0.098632 0.163769 -0.136849
-0.115214 0.163247 -0.114130
-0.110857 0.163303 -0.127174
-0.103466 0.163093 -0.093694
-0.123351 0.163727 -0.127209
-0.092765 0.163328 -0.092513
-0.126657 0.163790 -0.086490
-0.087568 0.164213 -0.107334
-0.130073 0.163912 -0.130907
-0.107542 0.163538 -0.107167
-0.118339 0.164450 -0.136716
-0.123445 0.162650 -0.098976
-0.122354 0.163443 -0.077628
-0.117657 0.161743 -0.122375
-0.098242 0.163468 -0.102244
-0.115006 0.162631 -0.102253
-0.120561 0.162745 -0.107098
-0.126830 0.163253 -0.119431
-0.122452 0.163998 -0.148601
-0.101597 0.163563 -0.081944
-0.110462 0.163457 -0.093090
-0.118309 0.161996 -0.088998
-0.090042 0.164250 -0.125861
0.068182 0.151985 -0.008149
0.052488 0.152097 0.025680
0.056227 0.152731 0.017811
0.066505 0.151951 0.041468
0.077334 0.152950 0.012940
0.051995 0.152887 0.011188
0.072982 0.151742 0.004721
0.068619 0.151961 -0.019630
0.069720 0.152383 0.010956
0.075691 0.152006 -0.008113
0.064895 0.151911 0.012372
0.067388 0.151975 0.000617
0.071919 0.152378 0.031310
0.059155 0.152315 0.000629
0.080537 0.152175 0.031848
0.056892 0.152665 0.036554
0.084861 0.152588 0.019028
0.053813 0.152962 -0.002288
0.070183 0.151987 0.018098
0.063346 0.152504 -0.007534
0.059531 0.151939 0.025044
0.060763 0.152634 0.046934
0.064033 0.153529 0.006007
0.075807 0.152565 0.023673
0.065405 0.153053 0.021335
0.061055 0.152446 0.017933
0.057876 0.151644 0.008294
0.059267 0.152600 -0.017332
0.075004 0.151945 0.042868
0.067086 0.152294 0.028838
0.062249 0.151248 0.034242
0.081947 0.152492 0.001495
-0.063114 0.171263 -0.083999
-0.089937 0.171095 -0.042245
-0.081674 0.171757 -0.050734
-0.063804 0.171404 -0.022654
-0.046972 0.171681 -0.059416
-0.089174 0.172012 -0.060167
-0.052782 0.170852 -0.067733
-0.058794 0.171441 -0.094191
-0.059783 0.171681 -0.060328
-0.048897 0.171286 -0.083142
-0.069758 0.170938 -0.059571
-0.059672 0.171152 -0.073759
-0.055915 0.171426 -0.034851
-0.075373 0.171561 -0.073803
-0.044464 0.171092 -0.033544
-0.081723 0.172092 -0.029941
-0.040484 0.170935 -0.049487
-0.085841 0.172044 -0.076487
-0.055232 0.170262 -0.052395
-0.073144 0.171678 -0.084283
-0.075730 0.171355 -0.041927
-0.075136 0.171696 -0.017872
-0.066410 0.172532 -0.067859
-0.049093 0.171579 -0.043682
-0.062215 0.172076 -0.047559
-0.070275 0.171450 -0.050067
-0.079752 0.170610 -0.063798
-0.072595 0.172019 -0.095461
-0.052341 0.171639 -0.023284
-0.064363 0.171659 -0.036827
-0.071918 0.170392 -0.030833
-0.042209 0.171249 -0.071231
0.101916 0.170755 0.045621
0.076870 0.170191 0.090672
0.084692 0.171110 0.081089
0.100918 0.170549 0.109171
0.117027 0.170882 0.072061
0.077188 0.170868 0.071854
0.111772 0.169994 0.063498
0.107410 0.170851 0.035200
0.105529 0.170665 0.070515
0.115370 0.171046 0.047738
0.096303 0.170352 0.071949
0.105746 0.170567 0.056386
0.108633 0.170659 0.097062
0.091325 0.170722 0.057261
0.118198 0.170417 0.099254
0.084029 0.170906 0.104176
0.120137 0.170420 0.081803
0.080417 0.170992 0.054273
0.109766 0.169917 0.078597
0.092031 0.171113 0.045704
0.091019 0.170431 0.090278
0.089648 0.170970 0.116925
0.099900 0.171607 0.062915
0.115094 0.170900 0.088825
0.103956 0.171140 0.085079
0.095870 0.170473 0.082417
0.086117 0.170110 0.067555
0.093415 0.171210 0.033826
0.112309 0.170733 0.109478
0.101292 0.170800 0.094536
0.094297 0.169661 0.101120
0.119627 0.170524 0.058851
-0.022843 0.170256 -0.052276
-0.053700 0.169886 -0.009945
-0.043244 0.170437 -0.018326
-0.023205 0.170024 0.009233
-0.004736 0.170553 -0.027383
-0.052874 0.170572 -0.028758
-0.010826 0.169781 -0.035303
-0.015928 0.170308 -0.062189
-0.018909 0.170428 -0.028260
-0.006393 0.170269 -0.050930
-0.030156 0.169702 -0.027552
-0.017615 0.170024 -0.041847
-0.014765 0.170285 -0.003183
-0.034851 0.170513 -0.041699
-0.002054 0.170161 -0.002000
-0.042951 0.170671 0.001810
0.002321 0.170115 -0.018139
-0.047770 0.170778 -0.045105
-0.013599 0.168733 -0.020520
-0.034244 0.170385 -0.052666
-0.035759 0.170074 -0.010590
-0.036798 0.170385 0.014368
-0.025053 0.170963 -0.035962
-0.007248 0.170381 -0.011988
-0.020247 0.170517 -0.015345
-0.029390 0.170294 -0.018318
-0.040909 0.169468 -0.031752
-0.031784 0.170744 -0.064087
-0.011189 0.170454 0.007684
-0.024226 0.170526 -0.005431
-0.032229 0.169232 0.001049
0.000324 0.170066 -0.039226
0.113595 0.169323 0.030166
0.082453 0.169434 0.067429
0.090450 0.170258 0.058725
0.112560 0.169946 0.082969
0.124734 0.167787 0.051526
0.082217 0.169715 0.051437
0.121207 0.168989 0.045371
0.117856 0.169562 0.020522
0.116052 0.169768 0.051607
0.123689 0.168550 0.030999
0.105565 0.169481 0.051602
0.115825 0.169572 0.040012
0.118045 0.169704 0.072803
0.100934 0.170044 0.040217
0.124564 0.167743 0.072997
0.091908 0.170158 0.076110
0.124715 0.167972 0.059535
0.089384 0.170175 0.037140
0.119637 0.168833 0.057849
0.101741 0.170206 0.031696
0.098596 0.169614 0.066466
0.098786 0.170171 0.085757
0.110481 0.170681 0.045362
0.123803 0.169460 0.065746
0.114912 0.170478 0.062376
0.104978 0.169972 0.059350
0.094590 0.169186 0.048433
0.102458 0.169540 0.021383
0.121913 0.169457 0.081958
0.110329 0.170132 0.070892
0.103658 0.168615 0.075734
0.124795 0.167929 0.040828
0.115874 0.152322 0.010453
0.101054 0.153096 0.051616
0.104239 0.153404 0.043422
0.113071 0.152311 0.069388
0.123131 0.152812 0.035142
0.101591 0.153487 0.035568
0.119785 0.152008 0.026234
0.116480 0.152345 -0.001566
0.117830 0.152647 0.033125
0.122490 0.152416 0.012012
0.112475 0.151987 0.035046
0.114959 0.152175 0.020274
0.118570 0.152268 0.057112
0.107378 0.152640 0.022326
0.124688 0.152440 0.058887
0.104607 0.153003 0.064735
0.126714 0.153008 0.041841
0.103012 0.153464 0.018903
0.117200 0.152240 0.042458
0.111433 0.152714 0.011909
0.107754 0.152313 0.049001
0.107571 0.153116 0.076350
0.111994 0.153496 0.027034
0.122532 0.152842 0.049269
0.113099 0.152760 0.046194
0.109488 0.152364 0.041524
0.105506 0.152266 0.030259
0.108058 0.152896 0.001227
0.120456 0.152186 0.068908
0.114113 0.152279 0.054290
0.109666 0.151563 0.061472
0.125644 0.152896 0.022673
0.060150 0.152046 -0.035073
0.047623 0.152247 0.000068
0.050686 0.152796 -0.007036
0.058617 0.152047 0.014745
0.067822 0.152970 -0.012350
0.047289 0.152870 -0.013716
0.064121 0.151830 -0.020691
0.060723 0.151773 -0.047699
0.061314 0.152408 -0.014941
0.066652 0.151991 -0.034043
0.057390 0.151902 -0.013231
0.059244 0.152044 -0.026018
0.062976 0.152393 0.004806
0.052958 0.152266 -0.024225
0.070925 0.152124 0.005430
0.051219 0.152619 0.010620
0.075955 0.152597 -0.006971
0.048673 0.152947 -0.027698
0.061582 0.152171 -0.007621
0.056208 0.152513 -0.033780
0.053385 0.152053 -0.001535
0.054347 0.152621 0.020405
0.056839 0.153508 -0.019598
0.066687 0.152582 -0.002207
0.057687 0.153021 -0.004398
0.054328 0.152561 -0.007835
0.052138 0.151844 -0.017050
0.052470 0.152595 -0.044059
0.066327 0.151882 0.015823
0.058987 0.152274 0.002210
0.055206 0.151471 0.007872
0.072974 0.152528 -0.024332
-0.099333 0.171596 -0.142582
-0.120404 0.165354 -0.111871
-0.114166 0.165688 -0.119735
-0.098054 0.165022 -0.095112
-0.088055 0.165098 -0.125370
-0.120151 0.165916 -0.126422
-0.091105 0.170421 -0.130430
-0.096475 0.165135 -0.151970
-0.094441 0.165173 -0.126191
-0.088086 0.165364 -0.143084
-0.102309 0.164628 -0.124565
-0.097145 0.164711 -0.136162
-0.092555 0.164825 -0.106119
-0.111672 0.165073 -0.134003
-0.083244 0.165571 -0.105173
-0.113220 0.165397 -0.102221
-0.080482 0.166373 -0.118257
-0.117647 0.166092 -0.139235
-0.096070 0.172405 -0.113855
-0.105039 0.165125 -0.142403
-0.109979 0.164223 -0.112060
-0.107474 0.165462 -0.093286
-0.102415 0.165351 -0.132084
-0.087419 0.165063 -0.113440
-0.098042 0.165288 -0.117172
-0.105611 0.164624 -0.117576
-0.111694 0.171719 -0.125768
-0.108332 0.165637 -0.152464
-0.090390 0.165200 -0.096672
-0.099661 0.165023 -0.106759
-0.106557 0.164509 -0.102595
-0.082579 0.165936 -0.132893
-0.099042 0.171695 -0.138876
-0.122906 0.171781 -0.094355
-0.115737 0.172337 -0.103154
-0.099531 0.172104 -0.073748
-0.081835 0.172241 -0.111796
-0.121844 0.172196 -0.112797
-0.088747 0.171787 -0.121350
-0.094906 0.172055 -0.149848
-0.095898 0.172065 -0.113478
-0.084092 0.171889 -0.137115
-0.105057 0.171551 -0.112873
-0.095975 0.172065 -0.127724
-0.090981 0.171981 -0.087133
-0.110889 0.172131 -0.127603
-0.078264 0.171678 -0.085537
-0.115815 0.172705 -0.081291
-0.072689 0.171757 -0.102510
-0.120011 0.172571 -0.129856
-0.090987 0.171201 -0.104840
-0.108733 0.172410 -0.139109
-0.110718 0.171708 -0.094320
-0.110575 0.172390 -0.069516
-0.102600 0.172945 -0.120705
-0.083591 0.172061 -0.096230
-0.098868 0.172864 -0.099829
-0.105915 0.172145 -0.102960
-0.114905 0.171182 -0.117682
-0.108694 0.172329 -0.151653
-0.087792 0.172405 -0.074405
-0.099423 0.172285 -0.088605
-0.107164 0.170979 -0.082076
-0.075673 0.171973 -0.124259
-0.028867 0.170559 -0.071757
-0.060644 0.170169 -0.030464
-0.049832 0.170717 -0.038632
-0.028914 0.170365 -0.011357
-0.009980 0.170699 -0.047330
-0.060025 0.170874 -0.048911
-0.016246 0.170143 -0.055071
-0.021764 0.170559 -0.081640
-0.024945 0.170731 -0.048081
-0.011873 0.170436 -0.070634
-0.036384 0.169996 -0.047599
-0.023279 0.170256 -0.061586
-0.020424 0.170618 -0.023730
-0.041377 0.170762 -0.061450
-0.007305 0.170437 -0.022445
-0.049367 0.170976 -0.019177
-0.002511 0.170518 -0.038216
-0.054484 0.171100 -0.064900
-0.018967 0.169039 -0.040592
-0.040715 0.170631 -0.072523
-0.042161 0.170334 -0.030751
-0.043223 0.170639 -0.007091
-0.031019 0.171143 -0.055966
-0.012587 0.170598 -0.032241
-0.025865 0.170748 -0.035855
-0.035417 0.170589 -0.038072
-0.047301 0.169688 -0.051592
-0.037862 0.170924 -0.083576
-0.016610 0.170829 -0.013152
-0.030201 0.170845 -0.025592
-0.038259 0.169491 -0.019375
-0.004607 0.170429 -0.058937
0.084253 0.170551 0.002901
0.052894 0.169675 0.043264
0.063206 0.170322 0.035669
0.084846 0.170007 0.063831
0.105170 0.169992 0.026922
0.054279 0.170485 0.025373
0.098244 0.169896 0.018728
0.091346 0.170085 -0.007249
0.089331 0.170012 0.026045
0.102840 0.170120 0.003506
0.077004 0.169159 0.026772
0.090527 0.169640 0.012577
0.093907 0.170178 0.050429
0.071161 0.170283 0.013064
0.107840 0.170117 0.052547
0.063269 0.170483 0.055433
0.111354 0.170213 0.036103
0.059431 0.170492 0.009656
0.094907 0.169263 0.034316
0.073117 0.170151 0.001959
0.070556 0.169999 0.043995
0.069662 0.170330 0.067934
0.082180 0.170651 0.018216
0.102496 0.170063 0.042371
0.087945 0.169926 0.039307
0.078019 0.169962 0.036674
0.064867 0.169560 0.022662
0.075379 0.170552 -0.008650
0.098423 0.170066 0.061426
0.083148 0.170174 0.049321
0.074596 0.168856 0.055415
0.109499 0.169985 0.015211
0.046488 0.170474 -0.026328
0.014015 0.170529 0.008918
0.023929 0.171170 0.001710
0.046587 0.170562 0.026809
0.068156 0.171351 -0.005467
0.014805 0.171415 -0.007318
0.060639 0.170188 -0.012902
0.053866 0.171224 -0.035262
0.051014 0.171098 -0.006316
0.066221 0.170959 -0.026330
0.038252 0.170288 -0.005175
0.052424 0.170721 -0.017633
0.056787 0.170934 0.015992
0.032501 0.171068 -0.018399
0.071571 0.170616 0.016842
0.024250 0.171479 0.019739
0.076622 0.170721 0.003691
0.019775 0.171359 -0.021083
0.056982 0.169543 0.000261
0.034248 0.171125 -0.027669
0.031186 0.170944 0.009736
0.032065 0.171003 0.030928
0.043332 0.172076 -0.013223
0.065040 0.171231 0.008174
0.049369 0.171482 0.005380
0.038947 0.170922 0.003121
0.026508 0.170144 -0.009556
0.037311 0.171276 -0.036953
0.060922 0.170914 0.026762
0.045338 0.171170 0.014959
0.036437 0.169721 0.019308
0.074344 0.170739 -0.015819
0.102641 0.152290 -0.026792
0.078162 0.153493 0.022271
0.084778 0.154289 0.010644
0.101035 0.152243 0.043571
0.117954 0.153393 0.002511
0.078036 0.154203 0.001353
0.111500 0.151615 -0.008552
0.106085 0.152841 -0.038654
0.106183 0.152837 0.000733
0.115263 0.152942 -0.025203
0.096881 0.152034 0.001930
0.104091 0.152950 -0.014754
0.109406 0.152623 0.030010
0.090187 0.153100 -0.014153
0.119852 0.152221 0.030720
0.083991 0.153739 0.036711
0.123666 0.153000 0.012121
0.080569 0.153963 -0.017095
0.108377 0.151993 0.009390
0.092747 0.154034 -0.025477
0.090024 0.152482 0.022668
0.090562 0.153380 0.049343
0.098372 0.155187 -0.007679
0.115678 0.153204 0.019331
0.101903 0.154489 0.015979
0.093570 0.152582 0.012651
0.086435 0.152047 -0.003953
0.091788 0.153989 -0.038318
0.112904 0.152455 0.044743
0.102047 0.152901 0.028176
0.094036 0.151672 0.035168
0.122290 0.153240 -0.012295
-0.111547 0.170603 -0.165308
-0.130486 0.164682 -0.136135
-0.125485 0.165256 -0.143666
-0.111321 0.164156 -0.120898
-0.099090 0.164942 -0.149446
-0.130079 0.165252 -0.149516
-0.103067 0.168933 -0.154662
-0.108549 0.164533 -0.174950
-0.106255 0.164557 -0.149799
-0.099604 0.164862 -0.166093
-0.113930 0.164425 -0.148493
-0.109266 0.164293 -0.159152
-0.104214 0.164400 -0.131342
-0.123559 0.164862 -0.157081
-0.094506 0.165006 -0.130197
-0.124827 0.164814 -0.126971
-0.090832 0.165939 -0.142561
-0.127884 0.165625 -0.162202
-0.108964 0.172493 -0.138743
-0.116190 0.164834 -0.164770
-0.122646 0.163852 -0.136283
-0.120452 0.165062 -0.119030
-0.114866 0.165354 -0.155004
-0.099313 0.164451 -0.138499
-0.111022 0.165241 -0.141434
-0.118718 0.163855 -0.141463
-0.123943 0.171240 -0.149635
-0.120515 0.164981 -0.174696
-0.102740 0.164729 -0.122150
-0.111441 0.164594 -0.131153
-0.118778 0.163672 -0.128055
-0.092850 0.165457 -0.156544
0.001497 0.165449 -0.109192
-0.024237 0.165940 -0.059423
-0.015897 0.165518 -0.071092
0.001628 0.164663 -0.039629
0.015981 0.166019 -0.078798
-0.024406 0.165696 -0.081631
0.010809 0.164797 -0.090485
0.006080 0.165372 -0.121235
0.004895 0.164957 -0.082771
0.015409 0.165703 -0.107127
-0.005538 0.164529 -0.080977
0.003891 0.165328 -0.098034
0.007615 0.165053 -0.052925
-0.009487 0.165683 -0.096528
0.019759 0.165406 -0.051828
-0.015074 0.165318 -0.047939
0.024997 0.166002 -0.070162
-0.021035 0.166013 -0.099904
0.008960 0.164988 -0.072548
-0.009717 0.165647 -0.108240
-0.008349 0.165322 -0.063238
-0.008731 0.165472 -0.033147
-0.001836 0.167842 -0.089967
0.015156 0.165527 -0.062539
0.002625 0.166992 -0.069440
-0.004165 0.165377 -0.072060
-0.012352 0.164887 -0.086460
-0.008166 0.166187 -0.122058
0.012817 0.164618 -0.039697
0.000038 0.165144 -0.057550
-0.006092 0.164611 -0.049224
0.022002 0.165703 -0.093182
0.045931 0.152360 -0.058768
0.034314 0.152711 -0.019165
0.038898 0.153053 -0.025737
0.044178 0.152568 -0.002469
0.049463 0.153192 -0.033695
0.034720 0.153122 -0.034193
0.047669 0.152175 -0.042086
0.046187 0.151899 -0.071620
0.046688 0.152684 -0.036802
0.049037 0.152260 -0.055245
0.044168 0.152183 -0.034836
0.044467 0.152326 -0.048882
0.046574 0.152876 -0.015070
0.040948 0.152461 -0.045479
0.051485 0.152555 -0.013090
0.039235 0.153071 -0.006031
0.055043 0.152602 -0.028719
0.036426 0.153313 -0.049472
0.046507 0.152838 -0.028405
0.043275 0.152584 -0.056024
0.041193 0.152297 -0.023601
0.041969 0.152984 0.006211
0.044350 0.153383 -0.041407
0.049403 0.153134 -0.021311
0.044345 0.152801 -0.025140
0.042153 0.152629 -0.029283
0.040374 0.152721 -0.038348
0.040126 0.152926 -0.066553
0.049119 0.152107 -0.003347
0.044736 0.152753 -0.019166
0.042111 0.151703 -0.011294
0.052688 0.152527 -0.046103
0.103410 0.152274 -0.024182
0.081097 0.152726 0.014096
0.086755 0.153247 0.005377
0.101140 0.152221 0.031880
0.114946 0.152727 -0.000733
0.080902 0.153071 -0.002264
0.110093 0.151782 -0.009296
0.104687 0.152472 -0.036278
0.105693 0.152334 -0.002111
0.113105 0.152130 -0.023762
0.098486 0.151820 -0.000766
0.103327 0.152084 -0.014029
0.108231 0.152241 0.019770
0.091769 0.152594 -0.014140
0.117525 0.152235 0.021116
0.087504 0.152827 0.025776
0.120626 0.152647 0.006003
0.084125 0.153237 -0.017539
0.106569 0.152147 0.005870
0.095964 0.152410 -0.023729
0.091950 0.152099 0.013486
0.092128 0.153042 0.037144
0.098472 0.153266 -0.008402
0.113238 0.152669 0.011731
0.100859 0.152841 0.009893
0.095067 0.152630 0.005699
0.089115 0.151953 -0.005680
0.093000 0.152843 -0.035127
0.111063 0.152183 0.031732
0.101628 0.152338 0.018062
0.095421 0.151402 0.024085
0.118586 0.152638 -0.012591
0.029578 0.152395 -0.062639
-0.003052 0.153722 -0.003907
0.008141 0.154271 -0.019334
0.028092 0.152363 0.018965
0.048316 0.153265 -0.029470
-0.002693 0.153790 -0.030036
0.040719 0.151797 -0.041039
0.036959 0.153007 -0.074624
0.033953 0.152903 -0.031439
0.045105 0.152515 -0.059388
0.022679 0.152547 -0.030356
0.033351 0.152962 -0.049020
0.037455 0.152793 0.004171
0.017528 0.153337 -0.048159
0.049931 0.152031 0.004129
0.007380 0.153356 0.012064
0.054346 0.152079 -0.016831
0.001803 0.154322 -0.051965
0.039085 0.152463 -0.023191
0.016161 0.153518 -0.061381
0.016174 0.152402 -0.006118
0.016120 0.153718 0.030145
0.027559 0.154432 -0.041401
0.044788 0.153469 -0.009161
0.032715 0.154579 -0.014515
0.022181 0.152855 -0.018074
0.011299 0.152554 -0.036908
0.019583 0.153998 -0.075889
0.042347 0.152439 0.022554
0.029524 0.153408 -0.001487
0.020065 0.151720 0.008555
0.052806 0.152702 -0.046195
0.021362 0.170283 -0.063863
-0.007312 0.170214 -0.027116
0.001761 0.170839 -0.034242
0.021301 0.170189 -0.008662
0.039003 0.170773 -0.041785
-0.006405 0.170911 -0.043531
0.032843 0.169759 -0.049446
0.026934 0.170592 -0.072901
0.025590 0.170775 -0.042817
0.037447 0.170398 -0.063232
0.014228 0.169833 -0.041808
0.025837 0.170397 -0.054719
0.029708 0.170537 -0.019898
0.009081 0.170785 -0.055132
0.041971 0.170197 -0.019147
0.001956 0.170996 -0.015790
0.045803 0.170246 -0.033111
-0.002234 0.170992 -0.057954
0.029845 0.169281 -0.035526
0.010913 0.170622 -0.064380
0.008121 0.170559 -0.026525
0.008804 0.170645 -0.004519
0.018452 0.171554 -0.049755
0.036818 0.170819 -0.027829
0.023112 0.171014 -0.030787
0.014338 0.170511 -0.033754
0.003714 0.169801 -0.046224
0.012473 0.170878 -0.074244
0.033252 0.170458 -0.009641
0.020016 0.170730 -0.021376
0.012289 0.169384 -0.016434
0.044058 0.170249 -0.052593
0.125512 0.161720 -0.027900
0.126155 0.157433 0.008617
0.124865 0.153024 0.025825
0.124983 0.164051 0.028096
0.123721 0.151668 0.005646
0.125190 0.150761 0.011576
0.124736 0.163499 -0.010237
0.124798 0.154196 -0.038825
0.124746 0.152978 -0.002901
0.125585 0.160055 -0.015271
0.125781 0.154806 0.003814
0.124945 0.156427 -0.023074
0.125594 0.155744 0.013099
0.124976 0.156145 -0.007275
0.124162 0.158183 0.031659
0.124107 0.151261 0.031945
0.124169 0.157648 -0.001449
0.125235 0.151449 -0.011530
0.124675 0.165542 0.011932
0.124282 0.151257 -0.018210
0.125305 0.161225 0.004328
0.124310 0.154815 0.038750
0.122253 0.152113 -0.004057
0.125730 0.156903 0.023560
0.122764 0.151138 0.017033
0.124543 0.158759 0.016959
0.125474 0.165060 0.000712
0.124777 0.152244 -0.028220
0.124244 0.153713 0.014983
0.125163 0.153651 0.019687
0.124966 0.162424 0.018505
0.124615 0.155099 -0.015543
0.120846 0.168192 -0.025727
0.095154 0.170030 0.022759
0.101413 0.170258 0.012755
0.118819 0.169331 0.040938
0.124872 0.165398 0.004001
0.095115 0.169778 0.004511
0.122836 0.167690 -0.004397
0.122328 0.168886 -0.035807
0.121835 0.168979 0.002258
0.124191 0.167697 -0.019481
0.114466 0.168540 0.002203
0.119711 0.169601 -0.014252
0.120624 0.168492 0.030029
0.110652 0.169373 -0.010039
0.123398 0.165505 0.030654
0.102844 0.169085 0.035354
0.123303 0.165472 0.012961
0.100914 0.170502 -0.013123
0.123083 0.167964 0.010941
0.111679 0.169711 -0.021516
0.108698 0.168884 0.018764
0.111415 0.169747 0.048164
0.118896 0.169939 -0.003457
0.124486 0.167422 0.023139
0.121180 0.169436 0.016478
0.114278 0.169032 0.011153
0.104801 0.168550 -0.001290
0.110297 0.169670 -0.032899
0.123995 0.166750 0.040057
0.116789 0.169198 0.024165
0.111935 0.168365 0.033059
0.123626 0.164951 -0.010259
0.037842 0.153135 -0.078500
0.025182 0.152989 -0.035007
0.031558 0.153139 -0.041347
0.036378 0.153184 -0.016207
0.040921 0.153169 -0.051221
0.025942 0.153284 -0.051506
0.039483 0.152731 -0.060192
0.038738 0.152024 -0.092186
0.038973 0.152826 -0.054865
0.040734 0.152496 -0.073699
0.036403 0.152079 -0.052434
0.036741 0.152363 -0.068011
0.038149 0.153052 -0.031369
0.033660 0.152593 -0.063107
0.042582 0.152693 -0.028277
0.031865 0.153295 -0.020275
0.046009 0.152612 -0.046326
0.028184 0.153508 -0.067931
0.038511 0.154504 -0.044914
0.035421 0.152552 -0.075180
0.033948 0.152602 -0.041357
0.034721 0.153155 -0.005737
0.037345 0.153116 -0.059757
0.040876 0.153420 -0.037132
0.037425 0.152539 -0.042157
0.035122 0.152699 -0.046324
0.033200 0.154255 -0.055791
0.032866 0.153170 -0.086503
0.040769 0.152015 -0.018465
0.036901 0.152931 -0.036295
0.034429 0.152010 -0.026853
0.043934 0.152469 -0.064127
0.096918 0.162546 -0.048569
0.074980 0.152450 -0.009381
0.082092 0.153324 -0.020754
0.098532 0.153392 0.010787
0.110332 0.152357 -0.025640
0.074511 0.152819 -0.027501
0.107452 0.160295 -0.031749
0.102704 0.152659 -0.062386
0.101467 0.152285 -0.027991
0.111505 0.152481 -0.049143
0.092335 0.151265 -0.025965
0.100469 0.151567 -0.042148
0.103062 0.151860 -0.003057
0.084646 0.151983 -0.035710
0.115211 0.152966 -0.001860
0.082320 0.152414 0.000683
0.118823 0.154317 -0.017375
0.078393 0.152811 -0.043283
0.102015 0.166244 -0.013344
0.089536 0.152017 -0.049593
0.086882 0.151528 -0.011490
0.088601 0.153282 0.014914
0.095294 0.153127 -0.034732
0.109977 0.152565 -0.011925
0.101371 0.152552 -0.017487
0.093041 0.151702 -0.015519
0.086334 0.163282 -0.025848
0.089129 0.153106 -0.061929
0.107692 0.152128 0.009667
0.095844 0.152140 -0.006766
0.089199 0.151788 0.000059
0.116801 0.153452 -0.035389
-0.015457 0.167982 -0.113493
-0.045388 0.168171 -0.071032
-0.035344 0.168324 -0.080292
-0.015547 0.167816 -0.052256
-0.001039 0.168288 -0.087907
-0.045042 0.168174 -0.090171
-0.006411 0.167485 -0.096922
-0.011254 0.168093 -0.122899
-0.011690 0.168130 -0.090132
-0.002689 0.168144 -0.111480
-0.022439 0.167357 -0.088892
-0.012639 0.167938 -0.103186
-0.008820 0.167884 -0.064164
-0.027173 0.168337 -0.103118
0.001581 0.167640 -0.063471
-0.034451 0.168004 -0.059931
0.005314 0.168035 -0.079485
-0.040379 0.168692 -0.106207
-0.007841 0.167233 -0.081441
-0.026904 0.168080 -0.113136
-0.027297 0.167930 -0.072704
-0.026887 0.168200 -0.047015
-0.018587 0.169054 -0.097435
-0.002067 0.168138 -0.072971
-0.014198 0.168647 -0.077412
-0.021960 0.168046 -0.080958
-0.031923 0.167375 -0.093637
-0.025803 0.168510 -0.124709
-0.005192 0.167712 -0.052957
-0.016560 0.168097 -0.067338
-0.023797 0.167226 -0.060597
0.003225 0.167800 -0.099777
-0.124420 0.171942 -0.197355
-0.135472 0.167575 -0.155437
-0.133711 0.167584 -0.162917
-0.124557 0.169281 -0.135237
-0.110225 0.168720 -0.173681
-0.133502 0.166759 -0.172181
-0.114565 0.171013 -0.182722
-0.118851 0.168830 -0.206643
-0.118330 0.168519 -0.176403
-0.109904 0.169772 -0.196573
-0.128503 0.167854 -0.175081
-0.121642 0.168377 -0.188891
-0.116751 0.168445 -0.149206
-0.133195 0.169261 -0.185680
-0.105318 0.169869 -0.148740
-0.134171 0.168096 -0.141985
-0.101964 0.170395 -0.166999
-0.134936 0.168158 -0.189594
-0.120191 0.172480 -0.163011
-0.129684 0.169059 -0.196656
-0.132424 0.169170 -0.158930
-0.132705 0.168811 -0.130697
-0.127530 0.168817 -0.181742
-0.109832 0.168625 -0.159683
-0.124559 0.168748 -0.163588
-0.128992 0.168570 -0.167728
-0.134056 0.171848 -0.177890
-0.132361 0.168027 -0.207863
-0.115120 0.168812 -0.137178
-0.125089 0.168155 -0.152661
-0.131167 0.168946 -0.144739
-0.104767 0.169763 -0.183978
-0.053468 0.165320 -0.132126
-0.069001 0.164492 -0.092585
-0.065186 0.164764 -0.101836
-0.054193 0.164649 -0.074087
-0.043394 0.165499 -0.109245
-0.068752 0.165385 -0.110201
-0.047824 0.164741 -0.118301
-0.051409 0.164537 -0.142956
-0.050993 0.165001 -0.112372
-0.044282 0.164570 -0.131990
-0.056991 0.164206 -0.110478
-0.052934 0.164112 -0.124010
-0.049321 0.164603 -0.085657
-0.062452 0.164747 -0.123119
-0.040359 0.164866 -0.084166
-0.064487 0.164958 -0.080074
-0.035439 0.165138 -0.100110
-0.067697 0.165298 -0.125794
-0.050059 0.165562 -0.102506
-0.058250 0.165166 -0.132235
-0.061286 0.164321 -0.094872
-0.059564 0.164837 -0.066168
-0.056375 0.165904 -0.117920
-0.044651 0.164885 -0.094749
-0.054480 0.165256 -0.099365
-0.059185 0.164332 -0.102993
-0.062912 0.164791 -0.113503
-0.061327 0.165250 -0.142139
-0.045515 0.164508 -0.071923
-0.054329 0.164669 -0.090171
-0.059360 0.163795 -0.082890
-0.037942 0.164879 -0.121352
-0.065129 0.158064 -0.146019
-0.098250 0.159749 -0.080943
-0.087792 0.159959 -0.098542
-0.065281 0.157497 -0.054623
-0.037911 0.158824 -0.109104
-0.098568 0.159460 -0.109750
-0.049568 0.157086 -0.122835
-0.054806 0.158366 -0.159453
-0.060128 0.158573 -0.111947
-0.043308 0.158140 -0.143042
-0.073865 0.158011 -0.110933
-0.057872 0.158209 -0.132371
-0.053400 0.158603 -0.069916
-0.080393 0.158751 -0.131069
-0.036616 0.157341 -0.069075
-0.089265 0.158878 -0.062821
-0.027763 0.157969 -0.092854
-0.096026 0.160058 -0.133722
-0.051489 0.157750 -0.103147
-0.081961 0.158899 -0.148018
-0.079367 0.158271 -0.082227
-0.079324 0.159352 -0.042321
-0.067593 0.160948 -0.124855
-0.044234 0.159128 -0.085287
-0.059697 0.160267 -0.092565
-0.072983 0.158339 -0.095741
-0.085595 0.157976 -0.118240
-0.073832 0.159712 -0.161852
-0.047205 0.157829 -0.048019
-0.063805 0.159160 -0.076949
-0.075378 0.157049 -0.065424
-0.030137 0.157962 -0.128441
0.036228 0.170352 -0.077568
0.003011 0.170449 -0.043760
0.013406 0.171101 -0.050411
0.036734 0.170636 -0.025707
0.057173 0.170887 -0.056912
0.003761 0.171155 -0.059384
0.049834 0.170169 -0.064531
0.043062 0.170762 -0.086216
0.040674 0.170926 -0.057888
0.055059 0.170514 -0.077624
0.028213 0.170076 -0.057144
0.041771 0.170445 -0.069030
0.046044 0.170788 -0.036981
0.022070 0.170892 -0.069827
0.060650 0.170624 -0.036158
0.014285 0.171321 -0.033798
0.066281 0.170829 -0.049199
0.009710 0.171321 -0.072459
0.046495 0.169773 -0.051045
0.023999 0.170845 -0.078535
0.021004 0.170609 -0.042876
0.021443 0.170926 -0.023352
0.033199 0.171627 -0.064940
0.054601 0.170970 -0.044484
0.038930 0.171229 -0.047210
0.028538 0.170719 -0.049065
0.016424 0.169956 -0.061350
0.026991 0.170882 -0.087648
0.050293 0.170973 -0.026946
0.034858 0.171088 -0.037542
0.026328 0.169599 -0.033143
0.063747 0.170838 -0.067199
-0.044211 -0.123547 -0.249843
-0.059948 -0.134447 -0.258412
-0.058046 -0.143001 -0.255129
-0.036682 -0.126965 -0.249429
-0.019190 -0.162186 -0.249771
-0.066110 -0.155302 -0.257280
-0.024191 -0.121005 -0.251613
-0.021314 -0.156397 -0.247966
-0.037741 -0.160289 -0.245557
-0.021560 -0.134509 -0.247722
-0.046449 -0.158249 -0.245045
-0.034540 -0.149713 -0.244216
-0.030266 -0.134919 -0.247776
-0.047218 -0.145249 -0.248633
-0.019927 -0.137811 -0.250245
-0.057990 -0.159387 -0.250629
-0.014305 -0.131042 -0.254101
-0.051961 -0.153763 -0.247250
-0.033471 -0.117652 -0.251907
-0.054673 -0.169686 -0.249311
-0.048337 -0.129903 -0.250758
-0.049939 -0.138804 -0.251988
-0.042472 -0.173036 -0.249218
-0.024218 -0.143047 -0.247472
-0.029112 -0.165265 -0.248529
-0.029077 -0.128324 -0.248434
-0.053580 -0.120745 -0.254527
-0.043564 -0.155149 -0.250208
-0.029623 -0.152852 -0.246728
-0.037011 -0.141045 -0.245981
-0.040699 -0.134759 -0.248194
-0.014259 -0.149862 -0.251972
-0.081018 -0.153970 -0.306942
-0.091516 -0.165135 -0.277703
-0.087462 -0.171439 -0.263294
-0.080976 -0.160492 -0.238106
-0.065504 -0.169935 -0.295360
-0.088917 -0.168507 -0.291835
-0.070651 -0.152201 -0.309181
-0.067097 -0.168333 -0.303302
-0.074216 -0.170372 -0.301387
-0.062993 -0.164019 -0.308028
-0.083376 -0.167548 -0.299427
-0.077504 -0.164743 -0.305598
-0.077865 -0.166675 -0.271437
-0.081865 -0.162881 -0.303871
-0.066552 -0.167909 -0.256237
-0.083243 -0.168124 -0.240681
-0.056735 -0.165937 -0.293394
-0.087657 -0.163080 -0.305085
-0.079689 -0.145671 -0.284869
-0.080820 -0.168072 -0.307114
-0.083348 -0.161407 -0.296107
-0.082246 -0.166769 -0.219196
-0.079691 -0.171002 -0.300984
-0.064732 -0.168546 -0.278693
-0.076379 -0.172175 -0.277061
-0.078548 -0.162809 -0.291898
-0.084509 -0.148312 -0.304537
-0.078887 -0.163864 -0.308038
-0.066839 -0.170513 -0.240807
-0.081941 -0.170837 -0.275757
-0.087166 -0.157707 -0.260209
-0.056972 -0.168873 -0.305142
-0.132183 0.173530 -0.212282
-0.132683 0.165276 -0.166906
-0.131542 0.163770 -0.169734
-0.131471 0.166026 -0.146717
-0.115595 0.165344 -0.187007
-0.130719 0.164270 -0.183293
-0.125856 0.171046 -0.197021
-0.121265 0.163506 -0.222633
-0.121915 0.163698 -0.191484
-0.115946 0.163427 -0.208131
-0.131241 0.164182 -0.191618
-0.128746 0.163551 -0.207669
-0.125523 0.163747 -0.161201
-0.134011 0.167312 -0.196329
-0.116803 0.163858 -0.161839
-0.131012 0.163035 -0.150384
-0.108688 0.164521 -0.176902
-0.131737 0.165635 -0.204809
-0.128779 0.175979 -0.172355
-0.130938 0.165258 -0.213769
-0.133020 0.168294 -0.178154
-0.133642 0.164588 -0.137860
-0.129086 0.163340 -0.197917
-0.116294 0.163126 -0.172955
-0.125208 0.163151 -0.179509
-0.130035 0.163756 -0.179240
-0.131522 0.177311 -0.190306
-0.134220 0.164865 -0.223958
-0.120984 0.163768 -0.148448
-0.129255 0.163847 -0.171713
-0.133104 0.166947 -0.158825
-0.110703 0.165155 -0.197933
0.086962 0.151621 -0.060576
0.067364 0.151689 -0.029887
0.071984 0.152305 -0.037824
0.086180 0.151686 -0.014171
0.101253 0.152702 -0.041731
0.066832 0.152322 -0.044200
0.095399 0.151425 -0.049609
0.090060 0.151973 -0.070272
0.089418 0.152146 -0.043577
0.099055 0.151921 -0.061288
0.082101 0.151620 -0.042385
0.088245 0.151547 -0.052626
0.093316 0.151995 -0.024036
0.076327 0.151958 -0.053639
0.105055 0.152105 -0.023134
0.072628 0.152287 -0.020086
0.109865 0.152467 -0.035370
0.069458 0.152416 -0.056358
0.091579 0.151837 -0.037155
0.079972 0.152147 -0.061024
0.076415 0.151668 -0.030030
0.077498 0.152192 -0.009514
0.082649 0.153031 -0.048593
0.098438 0.152320 -0.031397
0.085917 0.152585 -0.033497
0.079667 0.152168 -0.036422
0.074030 0.151349 -0.046334
0.077817 0.152307 -0.069798
0.097136 0.151748 -0.012184
0.086091 0.151972 -0.026007
0.080002 0.150949 -0.021391
0.106674 0.152287 -0.052266
-0.017437 -0.148649 -0.269027
-0.049745 -0.154509 -0.255496
-0.039259 -0.161605 -0.252048
-0.006114 -0.152780 -0.249963
0.005918 -0.168759 -0.252609
-0.052993 -0.170648 -0.256208
0.002474 -0.149033 -0.254928
0.001404 -0.173312 -0.276875
-0.007062 -0.168345 -0.251155
0.004316 -0.156616 -0.268559
-0.019769 -0.168220 -0.250006
-0.005715 -0.165596 -0.256854
-0.003052 -0.160955 -0.249009
-0.018773 -0.162248 -0.253596
0.005680 -0.157568 -0.248936
-0.029441 -0.172604 -0.250561
0.011849 -0.158283 -0.254407
-0.039626 -0.162341 -0.263597
-0.005851 -0.143819 -0.254789
-0.028555 -0.170953 -0.267689
-0.025169 -0.154690 -0.251480
-0.023324 -0.163347 -0.250061
-0.013078 -0.172212 -0.257000
0.005790 -0.163757 -0.250732
-0.000851 -0.169692 -0.251222
-0.002320 -0.154405 -0.252407
-0.032992 -0.145718 -0.256367
-0.021681 -0.163030 -0.284855
0.001014 -0.165180 -0.248848
-0.009421 -0.165014 -0.248374
-0.015264 -0.155376 -0.249335
0.009499 -0.167102 -0.254758
0.125174 0.159806 -0.068415
0.121986 0.153749 -0.023229
0.123588 0.152098 -0.012032
0.124250 0.161729 -0.004052
0.123061 0.151884 -0.029646
0.121011 0.151072 -0.026904
0.123915 0.161301 -0.046687
0.124126 0.153506 -0.082798
0.124279 0.152656 -0.039746
0.124604 0.158085 -0.054063
0.125177 0.152603 -0.032689
0.123971 0.154345 -0.061159
0.124911 0.154298 -0.021584
0.124758 0.154230 -0.044965
0.123260 0.155635 -0.004325
0.123585 0.151675 -0.001488
0.123502 0.155697 -0.035679
0.121418 0.151084 -0.048537
0.124148 0.163581 -0.022789
0.123630 0.151343 -0.058587
0.125415 0.157392 -0.029889
0.124141 0.152899 0.005790
0.119918 0.152032 -0.041684
0.125256 0.154965 -0.012722
0.121746 0.151232 -0.019927
0.124352 0.156850 -0.020504
0.125592 0.162660 -0.035737
0.123734 0.152579 -0.069626
0.123175 0.152160 -0.014440
0.125163 0.153112 -0.018276
0.124695 0.159676 -0.014137
0.123622 0.153655 -0.052613
-0.051437 -0.097782 -0.291558
-0.065677 -0.114448 -0.277201
-0.060101 -0.122076 -0.260534
-0.035734 -0.099896 -0.262264
-0.049139 -0.138025 -0.254406
-0.075318 -0.136203 -0.270539
-0.041343 -0.093072 -0.270189
-0.051492 -0.116684 -0.289444
-0.054020 -0.129004 -0.261974
-0.047247 -0.102088 -0.281558
-0.058147 -0.123498 -0.261164
-0.052380 -0.110910 -0.278406
-0.044797 -0.109186 -0.261555
-0.052354 -0.113644 -0.268493
-0.037299 -0.109462 -0.254755
-0.059498 -0.138692 -0.255849
-0.041742 -0.103557 -0.262038
-0.069521 -0.121935 -0.278668
-0.039090 -0.086203 -0.267610
-0.066607 -0.138606 -0.280637
-0.052909 -0.104524 -0.269337
-0.043900 -0.120719 -0.259475
-0.066999 -0.156448 -0.260281
-0.041102 -0.112028 -0.258691
-0.052816 -0.148558 -0.251691
-0.041144 -0.102483 -0.260547
-0.054832 -0.092827 -0.276487
-0.065165 -0.121453 -0.290583
-0.045190 -0.124032 -0.254407
-0.045815 -0.120358 -0.257263
-0.047568 -0.102331 -0.263660
-0.046583 -0.112125 -0.262700
0.087079 0.170923 -0.078757
0.055388 0.171309 -0.041465
0.064715 0.171286 -0.048262
0.086793 0.170998 -0.023925
0.105742 0.171507 -0.055746
0.056129 0.171444 -0.057161
0.099392 0.170598 -0.064291
0.093715 0.171997 -0.087871
0.089986 0.170984 -0.057490
0.103953 0.171731 -0.077498
0.077696 0.170635 -0.055967
0.090936 0.171482 -0.069214
0.094780 0.170764 -0.035326
0.073926 0.171598 -0.069343
0.108326 0.170827 -0.033724
0.064721 0.171178 -0.030398
0.112708 0.170917 -0.048225
0.060177 0.172171 -0.071087
0.096839 0.171230 -0.051623
0.073064 0.171639 -0.079017
0.072604 0.170803 -0.042078
0.072924 0.171796 -0.019990
0.083098 0.172479 -0.063037
0.104100 0.171521 -0.042790
0.088961 0.172229 -0.045609
0.080575 0.171053 -0.047590
0.068456 0.170341 -0.060833
0.077893 0.172437 -0.089561
0.100344 0.171030 -0.023606
0.085470 0.171188 -0.036465
0.077362 0.170487 -0.031427
0.111825 0.171284 -0.066442
0.031380 0.170332 -0.124589
0.000163 0.170624 -0.087491
0.009306 0.170926 -0.094687
0.030410 0.170406 -0.069796
0.047747 0.170892 -0.102089
0.000838 0.171017 -0.103617
0.041901 0.169841 -0.110119
0.035937 0.170877 -0.134373
0.034389 0.170768 -0.103189
0.046693 0.170670 -0.124328
0.022604 0.169887 -0.101894
0.034414 0.170760 -0.115250
0.038365 0.170281 -0.081277
0.017990 0.170747 -0.115270
0.050706 0.170126 -0.080713
0.009668 0.170984 -0.077329
0.055428 0.170652 -0.094757
0.005667 0.171227 -0.117838
0.039522 0.169933 -0.096124
0.018454 0.171077 -0.124750
0.016867 0.170434 -0.087660
0.017169 0.170831 -0.066925
0.026759 0.172056 -0.109672
0.046663 0.170804 -0.089128
0.031764 0.171615 -0.091639
0.023232 0.170470 -0.094121
0.013004 0.169442 -0.106781
0.020963 0.171028 -0.135283
0.042745 0.170365 -0.071050
0.029051 0.170709 -0.082161
0.021307 0.169649 -0.077312
0.053937 0.170817 -0.112945
-0.107069 0.155574 -0.261104
-0.119153 0.159817 -0.169084
-0.117022 0.158638 -0.191421
-0.102222 0.156279 -0.135759
-0.072698 0.158416 -0.208370
-0.117523 0.157591 -0.205093
-0.087118 0.154154 -0.225442
-0.087939 0.153641 -0.275050
-0.095198 0.157004 -0.213671
-0.076740 0.158748 -0.252149
-0.109765 0.154459 -0.208988
-0.095827 0.158635 -0.243011
-0.087313 0.155900 -0.159355
-0.110546 0.156124 -0.236287
-0.070824 0.155179 -0.156195
-0.119586 0.158337 -0.143779
-0.061464 0.158222 -0.187796
-0.122679 0.158753 -0.239067
-0.092102 0.157485 -0.200519
-0.118635 0.159822 -0.258091
-0.112356 0.157145 -0.174357
-0.112597 0.157212 -0.118820
-0.104466 0.162099 -0.223079
-0.079320 0.157635 -0.176997
-0.095056 0.162700 -0.188044
-0.110539 0.155900 -0.191668
-0.119455 0.157171 -0.222016
-0.109440 0.158440 -0.282836
-0.082769 0.156743 -0.129702
-0.099516 0.155914 -0.164089
-0.110555 0.156151 -0.151599
-0.063511 0.156994 -0.231326
-0.073339 0.169396 -0.182651
-0.096701 0.169160 -0.143686
-0.089845 0.168283 -0.151079
-0.073927 0.169019 -0.125077
-0.062222 0.167415 -0.159052
-0.095035 0.168678 -0.160316
-0.065799 0.169413 -0.167890
-0.070777 0.168192 -0.192238
-0.069762 0.168173 -0.161360
-0.062739 0.168638 -0.181746
-0.078734 0.167426 -0.159639
-0.072436 0.167936 -0.172914
-0.068170 0.168118 -0.137330
-0.084627 0.168425 -0.171881
-0.058684 0.168555 -0.136405
-0.088391 0.168439 -0.132791
-0.054879 0.168767 -0.152136
-0.093324 0.169182 -0.175392
-0.069210 0.169840 -0.150752
-0.080743 0.168439 -0.181340
-0.084303 0.168478 -0.145536
-0.082646 0.168320 -0.121375
-0.077162 0.168027 -0.167721
-0.062045 0.168209 -0.145880
-0.074459 0.167914 -0.149111
-0.080328 0.168795 -0.153594
-0.087522 0.169559 -0.163487
-0.083252 0.168613 -0.192525
-0.065156 0.168007 -0.126022
-0.074878 0.168129 -0.139615
-0.081551 0.168371 -0.133405
-0.057135 0.168465 -0.170150
-0.129972 0.172655 -0.285898
-0.131064 0.168327 -0.219836
-0.131254 0.159785 -0.191291
-0.130803 0.173981 -0.185531
-0.131183 0.155672 -0.226210
-0.130139 0.156093 -0.215643
-0.129925 0.173077 -0.251232
-0.131023 0.163052 -0.302632
-0.131177 0.158976 -0.239591
-0.131417 0.171927 -0.262829
-0.131793 0.162985 -0.231392
-0.131442 0.165303 -0.275158
-0.131662 0.164505 -0.213154
-0.130914 0.165553 -0.250033
-0.132269 0.168403 -0.182535
-0.130575 0.155709 -0.180707
-0.132531 0.169611 -0.239277
-0.130067 0.157838 -0.257730
-0.129876 0.174795 -0.217926
-0.130449 0.156470 -0.266366
-0.130284 0.170886 -0.227882
-0.132131 0.164832 -0.168218
-0.130688 0.155654 -0.243460
-0.131540 0.166997 -0.195243
-0.130886 0.153579 -0.205901
-0.130763 0.168908 -0.209213
-0.129896 0.173513 -0.237727
-0.130180 0.159107 -0.286445
-0.131730 0.159220 -0.213642
-0.131703 0.161303 -0.202538
-0.131168 0.172075 -0.199721
-0.131639 0.163569 -0.261975
0.031965 0.153577 -0.130072
0.002129 0.154747 -0.059859
0.014352 0.155224 -0.077476
0.032002 0.152736 -0.034979
0.049593 0.154813 -0.088960
0.002119 0.154640 -0.090651
0.042457 0.152650 -0.103495
0.038399 0.154097 -0.145851
0.036998 0.154024 -0.092769
0.046483 0.153971 -0.124689
0.026009 0.154078 -0.091380
0.035675 0.154455 -0.113880
0.039854 0.154112 -0.051902
0.021987 0.154670 -0.111455
0.051418 0.153629 -0.051766
0.013809 0.154333 -0.042628
0.055559 0.154175 -0.076613
0.006291 0.155316 -0.116655
0.041440 0.153001 -0.081864
0.019455 0.154678 -0.128354
0.022391 0.153615 -0.065299
0.021723 0.154492 -0.022231
0.031292 0.156223 -0.103607
0.047172 0.155238 -0.065689
0.036464 0.155738 -0.073749
0.026999 0.154164 -0.078245
0.016981 0.153429 -0.099255
0.022125 0.155366 -0.146455
0.044808 0.153385 -0.032376
0.033298 0.154520 -0.059522
0.025275 0.152900 -0.046926
0.053934 0.154363 -0.108127
0.026915 0.153323 -0.133694
-0.003103 0.154613 -0.064682
0.008400 0.155297 -0.082882
0.026840 0.152504 -0.040233
0.045992 0.154561 -0.093606
-0.003354 0.154600 -0.095109
0.038280 0.152452 -0.107683
0.034049 0.153815 -0.149018
0.032016 0.153777 -0.096881
0.042515 0.153716 -0.128805
0.020829 0.153895 -0.095752
0.031073 0.154235 -0.117693
0.035592 0.153814 -0.056664
0.016355 0.154372 -0.115772
0.047930 0.153196 -0.056704
0.007495 0.154147 -0.047602
0.052524 0.153841 -0.080495
0.000753 0.155258 -0.120532
0.036814 0.152831 -0.086646
0.013877 0.154630 -0.132410
0.016292 0.153265 -0.068926
0.015798 0.154281 -0.028060
0.025824 0.156032 -0.107607
0.043107 0.154841 -0.070778
0.031352 0.155575 -0.078068
0.021217 0.153775 -0.081786
0.010979 0.153233 -0.103448
0.016995 0.155118 -0.150106
0.040530 0.153199 -0.036927
0.028440 0.154242 -0.063483
0.019707 0.152647 -0.051651
0.050859 0.154178 -0.112456
-0.072489 -0.127216 -0.304990
-0.079149 -0.133007 -0.282028
-0.080646 -0.138323 -0.253282
-0.072008 -0.123185 -0.237482
-0.080692 -0.145646 -0.291986
-0.085074 -0.148127 -0.285277
-0.065406 -0.121062 -0.303325
-0.071540 -0.136377 -0.305392
-0.080814 -0.140866 -0.300385
-0.066486 -0.125702 -0.303203
-0.080663 -0.137098 -0.290046
-0.073705 -0.129908 -0.302594
-0.076129 -0.127870 -0.272473
-0.076011 -0.130241 -0.300117
-0.068729 -0.123277 -0.253003
-0.082619 -0.143607 -0.236729
-0.065649 -0.123125 -0.295289
-0.080588 -0.138620 -0.300851
-0.066611 -0.118065 -0.279918
-0.081612 -0.150160 -0.306144
-0.075205 -0.127146 -0.289788
-0.077635 -0.131514 -0.222257
-0.088350 -0.157544 -0.297591
-0.070051 -0.126217 -0.268572
-0.085773 -0.156537 -0.266498
-0.070398 -0.123807 -0.286194
-0.071137 -0.122925 -0.299317
-0.077099 -0.139183 -0.304696
-0.076677 -0.138269 -0.253735
-0.079161 -0.134401 -0.273030
-0.073838 -0.123230 -0.255536
-0.068901 -0.131296 -0.302463
0.025515 -0.146729 -0.295612
0.007950 -0.160994 -0.251212
0.011110 -0.168574 -0.254590
0.023874 -0.145946 -0.251897
0.029323 -0.169004 -0.266313
0.007021 -0.170216 -0.258772
0.029889 -0.141445 -0.273463
0.029999 -0.169477 -0.313528
0.027065 -0.168781 -0.270014
0.030730 -0.160154 -0.292496
0.022475 -0.170995 -0.261252
0.027316 -0.168946 -0.288048
0.022907 -0.164339 -0.256402
0.022658 -0.167167 -0.270571
0.026201 -0.158937 -0.252542
0.016979 -0.170710 -0.249026
0.033317 -0.161106 -0.267840
0.012364 -0.170866 -0.277597
0.026209 -0.128380 -0.257364
0.023002 -0.170680 -0.287049
0.020642 -0.158855 -0.261332
0.018662 -0.166748 -0.248593
0.022847 -0.169174 -0.272336
0.028551 -0.166219 -0.257874
0.025792 -0.168569 -0.258934
0.027597 -0.155332 -0.257963
0.020903 -0.137822 -0.261283
0.022158 -0.170598 -0.302138
0.027209 -0.168671 -0.252582
0.022545 -0.169348 -0.254094
0.020887 -0.152891 -0.253791
0.033075 -0.168342 -0.282024
-0.046460 -0.164858 -0.308007
-0.068602 -0.170401 -0.293080
-0.061926 -0.170114 -0.293694
-0.042337 -0.170966 -0.272771
-0.027771 -0.169399 -0.299818
-0.069562 -0.169402 -0.303710
-0.033302 -0.166163 -0.306907
-0.037701 -0.168215 -0.307698
-0.041533 -0.169943 -0.302769
-0.026808 -0.166734 -0.308405
-0.051364 -0.169792 -0.302580
-0.040998 -0.167483 -0.306532
-0.034689 -0.169801 -0.286726
-0.054309 -0.168035 -0.306560
-0.022218 -0.169523 -0.280707
-0.059375 -0.169771 -0.277170
-0.015824 -0.166801 -0.296426
-0.064118 -0.166799 -0.308203
-0.038847 -0.164094 -0.298778
-0.056284 -0.169024 -0.307339
-0.055910 -0.170599 -0.296012
-0.050927 -0.169684 -0.264463
-0.048557 -0.170131 -0.301980
-0.028723 -0.168931 -0.293335
-0.041946 -0.170061 -0.291582
-0.047982 -0.169187 -0.298670
-0.059168 -0.165761 -0.305171
-0.050473 -0.166712 -0.308320
-0.030836 -0.169702 -0.269600
-0.045862 -0.170136 -0.288362
