-0.106758 0.163971 0.443879
-0.102116 0.126841 0.424653
-0.119494 0.163970 0.413091
-0.130139 0.163972 0.387456
-0.051223 0.163968 0.442644
-0.047138 0.150067 0.437064
-0.033184 -0.155088 0.314085
-0.059436 0.163967 0.422792
-0.092274 -0.170675 0.251151
-0.070668 0.147062 0.405621
-0.067649 0.163966 0.402940
-0.022073 0.142274 0.424205
-0.009939 -0.144628 0.307134
-0.000888 -0.158457 0.307677
-0.032167 -0.125432 0.298407
-0.070844 -0.127528 0.268539
-0.071770 -0.158138 0.251167
-0.110995 0.150988 0.356931
-0.008285 -0.133907 0.306664
0.004927 -0.143721 0.311461
0.018055 -0.171378 0.306730
-0.002909 0.146932 0.428589
-0.075862 0.163966 0.383089
-0.032167 -0.094714 0.298407
0.016277 0.154443 0.438000
-0.042004 -0.170450 0.251209
0.047729 -0.160651 0.317673
-0.084074 0.163965 0.363238
0.033767 0.149339 0.440158
-0.051791 -0.140797 0.251189
-0.001683 -0.157313 0.278787
0.015750 -0.170623 0.284910
-0.022391 -0.123859 0.274386
-0.034021 0.159982 0.385749
-0.032167 -0.043517 0.298407
-0.042823 -0.114735 0.257579
-0.092278 0.163962 0.343381
-0.013304 -0.172318 0.251235
-0.022391 -0.103638 0.274386
-0.071596 0.145729 0.347640
-0.020620 -0.140913 0.254774
-0.032167 -0.023038 0.298407
-0.042823 -0.094337 0.257579
-0.022908 -0.063419 0.286517
0.029809 0.155984 0.418072
-0.006749 -0.147014 0.258746
-0.039973 0.139216 0.357734
-0.022756 -0.128150 0.251229
-0.032167 -0.002560 0.298407
-0.028702 0.173559 0.373910
0.012765 -0.169440 0.252264
0.013681 -0.071191 0.296174
-0.026999 -0.073349 0.265515
-0.032167 0.023038 0.298407
-0.022391 -0.042972 0.274386
-0.035775 -0.053325 0.259174
-0.003662 0.144369 0.368367
-0.039300 0.151902 0.342879
0.080838 0.153847 0.429528
-0.112869 0.163968 0.293791
-0.042823 -0.033146 0.257579
-0.103462 0.158152 0.295574
0.067877 0.147188 0.408947
0.045339 0.152410 0.394556
-0.026999 -0.022763 0.265515
-0.032167 0.063996 0.298407
-0.075534 0.154202 0.303835
-0.001602 -0.004633 0.287621
-0.022391 0.002528 0.274386
-0.038431 0.174194 0.336819
-0.048917 0.163960 0.321357
-0.022908 0.043125 0.286517
-0.032167 0.084474 0.298407
-0.125224 0.163971 0.264035
-0.042823 0.012748 0.257579
0.034900 0.169130 0.378813
-0.022391 0.022750 0.274386
-0.032167 0.104953 0.298407
0.102683 0.152408 0.415224
-0.019041 0.148264 0.321199
0.105111 0.156701 0.411477
-0.064420 0.169172 0.293641
-0.026999 0.042997 0.265515
0.133086 0.164261 0.431368
0.039998 0.151031 0.359273
0.053476 -0.132685 0.242547
-0.032167 0.135671 0.298407
0.060654 0.157806 0.372961
-0.005014 0.071931 0.287869
-0.022391 0.073305 0.274386
-0.035775 0.063482 0.259174
0.004577 0.146133 0.323784
0.089731 0.152409 0.383970
-0.018185 0.147527 0.303053
-0.042823 0.084139 0.257579
0.132641 0.153764 0.408023
-0.022391 0.103638 0.274386
-0.096658 0.149912 0.236073
-0.074765 0.163958 0.258896
0.006475 0.144514 0.308803
-0.035775 0.104110 0.259174
0.006478 0.085017 0.281238
-0.017994 0.148778 0.289951
-0.022391 0.123859 0.274386
-0.022908 0.154742 0.286517
-0.020059 0.160184 0.289043
0.022787 0.174393 0.323794
0.031584 0.154584 0.320974
0.017415 0.165867 0.315907
-0.035775 0.124424 0.259174
-0.026018 0.141876 0.271920
-0.032585 0.159231 0.271165
0.073079 0.152410 0.343786
-0.026999 0.144168 0.265515
-0.061165 0.152004 0.243462
-0.086727 0.163961 0.230087
-0.042823 0.155529 0.257579
0.132093 0.152562 0.379254
-0.038522 0.141354 0.243593
-0.094702 0.163963 0.210880
-0.013115 0.142155 0.260834
0.061978 0.152410 0.316996
0.075703 0.174785 0.334095
-0.107512 0.178884 0.202473
0.058365 0.168875 0.315629
-0.029568 0.147915 0.241246
0.122427 0.152408 0.352396
0.105197 0.163915 0.343294
-0.102676 0.163965 0.191672
0.131768 0.170539 0.362207
0.028751 0.142666 0.271116
0.003787 0.161449 0.260036
0.049033 0.152410 0.285736
0.113460 0.152408 0.330759
-0.110651 0.163967 0.172464
-0.018634 0.143294 0.220089
0.083563 0.149637 0.293081
-0.120620 0.163969 0.148454
-0.050728 0.163968 0.198300
0.131127 0.164332 0.328586
0.040690 0.162639 0.259576
-0.102490 0.154786 0.151355
0.097321 0.152409 0.291811
-0.128596 0.163971 0.129245
-0.068432 0.171923 0.176514
-0.030103 0.153421 0.195797
-0.058372 0.163959 0.179637
-0.003356 0.162093 0.215957
-0.038858 0.176307 0.190838
0.101767 0.148574 0.280396
-0.022100 0.178907 0.203593
0.021342 0.159251 0.226875
0.130602 0.153888 0.301040
0.088354 0.152409 0.270173
-0.000026 0.143962 0.195868
0.040568 0.138020 0.221775
0.102894 0.179421 0.284385
-0.069937 0.163958 0.151698
0.007591 0.167903 0.207447
0.013670 0.163471 0.209296
0.059166 0.172120 0.244365
0.079388 0.152410 0.248535
-0.044930 0.156609 0.153974
0.130187 0.152952 0.279305
0.066534 0.173502 0.239372
-0.110848 0.164097 0.097325
0.066834 0.152411 0.218241
-0.087315 0.163961 0.109804
0.011518 0.160314 0.180444
0.129982 0.170696 0.268537
0.006618 0.140265 0.164135
0.069643 0.135223 0.205182
-0.071199 0.171118 0.116370
-0.095044 0.163962 0.091187
-0.011307 0.146712 0.144122
0.056083 0.152410 0.192270
0.129474 0.155859 0.241898
0.115217 0.175073 0.235810
-0.024982 0.140149 0.117722
-0.104706 0.163965 0.067914
-0.083972 0.157759 0.075184
0.106197 0.152409 0.209352
0.043544 0.152409 0.161968
0.008355 0.153957 0.133483
-0.116300 0.163968 0.039986
0.026531 0.168873 0.148339
-0.022050 0.142651 0.099358
-0.018626 0.157150 0.105859
-0.052376 0.163967 0.082554
0.128875 0.154464 0.210457
0.115117 0.140103 0.192742
0.016440 0.155983 0.128267
0.008466 0.178456 0.129178
0.094019 0.152409 0.179963
-0.110793 0.162973 0.026821
-0.007409 0.140587 0.091702
-0.127895 0.163971 0.012058
-0.063617 0.163969 0.055456
0.074602 0.167270 0.157574
-0.000040 0.149040 0.090021
0.081840 0.152410 0.150573
-0.077610 0.158628 0.032755
0.128286 0.153095 0.179573
-0.033296 0.143348 0.046572
-0.076641 0.163960 0.023805
0.073141 0.152411 0.129581
-0.004959 0.148193 0.063258
0.033785 0.168282 0.098225
0.068911 0.174087 0.119204
0.014439 0.151679 0.068276
0.060974 0.152410 0.100185
0.110548 0.145539 0.132898
-0.000638 0.159783 0.056978
-0.016499 0.156135 0.043698
0.127803 0.169592 0.154252
0.018353 0.152381 0.063703
-0.032245 0.184314 0.038313
-0.093492 0.163962 -0.016844
0.037973 0.183156 0.084088
-0.000045 0.111579 0.022626
0.052285 0.152409 0.079188
0.108736 0.146169 0.115124
-0.086809 0.154046 -0.028334
-0.072832 0.183043 -0.006375
0.127328 0.155238 0.129299
0.106112 0.152409 0.111290
0.004904 0.173534 0.043916
-0.000279 0.143110 0.019430
0.040120 0.152408 0.049791
0.097665 0.152410 0.090905
-0.114113 0.163967 -0.066519
-0.030062 0.153920 -0.011697
-0.007404 0.166158 0.009213
0.126766 0.162563 0.099831
0.009763 0.161962 0.010786
0.085840 0.152410 0.062367
0.035943 0.157448 0.027052
-0.005287 0.157287 -0.003749
-0.094193 0.159742 -0.070861
-0.125362 0.163970 -0.093616
-0.063011 0.163967 -0.048415
0.072934 0.172672 0.054247
-0.016665 0.154457 -0.021376
-0.032768 0.145950 -0.049747
0.126214 0.152572 0.070870
0.072330 0.152410 0.029750
-0.003246 0.153175 -0.026347
0.012463 0.163222 -0.010667
-0.079321 0.163962 -0.087906
0.038305 0.120134 -0.020548
-0.100255 0.160940 -0.110250
0.063893 0.152410 0.009361
-0.060769 0.173115 -0.076714
0.109155 0.168591 0.045994
-0.010997 0.174700 -0.045768
0.125851 0.168797 0.051837
0.110957 0.152409 0.030637
0.055456 0.152409 -0.011027
-0.092047 0.163963 -0.118606
-0.090098 0.170143 -0.115861
-0.015561 0.175564 -0.061158
0.088813 0.179988 0.015414
0.041892 0.176130 -0.020550
0.099002 0.142209 0.005170
-0.101137 0.163964 -0.140536
-0.017390 0.159116 -0.079920
0.043645 0.152407 -0.039571
0.097823 0.152410 -0.001059
0.031772 0.143719 -0.058519
0.019071 0.176509 -0.055707
0.125050 0.154004 0.009795
0.120570 0.164206 0.008815
0.035208 0.152407 -0.059959
0.089615 0.152410 -0.020869
-0.015874 0.166138 -0.097162
-0.114518 0.164664 -0.174206
-0.057139 0.163965 -0.133645
-0.053572 0.139974 -0.144480
0.039504 0.178503 -0.058461
-0.025899 -0.124236 -0.250863
-0.071396 -0.166126 -0.308120
-0.121154 0.163968 -0.188777
0.078127 0.152410 -0.048606
0.005004 -0.159597 -0.252865
0.124526 0.152717 -0.017647
-0.032978 -0.106978 -0.262532
0.065320 0.163072 -0.061386
0.021699 0.171120 -0.090841
-0.083647 0.093366 -0.206924
-0.069481 0.163963 -0.163488
-0.130257 0.163971 -0.210705
0.013302 0.144698 -0.110723
0.013086 0.142259 -0.112443
-0.071412 -0.126257 -0.308118
0.027499 -0.169376 -0.253312
-0.043362 -0.167046 -0.308091
-0.003585 -0.147081 -0.268177
0.016124 0.160811 -0.110681
0.060978 0.153269 -0.082369
-0.078315 0.163964 -0.184800
-0.005743 -0.125989 -0.267763
-0.040448 -0.153962 -0.310721
-0.063601 0.161475 -0.178822
0.061729 0.152409 -0.088234
-0.027074 -0.084628 -0.267990
0.124097 0.159970 -0.040167
-0.043390 -0.136677 -0.308086
-0.022352 -0.114109 -0.281734
-0.022939 0.179573 -0.145195
-0.044475 -0.115234 -0.303650
-0.016463 -0.167929 -0.308062
-0.008553 0.172352 -0.141050
-0.032978 -0.045848 -0.262532
-0.087150 0.163964 -0.206112
-0.031414 -0.141362 -0.311245
0.105956 0.152410 -0.068717
0.021399 -0.168428 -0.285405
0.053530 0.152408 -0.108048
-0.027130 0.166394 -0.163513
-0.029545 0.163319 -0.167392
0.021271 0.160349 -0.130916
-0.005624 -0.125136 -0.288917
-0.026280 -0.096806 -0.293826
-0.044475 -0.084795 -0.303650
0.049930 0.148547 -0.121314
0.006440 -0.117669 -0.283060
-0.002541 -0.149409 -0.306117
-0.016504 -0.129671 -0.308055
0.009315 -0.168786 -0.308024
-0.024210 -0.075268 -0.289928
-0.038801 0.143644 -0.197961
-0.014749 0.154829 -0.177911
0.016712 0.155472 -0.153145
0.107857 0.180717 -0.074379
-0.098951 0.172815 -0.235058
0.093182 0.152411 -0.099545
0.040411 0.152406 -0.139749
-0.103051 0.163966 -0.244475
-0.027074 -0.006510 -0.267990
-0.029365 -0.053844 -0.297560
-0.044475 -0.036962 -0.303650
-0.040997 -0.052173 -0.308655
-0.032978 0.032748 -0.262532
0.061381 0.184690 -0.124664
0.123173 0.165757 -0.088631
-0.024210 -0.023656 -0.289928
-0.092336 0.150844 -0.260403
-0.044475 -0.015220 -0.303650
0.080417 0.152410 -0.130377
-0.058483 0.163966 -0.230781
0.029319 -0.163276 -0.322079
-0.070180 0.186052 -0.231793
-0.042907 0.167283 -0.226004
-0.027074 0.054249 -0.267990
-0.044475 0.006523 -0.303650
0.003934 -0.112692 -0.325951
-0.032978 0.076413 -0.262532
0.122762 0.152440 -0.110183
-0.067055 0.163964 -0.251513
-0.024210 0.015054 -0.289928
0.111828 0.170478 -0.115753
-0.044475 0.032613 -0.303650
0.067658 0.152409 -0.161210
0.057802 -0.130472 -0.307299
-0.131338 0.163970 -0.312674
-0.024629 0.162305 -0.232149
0.024504 0.155541 -0.199473
0.011094 0.150322 -0.212515
-0.032978 0.115711 -0.262532
0.024037 0.158934 -0.199117
-0.044475 0.054356 -0.303650
0.031584 0.130650 -0.210859
-0.024210 0.053763 -0.289928
0.122357 0.159490 -0.131445
-0.022352 0.075355 -0.281734
0.062925 -0.119116 -0.313041
0.056493 0.152408 -0.188189
-0.019184 0.163707 -0.241159
-0.030660 0.152311 -0.255805
-0.020598 0.124229 -0.261954
-0.044475 0.076098 -0.303650
0.076921 0.153834 -0.175193
0.017745 -0.034184 -0.311224
0.032022 0.158005 -0.209019
0.102776 0.152410 -0.159022
-0.032978 0.155009 -0.262532
-0.087676 0.163966 -0.301262
-0.027074 0.136707 -0.267990
-0.026280 0.092504 -0.293826
0.003299 0.157248 -0.241590
-0.012790 0.142420 -0.260172
-0.016611 0.126370 -0.270440
0.046924 0.152407 -0.211313
-0.105759 0.163386 -0.326466
-0.044475 0.115234 -0.303650
-0.002430 0.135939 -0.261872
0.112010 0.165192 -0.161224
0.090347 0.152410 -0.189030
-0.024210 0.122579 -0.289928
-0.046703 0.165018 -0.289386
0.121799 0.166003 -0.160736
0.038949 0.152406 -0.230583
-0.022957 0.154867 -0.280452
-0.103142 0.163967 -0.338574
0.004813 0.162277 -0.264622
0.121406 0.152984 -0.181326
-0.029365 0.152916 -0.297560
-0.111735 0.163968 -0.359304
0.012804 0.103277 -0.293748
-0.096549 0.148432 -0.358585
0.041146 0.179340 -0.237296
-0.059705 0.163960 -0.322744
-0.025634 0.178017 -0.290692
-0.064663 0.164048 -0.328808
0.013514 0.082184 -0.306987
0.073271 0.152409 -0.230294
0.048897 0.176743 -0.238520
-0.041872 0.157752 -0.320707
-0.057569 0.136881 -0.345231
0.086915 0.186093 -0.213797
-0.068074 0.163962 -0.342918
-0.123764 0.163969 -0.388325
-0.009946 0.139326 -0.312396
0.065508 0.152408 -0.249050
0.080459 0.166312 -0.234274
-0.062177 0.149629 -0.352932
0.071757 0.165539 -0.244418
-0.048857 0.160181 -0.342293
0.004420 0.151213 -0.305431
-0.076443 0.163963 -0.363094
-0.027178 0.166706 -0.324962
0.105816 0.152411 -0.230022
0.120865 0.171266 -0.209698
-0.132360 0.163970 -0.409055
0.121073 0.153660 -0.219080
0.057747 0.152407 -0.267807
0.109748 0.169667 -0.225394
-0.084813 0.163965 -0.383269
0.029321 0.151702 -0.302046
0.049120 0.171295 -0.278439
0.048432 0.152406 -0.290313
0.120485 0.166239 -0.229648
0.089176 0.152410 -0.270213
0.047154 0.159866 -0.300443
-0.005475 0.138933 -0.355287
-0.098204 0.163968 -0.415551
0.052776 0.171560 -0.297895
0.036014 0.152405 -0.320322
-0.108800 0.154480 -0.433186
0.119887 0.152911 -0.261031
0.120035 0.172712 -0.253246
-0.074139 0.139400 -0.419206
-0.106574 0.163969 -0.435728
0.077079 0.152409 -0.299443
-0.023171 0.149833 -0.378833
0.056556 0.158870 -0.314205
0.021317 0.135291 -0.356360
-0.062574 0.163966 -0.413848
0.016428 0.171535 -0.349934
0.119519 0.159624 -0.280320
-0.056967 0.158914 -0.418184
0.021397 0.133494 -0.371339
0.112524 0.165650 -0.291652
-0.070726 0.163967 -0.433501
0.070252 0.175576 -0.319673
0.060447 0.152407 -0.339634
0.104277 0.152411 -0.308111
0.061899 0.167996 -0.333809
0.119156 0.166252 -0.299362
-0.037466 0.141554 -0.434254
0.079975 0.196117 -0.319219
0.053558 0.148292 -0.363153
0.066546 0.126863 -0.364174
0.037928 0.163300 -0.368685
-0.004658 0.155782 -0.406812
0.017776 0.168996 -0.383256
0.053829 0.178366 -0.351763
0.048350 0.152406 -0.368863
0.091012 0.152409 -0.340163
0.118585 0.164576 -0.329332
0.079222 0.152408 -0.368652
0.031718 0.152404 -0.409053
0.096243 0.172132 -0.353299
-0.009606 0.162937 -0.443646
0.070379 0.152407 -0.390019
0.032451 0.151269 -0.422477
0.016402 0.160701 -0.435814
0.108570 0.152411 -0.368452
0.114859 0.178143 -0.355557
0.073633 0.182378 -0.386534
0.097815 0.141280 -0.388073
0.118025 0.170425 -0.358703
0.058589 0.152406 -0.418508
0.072363 0.167340 -0.402103
0.090576 0.145205 -0.399186
0.099945 0.152410 -0.389291
0.088663 0.154161 -0.398995
0.087322 0.138104 -0.408006
0.059115 0.171999 -0.416467
0.035206 0.174368 -0.437628
0.040365 0.148307 -0.446734
0.107514 0.126300 -0.405928
0.091320 0.152409 -0.410131
0.101180 0.161403 -0.399677
0.045325 0.152405 -0.450558
0.084576 0.154797 -0.420396
0.117408 0.164829 -0.391053
0.100226 0.183503 -0.401459
0.101423 0.142857 -0.421454
0.085785 0.152411 -0.430617
0.094504 0.168958 -0.419438
0.119223 0.163157 -0.406415
