-0.403702 -0.205565 0.199952
-0.363759 -0.254132 0.194518
-0.476143 -0.078435 0.178559
-0.392036 -0.167141 0.202687
-0.365286 -0.208302 0.203647
-0.454046 -0.109771 0.178301
-0.480633 -0.098075 0.161708
-0.405744 -0.128244 0.199318
-0.324350 -0.265138 0.199235
-0.412738 -0.164637 0.175711
-0.376545 -0.224540 0.175470
-0.436362 -0.078598 0.187169
-0.491357 -0.047629 0.157273
-0.476520 0.002144 0.186451
-0.467246 -0.032339 0.173109
-0.483768 -0.088120 0.133579
-0.400246 -0.215764 0.136688
-0.343782 -0.204989 0.185380
-0.293474 -0.238533 0.205750
-0.476549 0.032959 0.185999
-0.368154 -0.113308 0.204095
-0.468874 -0.135328 0.111701
-0.354977 -0.172201 0.183131
-0.318796 -0.205382 0.195980
-0.399599 -0.114714 0.173006
-0.410783 -0.047422 0.195295
-0.412184 -0.166115 0.139249
-0.483224 0.002405 0.156800
-0.479122 -0.110626 0.104819
-0.433740 -0.125590 0.132191
-0.413607 -0.116547 0.147504
-0.437600 -0.153174 0.110085
-0.488997 -0.058476 0.112287
-0.385559 -0.039764 0.201679
-0.318573 -0.156582 0.198252
-0.426994 0.002586 0.182931
-0.408472 -0.020011 0.185020
-0.342924 -0.133056 0.183910
-0.471471 -0.029965 0.128095
-0.288895 -0.183127 0.195724
-0.486706 -0.095927 0.080332
-0.332214 -0.083271 0.205118
-0.371151 -0.083306 0.171334
-0.393821 -0.097241 0.146846
-0.369584 -0.016076 0.202117
-0.244569 -0.231565 0.200179
-0.310635 -0.112428 0.199469
-0.496721 -0.076702 0.064011
-0.433998 -0.125655 0.091868
-0.448284 0.072013 0.169411
-0.482942 -0.110555 0.053084
-0.412450 0.049672 0.181923
-0.338869 -0.085395 0.177184
-0.479003 0.002089 0.106106
-0.263884 -0.159327 0.198180
-0.469136 0.065283 0.135688
-0.378747 0.022692 0.187809
-0.419620 -0.060278 0.116621
-0.289283 -0.126523 0.186032
-0.229736 -0.181194 0.206080
-0.279045 -0.096509 0.206066
-0.391835 -0.147878 0.091878
-0.397154 -0.134831 0.092047
-0.477720 -0.043784 0.066995
-0.496057 -0.087105 0.032084
-0.436347 0.110471 0.170044
-0.479569 0.042097 0.103887
-0.311584 -0.020598 0.206518
-0.482699 0.001434 0.076576
-0.452778 0.111918 0.148658
-0.245218 -0.114167 0.206345
-0.228583 -0.143498 0.205611
-0.351970 -0.074178 0.141662
-0.301153 -0.068213 0.180740
-0.319017 -0.149597 0.129564
-0.433900 -0.124769 0.049638
-0.485432 -0.110183 0.012879
-0.393672 0.024291 0.147877
-0.331057 0.015378 0.191514
-0.465988 0.085546 0.115961
-0.376169 -0.083728 0.108065
-0.476805 0.066794 0.083868
-0.323201 -0.066522 0.142854
-0.484014 0.026593 0.057568
-0.489891 -0.058410 0.012774
-0.262168 -0.016148 0.207257
-0.403667 0.113955 0.155290
-0.422767 0.032127 0.103470
-0.484116 -0.019612 0.028420
-0.359805 0.082947 0.171968
-0.442306 -0.129515 0.002673
-0.317791 0.056016 0.185609
-0.488971 -0.104083 -0.023294
-0.397179 -0.073422 0.062737
-0.459991 0.115340 0.098620
-0.428382 0.154230 0.138989
-0.285996 0.027890 0.192692
-0.284746 -0.068887 0.147667
-0.206440 -0.095900 0.194377
-0.482899 0.060434 0.047438
-0.474189 0.084531 0.064196
-0.231385 -0.016126 0.206648
-0.486683 0.005040 0.015519
-0.242438 -0.041753 0.184853
-0.214021 -0.044883 0.204465
-0.339893 -0.028541 0.113497
-0.383620 0.131369 0.151382
-0.284717 -0.025030 0.156357
-0.206111 -0.132917 0.161180
-0.315039 -0.051454 0.114369
-0.355953 0.124548 0.157339
-0.249026 -0.012907 0.177499
-0.280070 0.065037 0.186078
-0.446992 0.145240 0.091301
-0.432927 0.159412 0.106989
-0.254749 -0.029237 0.159995
-0.243521 0.029162 0.194417
-0.169124 -0.114987 0.184081
-0.229925 -0.059566 0.162543
-0.485684 0.044599 0.008737
-0.480284 -0.046770 -0.030484
-0.497332 -0.075163 -0.061326
-0.486090 -0.007003 -0.021154
-0.168686 -0.075201 0.195113
-0.210226 0.004667 0.198163
-0.475762 0.083111 0.022974
-0.436252 0.000776 0.015137
-0.300674 0.106571 0.168821
-0.145304 -0.165710 0.164169
-0.432635 0.174481 0.095706
-0.330917 0.134855 0.156047
-0.273498 0.070614 0.171960
-0.368507 0.162263 0.138916
-0.343547 -0.144172 0.015014
-0.462665 0.119778 0.041729
-0.253581 -0.080129 0.114444
-0.453423 0.140301 0.058287
-0.279704 -0.034205 0.114269
-0.410828 0.186769 0.108398
-0.486474 0.032318 -0.021819
-0.247848 0.066935 0.180767
-0.141909 -0.135015 0.165546
-0.130565 -0.111807 0.184771
-0.393578 -0.108268 -0.019463
-0.222138 -0.074032 0.129515
-0.169239 -0.011669 0.197425
-0.470690 -0.133128 -0.098927
-0.126170 -0.071703 0.196039
-0.383441 0.188107 0.115201
-0.211348 -0.105907 0.114152
-0.479817 -0.033774 -0.064500
-0.305362 0.144652 0.154451
-0.248019 -0.043927 0.113642
-0.190302 0.047050 0.193658
-0.427844 0.181640 0.069320
-0.172636 0.026262 0.196293
-0.257350 0.108921 0.167661
-0.439971 -0.146926 -0.094873
-0.164486 -0.047942 0.167468
-0.484515 -0.001591 -0.063340
-0.208345 0.064173 0.183010
-0.310217 -0.049700 0.052261
-0.131780 -0.032302 0.196611
-0.433758 0.107229 0.026023
-0.394612 0.229247 0.111546
-0.455815 0.140502 0.021214
-0.325904 0.174446 0.137717
-0.445867 0.160213 0.035431
-0.095105 -0.132483 0.169973
-0.473965 0.090702 -0.023186
-0.479574 0.069342 -0.039643
-0.216082 0.093820 0.177367
-0.491114 -0.059360 -0.111010
-0.354432 0.199316 0.116172
-0.203451 -0.102755 0.096014
-0.131961 0.005877 0.199054
-0.085021 -0.090962 0.190017
-0.476291 -0.039727 -0.092843
-0.174841 -0.166493 0.082439
-0.400561 -0.147404 -0.086430
-0.143973 0.035399 0.195625
-0.412541 0.229466 0.074550
-0.093479 -0.028360 0.197338
-0.479283 -0.010847 -0.098027
-0.320499 0.207080 0.125816
-0.255853 0.156960 0.150449
-0.464326 0.118324 -0.031210
-0.140567 -0.151973 0.096691
-0.154479 0.065879 0.184711
-0.441808 0.172435 0.009026
-0.484433 0.017317 -0.097246
-0.231360 0.140429 0.156570
-0.424226 -0.072137 -0.092234
-0.483169 0.058506 -0.079190
-0.060138 -0.050665 0.199278
-0.052798 -0.134765 0.165723
-0.273939 0.177957 0.138387
-0.041758 -0.110882 0.183885
-0.390551 -0.018858 -0.042495
-0.453435 0.144594 -0.019446
-0.285929 0.078145 0.081565
-0.115391 -0.162400 0.097220
-0.357235 0.194748 0.073396
-0.382040 -0.213024 -0.137596
-0.374908 -0.256363 -0.154371
-0.358554 0.210862 0.077170
-0.348371 -0.271988 -0.141576
-0.310072 0.204199 0.111149
-0.396794 -0.230228 -0.162105
-0.489960 -0.071635 -0.162892
-0.211235 0.117346 0.144721
-0.087850 0.027865 0.196516
-0.409387 0.080237 -0.028499
-0.028771 -0.064611 0.196424
-0.372752 -0.072573 -0.073556
-0.372408 0.230425 0.064298
-0.054464 -0.011006 0.197780
-0.247202 0.179659 0.137849
-0.409753 -0.194285 -0.165804
-0.387762 0.206312 0.039352
-0.116219 0.067047 0.184875
-0.392465 0.240583 0.049718
-0.411344 0.227360 0.027489
-0.254903 -0.135145 -0.016259
-0.408852 0.199124 0.015869
-0.198050 0.147156 0.155211
-0.459980 0.126041 -0.059051
-0.315789 0.193248 0.084033
-0.352711 -0.225976 -0.142313
-0.004203 -0.088287 0.190086
-0.351843 -0.161849 -0.113165
-0.002375 -0.131955 0.169224
-0.465334 0.109178 -0.080395
-0.341917 0.260758 0.086092
-0.159768 0.126506 0.164646
-0.480088 -0.036850 -0.162837
-0.269843 0.198599 0.112002
-0.388406 0.249515 0.041477
-0.134347 0.109803 0.172535
-0.386021 -0.246181 -0.192394
-0.018624 -0.028710 0.196024
0.019981 -0.112818 0.184733
-0.313067 0.240520 0.091610
-0.061244 0.046257 0.193790
0.008594 -0.117860 0.170249
-0.214291 0.182450 0.136801
-0.428592 0.031311 -0.100364
-0.291449 0.221112 0.093891
-0.441275 0.175314 -0.044978
-0.077984 0.067799 0.186099
-0.408361 -0.199253 -0.199267
-0.033988 0.028689 0.198181
0.024290 -0.070289 0.195766
-0.180483 0.166153 0.146079
-0.416645 0.216575 -0.014467
-0.478859 0.003178 -0.167160
-0.412553 0.229335 -0.010321
-0.200749 -0.084088 0.011263
-0.409747 0.200280 -0.023585
-0.081112 0.066601 0.169678
-0.007938 0.011169 0.196840
-0.398510 0.251322 0.005886
0.018266 -0.029302 0.195711
-0.447435 0.155722 -0.083039
-0.107215 0.124911 0.166479
0.060717 -0.129865 0.173116
-0.276240 0.249262 0.090692
-0.260995 0.211603 0.085414
0.060759 -0.091009 0.189846
-0.045611 0.069311 0.181201
-0.227992 0.224671 0.112260
-0.430030 0.148573 -0.080199
-0.209004 0.194302 0.110037
-0.022107 0.051802 0.185708
0.060183 -0.048314 0.198618
0.085604 -0.116208 0.186316
-0.357034 -0.109255 -0.152863
0.040139 -0.011334 0.196984
0.014511 0.029445 0.194848
-0.128344 0.165144 0.148393
-0.317871 -0.212473 -0.176368
-0.349644 -0.185504 -0.189351
-0.326392 0.196400 0.008471
-0.396459 0.252090 -0.022634
-0.097082 -0.116012 0.040811
-0.342282 -0.224539 -0.204529
-0.063379 -0.010358 0.112657
-0.042486 -0.075580 0.095566
0.084747 0.058763 0.247894
0.102291 -0.132605 0.170290
-0.216572 0.235702 0.096842
0.106600 -0.092893 0.189520
-0.152493 0.196533 0.126837
-0.055616 0.123007 0.163508
-0.411465 0.230196 -0.062373
-0.276184 -0.169818 -0.142503
-0.423617 0.054412 -0.154955
-0.015929 0.088449 0.175132
0.068025 0.006276 0.197033
0.230351 -0.238504 0.201901
0.090944 -0.030623 0.195796
-0.172161 0.224013 0.114759
0.211331 -0.208416 0.201785
0.082739 -0.161118 0.128876
0.138239 -0.118604 0.185192
-0.333847 -0.003420 -0.120810
-0.122419 -0.108341 -0.006385
-0.065292 -0.181954 -0.001931
-0.239310 -0.066107 -0.082574
-0.414652 0.130106 -0.133064
0.029052 0.070846 0.180151
0.089675 0.051330 0.215167
0.226608 -0.184447 0.206927
-0.080846 0.173144 0.143780
0.142982 -0.074040 0.195559
-0.087338 0.148383 0.125752
0.058671 0.047572 0.186533
0.179173 -0.151416 0.182216
0.285680 -0.268049 0.203827
-0.048608 0.156812 0.150276
-0.213657 0.201404 0.044425
0.163575 -0.094820 0.191379
-0.120012 0.192202 0.109854
0.009463 0.107815 0.168471
-0.221708 0.246534 0.055980
0.206919 -0.155046 0.192587
-0.331638 -0.063496 -0.173484
0.255399 -0.206319 0.202527
-0.138960 0.025845 0.018657
0.162170 -0.136565 0.166489
-0.012114 0.130581 0.159842
-0.127005 0.223971 0.114613
0.187779 -0.104890 0.197609
0.062968 -0.037416 0.136436
-0.032620 -0.178700 -0.001083
0.084913 0.084400 0.206176
0.109626 0.024557 0.194960
0.251072 -0.254487 0.169148
-0.356045 0.250232 -0.055759
0.136027 -0.008133 0.197512
0.212473 -0.207789 0.161665
0.086734 0.047638 0.186381
-0.202637 0.041420 -0.034349
0.180606 -0.065519 0.201041
0.249390 -0.214344 0.178327
0.205466 -0.177930 0.162618
0.061077 0.090331 0.173886
0.327037 -0.246360 0.208409
0.052200 0.078444 0.158128
0.246131 -0.121589 0.207496
0.219175 -0.061618 0.212245
0.031032 0.127869 0.160117
0.231333 -0.237968 0.138222
-0.013841 0.168440 0.144390
-0.376916 0.215864 -0.114464
0.298183 -0.205482 0.197318
-0.081210 0.223074 0.115197
0.211245 -0.142732 0.164555
0.191104 -0.058767 0.187997
-0.144614 0.149693 0.033177
0.012527 -0.176307 0.000139
0.273553 -0.163603 0.197050
0.182284 -0.018161 0.198048
-0.267320 0.153698 -0.061895
0.212995 -0.023680 0.213601
-0.055124 0.191513 0.113601
-0.396279 0.200400 -0.147515
0.209661 -0.159959 0.141192
0.275450 -0.128527 0.201679
0.106816 0.091533 0.174501
0.019863 0.166848 0.141754
0.180964 0.024977 0.193880
0.075588 0.124155 0.161227
0.256910 -0.088177 0.193492
0.367136 -0.219189 0.209086
0.158965 0.054252 0.182942
0.303149 -0.124494 0.199890
0.002566 0.101983 0.085191
0.056851 0.149467 0.145360
0.337270 -0.178173 0.197787
-0.017242 0.204618 0.114219
0.235645 -0.104317 0.156691
0.265949 -0.019970 0.215937
0.296080 -0.083951 0.208076
-0.000929 0.182230 0.112639
0.221839 -0.156702 0.121402
-0.279130 0.086174 -0.148406
0.307527 -0.103059 0.202615
0.232309 0.004766 0.196753
-0.247336 0.223235 -0.064876
0.083690 -0.175030 0.001375
0.142415 -0.125414 0.066743
0.380035 -0.174847 0.208859
0.351660 -0.138099 0.203658
0.178795 -0.024286 0.129886
0.129158 -0.185519 0.017869
-0.004983 -0.046862 -0.018525
0.347843 -0.096538 0.209102
0.259142 -0.085739 0.150678
-0.126624 -0.154160 -0.169350
0.220477 0.045438 0.181780
0.369221 -0.155900 0.193092
0.317778 -0.021354 0.213732
0.286491 -0.075426 0.165413
0.095710 -0.084718 0.022166
0.388254 -0.134539 0.207957
0.272989 0.009583 0.192315
0.305745 -0.120561 0.155779
-0.203142 0.002030 -0.166664
0.107641 -0.161768 -0.007556
-0.040469 -0.118814 -0.099599
0.160373 0.084025 0.142739
0.118751 0.039857 0.092670
-0.093329 -0.056968 -0.112819
0.302633 0.004274 0.203044
-0.160250 -0.078022 -0.179144
-0.001753 0.191388 0.064293
0.164683 -0.165323 0.021900
0.001476 0.234770 0.081779
0.201022 -0.194450 0.024718
-0.153936 0.109116 -0.102371
0.262964 0.046043 0.175565
0.284604 -0.078741 0.128463
0.355208 -0.006150 0.209967
0.383484 -0.047567 0.207881
0.326942 0.003865 0.189524
0.246748 -0.076117 0.095401
0.146360 -0.163459 -0.019827
-0.076904 0.157985 -0.041291
0.225263 -0.173456 0.027298
0.313420 -0.010502 0.162043
0.298486 0.041394 0.171138
0.395389 -0.074206 0.187361
0.369252 -0.032641 0.185822
0.402329 -0.106462 0.172297
-0.004891 0.250701 0.040225
-0.000344 0.201841 0.018305
0.255913 0.063928 0.141400
0.275712 -0.204661 0.031427
0.168310 -0.139872 -0.016172
0.313487 -0.076300 0.109927
0.362247 0.004302 0.180752
0.192077 -0.048177 0.035334
0.356401 -0.057785 0.142767
-0.120973 0.139715 -0.117465
0.275305 -0.165553 0.031114
0.022623 -0.113698 -0.134781
-0.070666 0.017275 -0.144255
0.430696 -0.070235 0.180163
0.339388 -0.101970 0.100761
0.152512 0.029262 0.025095
0.383211 -0.054927 0.149725
0.366042 -0.032938 0.145741
0.332099 0.041935 0.154770
0.346820 -0.078015 0.110209
-0.000189 0.206033 -0.014897
-0.123960 0.224215 -0.108330
0.228249 -0.162118 -0.025328
0.334465 -0.032621 0.110494
0.131639 -0.117632 -0.086127
0.405309 0.009847 0.164713
0.394588 -0.084118 0.111442
0.379942 -0.056022 0.113663
0.233197 0.048932 0.057634
-0.001086 0.255058 -0.022197
0.383186 0.031499 0.150828
0.135367 -0.044158 -0.068562
0.318690 -0.142512 0.018055
0.277955 -0.164820 -0.028235
0.328395 0.033589 0.095750
0.089893 0.029440 -0.079864
0.359316 -0.022014 0.081891
-0.054182 0.224761 -0.110170
0.306928 -0.166951 -0.029426
0.019936 0.054875 -0.141053
0.002089 0.235484 -0.077452
0.142475 -0.176272 -0.169438
0.069074 -0.090820 -0.185638
0.378509 -0.088359 0.040217
0.226133 0.064510 0.000361
0.261533 -0.257812 -0.137668
0.252772 -0.220351 -0.134609
0.336038 -0.127429 -0.032368
0.236641 -0.064134 -0.074466
0.148322 -0.012803 -0.126180
0.320069 -0.017584 -0.002918
0.101254 -0.011310 -0.166634
0.301647 -0.247920 -0.132822
0.224119 -0.218468 -0.189658
0.242551 -0.120043 -0.129034
0.252837 -0.251598 -0.191293
0.337599 -0.257461 -0.132270
0.276390 -0.265384 -0.182757
0.214254 -0.188152 -0.196353
0.276102 -0.193435 -0.165993
0.154948 0.055976 -0.138289
0.202316 0.081396 -0.093838
0.370755 -0.086408 -0.057831
0.192910 -0.082400 -0.187526
0.269826 0.045707 -0.070695
0.322166 -0.227945 -0.163330
0.367563 -0.229343 -0.131441
0.367540 0.028926 -0.032331
0.295335 -0.142446 -0.179377
0.324923 -0.226814 -0.200597
0.390548 -0.174408 -0.131905
0.247926 -0.009225 -0.169386
0.352557 -0.042278 -0.120081
0.365303 -0.107156 -0.150959
0.348524 0.029273 -0.108970
0.302109 0.033057 -0.151512
0.368159 -0.034810 -0.176553
