0.137732 -0.068895 0.118653
0.131335 -0.058999 0.127073
0.133673 -0.009757 0.139666
0.142203 -0.058484 0.128717
0.143996 -0.057596 0.143063
0.141447 -0.093002 0.117228
0.112971 -0.030799 0.151841
0.137543 -0.081371 0.150419
0.109125 -0.049110 0.140552
0.130192 -0.108148 0.139702
0.160984 -0.044034 0.125619
0.122963 -0.023426 0.132955
0.144083 -0.030354 0.129252
0.155872 -0.065501 0.138170
0.117516 -0.077965 0.121916
0.150558 -0.029500 0.136656
0.119908 -0.093858 0.132379
0.148342 -0.092508 0.135241
0.135456 -0.065331 0.141196
0.124606 -0.044546 0.118012
0.136476 -0.035321 0.145428
0.143260 -0.048488 0.115707
0.150508 -0.070235 0.124322
0.110004 -0.039294 0.122847
0.128475 -0.038746 0.134126
0.134643 -0.028297 0.122017
0.126603 -0.054926 0.149478
0.148102 -0.014735 0.124887
0.106433 -0.067954 0.136399
0.147856 -0.053658 0.133781
0.133662 -0.079443 0.131416
-0.098951 0.124444 0.105275
-0.073703 0.120406 0.027816
-0.093794 0.130662 0.056729
-0.058429 0.179178 0.091573
-0.067619 0.139733 0.053885
-0.041472 0.150526 0.110253
-0.059177 0.081614 0.044722
-0.119819 0.161565 0.109801
-0.049287 0.110496 0.116413
-0.113646 0.147307 0.089874
-0.073430 0.065393 0.098882
0.000035 0.142570 0.057187
-0.102653 0.176089 0.069058
-0.059336 0.157603 0.069695
-0.009511 0.130590 0.099030
-0.124546 0.119797 0.038758
-0.021526 0.157622 0.084457
-0.110802 0.084044 0.072256
-0.029931 0.090716 0.086225
-0.063551 0.135151 0.095230
-0.106253 0.146008 0.028620
-0.081632 0.155702 0.098249
-0.045767 0.144551 0.028432
-0.027168 0.117112 0.047376
-0.143017 0.159888 0.054228
-0.085727 0.144853 0.076184
-0.075733 0.167022 0.041159
-0.078817 0.140606 0.121945
-0.039747 0.173382 0.053063
-0.149307 0.133334 0.082035
-0.041129 0.135526 0.073736
-0.069780 0.111522 0.076522
0.051464 0.013031 0.140950
0.057795 0.009791 0.099742
0.054098 0.018541 0.111499
0.053586 0.058503 0.130943
0.062251 0.018028 0.113889
0.068516 0.020633 0.137281
0.065492 -0.008561 0.102105
0.037158 0.042512 0.146692
0.064901 0.002871 0.145282
0.034552 0.028207 0.130313
0.056187 -0.017809 0.129293
0.089788 0.026888 0.111721
0.042768 0.049057 0.119326
0.064269 0.039039 0.115284
0.084564 0.012771 0.130348
0.038371 0.004030 0.103213
0.074532 0.038580 0.125372
0.046645 -0.008514 0.115497
0.072994 -0.004487 0.122404
0.058887 0.016573 0.130748
0.046458 0.030004 0.102579
0.054655 0.036307 0.135946
0.067009 0.025350 0.100829
0.077532 0.010006 0.108816
0.031739 0.032935 0.107448
0.049768 0.032171 0.122953
0.056924 0.041121 0.109930
0.051911 0.025139 0.145293
0.068432 0.052889 0.112218
0.031920 0.011578 0.122787
0.068330 0.020973 0.120695
0.058995 0.006040 0.120058
0.199601 -0.119699 0.145843
0.207944 -0.124855 0.083342
0.196922 -0.119510 0.106687
0.200363 -0.072226 0.137781
0.208849 -0.118895 0.106286
0.216258 -0.103386 0.153685
0.216514 -0.150282 0.093863
0.182132 -0.087228 0.153638
0.220021 -0.135340 0.149220
0.182164 -0.103296 0.136083
0.218732 -0.164868 0.130778
0.234111 -0.112001 0.107853
0.184213 -0.080652 0.119877
0.206367 -0.099503 0.119666
0.232550 -0.123890 0.143448
0.186463 -0.124760 0.093495
0.223807 -0.098694 0.133274
0.203654 -0.146549 0.115973
0.222087 -0.144190 0.122868
0.208052 -0.118525 0.141172
0.191083 -0.108782 0.078563
0.193384 -0.095097 0.141653
0.213637 -0.109131 0.086760
0.221954 -0.131388 0.102056
0.166697 -0.094503 0.100473
0.194628 -0.110930 0.124277
0.200011 -0.093948 0.090170
0.205596 -0.107390 0.160305
0.209027 -0.081837 0.100112
0.164902 -0.118884 0.127886
0.212632 -0.120601 0.117632
0.214623 -0.133984 0.128292
0.243629 -0.201664 0.164257
0.253183 -0.210398 0.108559
0.250077 -0.201845 0.131616
0.254170 -0.147612 0.157788
0.262109 -0.201946 0.138503
0.270710 -0.190328 0.158321
0.262726 -0.214542 0.113478
0.233557 -0.170229 0.163496
0.262030 -0.207171 0.163517
0.231203 -0.191503 0.156020
0.241364 -0.222037 0.148537
0.297374 -0.188434 0.133418
0.245385 -0.167840 0.144154
0.264641 -0.174894 0.138241
0.291287 -0.203082 0.157806
0.237451 -0.206987 0.119931
0.280985 -0.167250 0.152068
0.236120 -0.210472 0.140093
0.268202 -0.214280 0.150761
0.254837 -0.204895 0.159699
0.244498 -0.189684 0.101898
0.255939 -0.175274 0.160598
0.266769 -0.194074 0.107592
0.279672 -0.205671 0.123699
0.234272 -0.184072 0.121330
0.249243 -0.184776 0.143622
0.258471 -0.171939 0.120370
0.248327 -0.192856 0.165757
0.271356 -0.158972 0.129030
0.231835 -0.203126 0.152276
0.271571 -0.195632 0.146795
0.255672 -0.210931 0.143618
-0.049622 0.115473 0.129416
-0.032779 0.124238 0.080348
-0.037427 0.132528 0.091943
-0.043335 0.165403 0.100061
-0.027640 0.132223 0.091923
-0.025065 0.121484 0.119111
-0.025439 0.096944 0.086141
-0.065882 0.146035 0.126491
-0.029510 0.105126 0.136341
-0.062879 0.135773 0.112716
-0.036296 0.081571 0.126368
-0.008775 0.140153 0.087491
-0.055178 0.157876 0.090899
-0.027946 0.150509 0.087352
-0.012613 0.121766 0.113379
-0.057467 0.113614 0.086963
-0.020034 0.147999 0.100914
-0.049989 0.094043 0.106392
-0.019967 0.098662 0.113626
-0.034127 0.123141 0.116518
-0.052246 0.148085 0.074662
-0.040310 0.141875 0.116447
-0.026371 0.141643 0.074776
-0.016234 0.122632 0.089609
-0.072730 0.147077 0.082211
-0.045349 0.143991 0.099564
-0.038575 0.156247 0.079539
-0.044899 0.128278 0.131433
-0.023668 0.162364 0.078047
-0.066753 0.120991 0.109274
-0.023455 0.130920 0.101758
-0.035415 0.111677 0.105932
-0.149076 0.082325 0.037675
-0.140270 0.079534 -0.038761
-0.124930 0.099725 -0.009543
-0.159050 0.188944 0.021797
-0.119548 0.103569 0.000935
-0.117884 0.064737 0.026975
-0.122241 0.055259 -0.028832
-0.184034 0.154541 0.035549
-0.126137 0.067018 0.041354
-0.180376 0.117319 0.023297
-0.137295 0.038028 0.027769
-0.107326 0.125640 0.006827
-0.171016 0.168862 -0.002158
-0.116106 0.144241 -0.007946
-0.108836 0.088473 0.022203
-0.159163 0.051556 -0.025542
-0.123085 0.142382 0.020924
-0.142389 0.048847 0.002231
-0.117845 0.063806 0.016525
-0.137686 0.095001 0.023695
-0.170424 0.126641 -0.045537
-0.136575 0.142164 0.033813
-0.139887 0.110591 -0.032369
-0.114552 0.091388 -0.011277
-0.195925 0.132026 -0.029772
-0.150661 0.138333 0.013007
-0.151236 0.152417 -0.017514
-0.143612 0.110276 0.038795
-0.129404 0.174091 -0.006916
-0.168777 0.079378 0.011985
-0.123037 0.112150 0.015755
-0.134316 0.072943 0.008490
0.151335 -0.074002 0.147190
0.155470 -0.078771 0.116576
0.151223 -0.071004 0.125167
0.156911 -0.028840 0.141871
0.161741 -0.070690 0.128080
0.166148 -0.065689 0.143295
0.161827 -0.095519 0.113952
0.138057 -0.045778 0.152041
0.160437 -0.084955 0.148738
0.132822 -0.061799 0.140335
0.151393 -0.108141 0.135154
0.183251 -0.059325 0.125323
0.145352 -0.041579 0.134598
0.163666 -0.049002 0.130770
0.178847 -0.074955 0.139786
0.138719 -0.083405 0.119290
0.173832 -0.044758 0.137249
0.142268 -0.092813 0.129161
0.168562 -0.093233 0.132843
0.157133 -0.074238 0.141525
0.146677 -0.060360 0.117135
0.158141 -0.048816 0.146122
0.164316 -0.063609 0.114654
0.171496 -0.078501 0.121619
0.134358 -0.054933 0.122401
0.149328 -0.053858 0.134729
0.157672 -0.046252 0.121549
0.148981 -0.064670 0.149077
0.168128 -0.034686 0.125535
0.131748 -0.075796 0.135062
0.168844 -0.066734 0.132860
0.155613 -0.082978 0.131063
-0.114415 0.154434 0.067295
-0.100157 0.146758 -0.012652
-0.104570 0.155168 0.011548
-0.092038 0.187005 0.052860
-0.091109 0.157600 0.025934
-0.074792 0.148019 0.061710
-0.087165 0.119664 -0.000949
-0.136035 0.175080 0.072986
-0.080304 0.143896 0.074188
-0.128957 0.168089 0.050852
-0.098777 0.109007 0.052344
-0.059049 0.163513 0.022178
-0.119794 0.178749 0.026163
-0.083978 0.169892 0.024101
-0.063145 0.158269 0.051018
-0.131036 0.135721 -0.002044
-0.068609 0.170420 0.044025
-0.119538 0.121942 0.024191
-0.074252 0.130089 0.042546
-0.091384 0.158309 0.057498
-0.121241 0.161640 -0.015028
-0.101656 0.168236 0.061518
-0.087929 0.155533 -0.008308
-0.071107 0.149795 0.008465
-0.149745 0.163995 0.006805
-0.107797 0.164541 0.037966
-0.098039 0.170621 0.010670
-0.101699 0.166650 0.080726
-0.079327 0.179964 0.017832
-0.141837 0.157040 0.039157
-0.076479 0.159774 0.036460
-0.094968 0.144739 0.036862
-0.002278 0.067848 0.147502
0.015991 0.073724 0.091090
0.009555 0.084498 0.104258
-0.000799 0.125332 0.115884
0.019718 0.083035 0.105848
0.021225 0.077206 0.135638
0.024594 0.051241 0.098358
-0.020617 0.102739 0.141896
0.019698 0.058265 0.155777
-0.015446 0.087898 0.128821
0.013293 0.039964 0.143818
0.041148 0.090919 0.101341
-0.009675 0.118464 0.107117
0.019060 0.106656 0.101684
0.038303 0.072688 0.128980
-0.012235 0.068024 0.098095
0.025332 0.101821 0.115582
-0.002376 0.049879 0.120759
0.030503 0.052774 0.130410
0.014709 0.074490 0.133844
-0.005400 0.100499 0.086328
0.004823 0.097696 0.132040
0.023047 0.093813 0.086734
0.035182 0.073556 0.101548
-0.027470 0.102304 0.096044
0.001628 0.098683 0.114393
0.006908 0.113698 0.092097
0.002151 0.080734 0.148955
0.021381 0.123624 0.092155
-0.021590 0.072052 0.125454
0.025049 0.082142 0.116004
0.013462 0.064219 0.121791
-0.171115 0.147366 0.034729
-0.150433 0.138070 -0.047910
-0.145224 0.153064 -0.022357
-0.167623 0.218297 0.020697
-0.139478 0.154116 -0.004776
-0.131894 0.130509 0.018875
-0.133181 0.116095 -0.040455
-0.202166 0.199639 0.033137
-0.136291 0.130133 0.035616
-0.188079 0.169162 0.018889
-0.151556 0.105110 0.021903
-0.103380 0.167491 -0.002895
-0.185052 0.212085 -0.008905
-0.137041 0.184348 -0.016647
-0.110211 0.147548 0.015537
-0.170762 0.116973 -0.037742
-0.128337 0.188348 0.013112
-0.160829 0.114136 -0.009129
-0.123354 0.126233 0.009613
-0.150162 0.150068 0.016720
-0.175062 0.174497 -0.054661
-0.161807 0.187480 0.029783
-0.141360 0.158556 -0.046363
-0.119074 0.147314 -0.021918
-0.203935 0.181894 -0.037561
-0.168244 0.179619 0.004094
-0.163370 0.197067 -0.025892
-0.163168 0.161434 0.037130
-0.141525 0.209695 -0.015258
-0.179185 0.143750 0.003828
-0.135538 0.160401 0.006693
-0.148206 0.133323 -0.000140
0.208527 -0.122683 0.164000
0.207027 -0.125101 0.101932
0.207726 -0.118328 0.120798
0.194898 -0.071989 0.146250
0.207878 -0.119473 0.128444
0.208263 -0.116284 0.152430
0.209463 -0.147449 0.102083
0.200659 -0.087434 0.161776
0.209875 -0.143138 0.162763
0.201465 -0.106507 0.147156
0.211108 -0.167157 0.146360
0.227251 -0.105284 0.123575
0.199837 -0.088365 0.131661
0.202849 -0.093766 0.124132
0.223845 -0.124487 0.148473
0.208640 -0.131570 0.112599
0.212253 -0.093943 0.143209
0.209882 -0.146049 0.130533
0.210706 -0.140539 0.139582
0.204238 -0.124444 0.153013
0.202409 -0.104576 0.094025
0.199765 -0.096043 0.151715
0.206859 -0.111186 0.104323
0.211463 -0.130151 0.119916
0.199147 -0.100842 0.106086
0.201067 -0.103883 0.133317
0.203943 -0.092876 0.108824
0.205288 -0.110716 0.164530
0.201768 -0.078721 0.116104
0.204931 -0.121875 0.139386
0.203520 -0.114366 0.135859
0.207534 -0.134734 0.141478
-0.263376 -0.070283 -0.130563
-0.228510 -0.067662 -0.185625
-0.243727 -0.063484 -0.171946
-0.215540 0.032911 -0.149037
-0.220872 -0.050343 -0.169085
-0.185044 -0.045011 -0.126579
-0.203551 -0.088580 -0.172680
-0.279821 -0.016149 -0.125382
-0.199224 -0.072479 -0.122945
-0.277167 -0.049313 -0.145270
-0.239719 -0.092403 -0.143229
-0.126786 -0.049549 -0.171057
-0.263036 0.017347 -0.168277
-0.196046 -0.020971 -0.162850
-0.139038 -0.064274 -0.135847
-0.289896 -0.071103 -0.181583
-0.159021 -0.026459 -0.152376
-0.273129 -0.092775 -0.165217
-0.175104 -0.084850 -0.147604
-0.215982 -0.057790 -0.141814
-0.267460 -0.042295 -0.187258
-0.229743 -0.017254 -0.139043
-0.197003 -0.042359 -0.183492
-0.163877 -0.067315 -0.178410
-0.309506 -0.022957 -0.174441
-0.243276 -0.042289 -0.155698
-0.232311 -0.006328 -0.183149
-0.231890 -0.056568 -0.118586
-0.168138 0.016037 -0.176348
-0.310154 -0.061760 -0.155260
-0.183486 -0.054452 -0.156733
-0.228463 -0.077464 -0.158716
0.236187 -0.161686 0.167306
0.240470 -0.163183 0.129110
0.233589 -0.150696 0.144155
0.236300 -0.105822 0.165215
0.245422 -0.150720 0.147231
0.250100 -0.149769 0.164601
0.247602 -0.197304 0.129033
0.218417 -0.122703 0.169631
0.245316 -0.181872 0.168681
0.218537 -0.141468 0.162659
0.240199 -0.221317 0.157429
0.282370 -0.137406 0.141538
0.225588 -0.120709 0.157183
0.242017 -0.125793 0.150067
0.277340 -0.161943 0.162434
0.227157 -0.171422 0.139380
0.262240 -0.118760 0.159322
0.225821 -0.192589 0.152541
0.265826 -0.196141 0.154422
0.240963 -0.160404 0.163279
0.229934 -0.137962 0.128253
0.238173 -0.129095 0.167323
0.252717 -0.142422 0.126946
0.262537 -0.167783 0.139335
0.217665 -0.133675 0.137371
0.230660 -0.133522 0.154112
0.239430 -0.121589 0.134610
0.231265 -0.148971 0.168832
0.252502 -0.112105 0.143000
0.217892 -0.157198 0.158309
0.254269 -0.146524 0.155032
0.239934 -0.175087 0.152001
-0.129086 -0.044831 0.045340
-0.095499 -0.051875 -0.046742
-0.115575 -0.038589 -0.014636
-0.075695 0.050138 0.027751
-0.087438 -0.015322 -0.022816
-0.063405 0.007313 0.047517
-0.078735 -0.061903 -0.021043
-0.140106 0.024443 0.043458
-0.064624 -0.049374 0.054836
-0.127237 -0.012058 0.022393
-0.099037 -0.062368 0.042647
-0.022036 -0.008971 -0.009151
-0.116067 0.045934 -0.001829
-0.075007 0.018623 -0.000543
-0.025786 -0.042162 0.036617
-0.153327 -0.050489 -0.037734
-0.038186 0.012534 0.022790
-0.132951 -0.057277 0.006106
-0.052194 -0.060220 0.018178
-0.085401 -0.020888 0.032293
-0.125899 -0.002840 -0.038051
-0.102698 0.021557 0.031644
-0.061173 -0.002513 -0.045555
-0.037851 -0.046704 -0.024167
-0.164935 0.016527 -0.008673
-0.104560 -0.004153 0.007913
-0.091210 0.033948 -0.034644
-0.101584 -0.011873 0.060553
-0.052374 0.043466 -0.016768
-0.184811 -0.044159 0.017671
-0.062267 -0.023801 0.006061
-0.092712 -0.051410 0.008356
0.151121 -0.092466 0.131551
0.152573 -0.100439 0.065027
0.149406 -0.094053 0.078047
0.143996 -0.054164 0.108130
0.158017 -0.097832 0.090178
0.165983 -0.090132 0.119092
0.169576 -0.112624 0.065527
0.131875 -0.067441 0.136502
0.165296 -0.102433 0.131793
0.125564 -0.081237 0.109561
0.164992 -0.115837 0.103855
0.157105 -0.086151 0.084996
0.133726 -0.068517 0.090516
0.155203 -0.077668 0.087027
0.163844 -0.098761 0.109767
0.127335 -0.100173 0.069705
0.159719 -0.075254 0.103120
0.152720 -0.104082 0.086260
0.160793 -0.104108 0.097428
0.158000 -0.094406 0.117399
0.139876 -0.084787 0.058657
0.147580 -0.075600 0.119207
0.152739 -0.089195 0.066058
0.163599 -0.099263 0.077444
0.115207 -0.080793 0.074540
0.143457 -0.084866 0.098147
0.149091 -0.077236 0.073388
0.151549 -0.080786 0.139304
0.153408 -0.064485 0.079466
0.107935 -0.093521 0.101761
0.160979 -0.095292 0.094563
0.162323 -0.099475 0.099747
-0.013120 0.096470 0.135222
0.003685 0.103993 0.088584
-0.003568 0.114148 0.097790
-0.009156 0.151820 0.105457
0.007575 0.113414 0.098322
0.013433 0.103639 0.126024
0.013726 0.079427 0.094094
-0.032464 0.129554 0.130490
0.010958 0.086254 0.144894
-0.027457 0.116820 0.118000
0.004037 0.064825 0.134650
0.034878 0.119890 0.094975
-0.022609 0.145837 0.098478
0.007730 0.134860 0.094439
0.030914 0.101277 0.120786
-0.025524 0.097000 0.093853
0.018270 0.131642 0.107002
-0.015110 0.077545 0.113937
0.022323 0.079925 0.123004
0.004124 0.102810 0.123308
-0.019365 0.130517 0.083893
-0.004306 0.125766 0.122241
0.011401 0.123630 0.083251
0.026273 0.102476 0.096866
-0.043323 0.132219 0.089231
-0.009810 0.128274 0.105406
-0.005330 0.143100 0.086790
-0.008184 0.108906 0.137900
0.013566 0.150547 0.085401
-0.037015 0.102763 0.115958
0.015847 0.111271 0.107901
0.001614 0.092330 0.112721
-0.131347 0.155571 0.077875
-0.104008 0.158037 0.015352
-0.108490 0.163747 0.031968
-0.102271 0.205570 0.059807
-0.098652 0.165255 0.042802
-0.089601 0.161613 0.066050
-0.095369 0.143417 0.021697
-0.148128 0.192187 0.074510
-0.098016 0.150835 0.079301
-0.137124 0.171514 0.062631
-0.116148 0.134252 0.068259
-0.067516 0.176913 0.040244
-0.126613 0.202279 0.041223
-0.087223 0.191311 0.033785
-0.079998 0.161078 0.059652
-0.141261 0.146200 0.021896
-0.079794 0.191375 0.054204
-0.130131 0.142392 0.044992
-0.091699 0.147357 0.060039
-0.103142 0.159275 0.063484
-0.124306 0.184475 0.011303
-0.107271 0.188093 0.069318
-0.092362 0.172205 0.011858
-0.079385 0.161705 0.031227
-0.157214 0.186181 0.024372
-0.116369 0.184858 0.049761
-0.103276 0.195216 0.026332
-0.114311 0.166886 0.080768
-0.078143 0.204265 0.030577
-0.152966 0.157162 0.056429
-0.086657 0.168671 0.050245
-0.109681 0.153033 0.049397
0.172466 -0.078277 0.158237
0.174631 -0.083235 0.115740
0.175122 -0.074941 0.128310
0.172700 -0.032343 0.149372
0.183891 -0.075722 0.134495
0.185124 -0.069655 0.151791
0.182088 -0.096638 0.113504
0.161315 -0.048078 0.160215
0.181395 -0.088189 0.159510
0.156427 -0.065650 0.148128
0.172185 -0.106764 0.144482
0.198307 -0.062742 0.130549
0.166880 -0.045559 0.139911
0.183113 -0.051812 0.132894
0.195112 -0.079549 0.148800
0.163077 -0.085461 0.120974
0.189144 -0.048174 0.144900
0.166263 -0.091398 0.135376
0.184971 -0.093401 0.142706
0.176673 -0.079134 0.152322
0.166301 -0.063434 0.112552
0.177908 -0.053097 0.153882
0.180552 -0.067344 0.113042
0.188324 -0.081878 0.124805
0.157074 -0.059527 0.120940
0.170971 -0.058220 0.139845
0.176691 -0.049691 0.122270
0.172057 -0.068631 0.159145
0.183710 -0.037617 0.127211
0.158004 -0.079643 0.142701
0.185825 -0.071749 0.140937
0.177886 -0.085621 0.139177
0.045268 -0.044726 0.124271
0.062406 -0.048213 0.055750
0.046095 -0.042394 0.072869
0.086558 0.014292 0.108088
0.068518 -0.033356 0.077165
0.104524 -0.021421 0.130563
0.080380 -0.063639 0.069877
0.027039 -0.009089 0.129119
0.093206 -0.048022 0.135744
0.033007 -0.027914 0.106532
0.065672 -0.069789 0.112937
0.135578 -0.027252 0.079312
0.041592 0.006874 0.085679
0.081836 -0.011099 0.086574
0.128439 -0.037998 0.121226
0.019071 -0.047539 0.060652
0.119650 -0.011058 0.102405
0.035692 -0.061537 0.087618
0.101505 -0.056358 0.105441
0.078527 -0.036040 0.114590
0.037223 -0.026134 0.054488
0.062658 -0.011601 0.116710
0.090173 -0.027041 0.056332
0.110333 -0.046480 0.069071
0.008731 -0.014486 0.074170
0.054939 -0.023331 0.093964
0.066319 -0.003097 0.062909
0.065197 -0.030132 0.140297
0.103042 0.007249 0.072720
0.001668 -0.039486 0.098442
0.099340 -0.035375 0.089148
0.069330 -0.050720 0.094255
-0.052091 -0.135637 0.041314
-0.034753 -0.138465 -0.035205
-0.034759 -0.133683 -0.014470
-0.021873 -0.097369 0.019260
-0.022732 -0.129667 -0.004063
-0.003591 -0.128353 0.030383
-0.014704 -0.146265 -0.020476
-0.068751 -0.116516 0.043084
-0.023607 -0.137252 0.045348
-0.062780 -0.124270 0.023278
-0.042361 -0.157550 0.025108
0.013530 -0.129719 -0.004538
-0.047057 -0.109871 -0.004280
-0.014885 -0.119120 -0.001127
0.012422 -0.133741 0.025734
-0.063906 -0.137748 -0.019913
0.006672 -0.116521 0.010538
-0.057567 -0.143686 0.002454
-0.010492 -0.142667 0.019435
-0.023924 -0.131692 0.029762
-0.049232 -0.126287 -0.042338
-0.031357 -0.114694 0.030456
-0.014815 -0.126042 -0.036332
0.001119 -0.135806 -0.018606
-0.068054 -0.122254 -0.013581
-0.039712 -0.123124 0.012262
-0.020607 -0.115677 -0.024352
-0.040232 -0.125583 0.048754
-0.005360 -0.108124 -0.017328
-0.068275 -0.132661 0.018952
-0.005259 -0.130243 0.007441
-0.026038 -0.139208 0.012581
0.075668 0.034617 0.174281
0.075500 0.036912 0.124632
0.079777 0.049316 0.137134
0.060758 0.067905 0.148367
0.080839 0.044583 0.141431
0.080973 0.031394 0.162668
0.078022 0.015418 0.125038
0.065614 0.061444 0.174197
0.080287 0.019787 0.177465
0.061329 0.055031 0.156761
0.075136 0.005775 0.161630
0.092818 0.055931 0.135905
0.062787 0.066636 0.136455
0.077944 0.061679 0.133364
0.087154 0.038221 0.157388
0.069735 0.024399 0.131907
0.079161 0.060347 0.148463
0.074427 0.013338 0.142805
0.082132 0.018840 0.150855
0.076640 0.038746 0.160459
0.068630 0.060232 0.122089
0.069516 0.053667 0.159227
0.077675 0.049722 0.123163
0.083388 0.036613 0.137864
0.059486 0.057334 0.126791
0.069505 0.057153 0.144267
0.072379 0.063005 0.128755
0.072839 0.045920 0.176006
0.073525 0.066289 0.129050
0.065953 0.037283 0.149594
0.077667 0.048371 0.146597
0.078010 0.028381 0.147635
0.098195 -0.006924 0.143506
0.110483 -0.009049 0.115734
0.100719 -0.001491 0.122750
0.107067 0.039102 0.135101
0.110191 -0.000738 0.122362
0.119616 0.003251 0.140667
0.117639 -0.024260 0.116691
0.083649 0.022106 0.148090
0.114279 -0.015991 0.149200
0.082465 0.007107 0.135777
0.104496 -0.033988 0.135959
0.148251 0.007116 0.120982
0.092338 0.030603 0.128827
0.114694 0.019718 0.125246
0.139973 -0.007121 0.135499
0.085328 -0.013260 0.117996
0.129809 0.019389 0.130469
0.092554 -0.024874 0.126837
0.126560 -0.023937 0.130139
0.108803 -0.003421 0.134805
0.098117 0.010926 0.120088
0.104844 0.016158 0.139603
0.122020 0.006350 0.115334
0.132385 -0.010018 0.120046
0.080439 0.014712 0.121791
0.098584 0.012120 0.130090
0.108054 0.023227 0.121930
0.098748 0.003981 0.147522
0.124324 0.033643 0.122882
0.075492 -0.007286 0.131427
0.122374 0.001899 0.127043
0.106579 -0.014161 0.127223
0.225058 -0.207412 0.150314
0.227310 -0.212685 0.092230
0.222317 -0.201644 0.110576
0.222417 -0.156193 0.134985
0.232534 -0.205203 0.115215
0.245189 -0.196702 0.140446
0.244139 -0.216975 0.097989
0.208196 -0.177662 0.148760
0.241660 -0.215230 0.153395
0.209062 -0.193255 0.137383
0.227562 -0.222529 0.135332
0.283285 -0.198427 0.111921
0.213504 -0.173877 0.121344
0.230788 -0.183991 0.116611
0.281296 -0.210440 0.142387
0.217826 -0.207564 0.103066
0.261029 -0.177086 0.130011
0.220161 -0.211548 0.121737
0.255355 -0.218755 0.136004
0.231000 -0.207438 0.139535
0.218479 -0.192039 0.085699
0.224558 -0.183581 0.141298
0.245263 -0.199417 0.090910
0.263020 -0.212065 0.104812
0.210032 -0.187402 0.101523
0.218714 -0.190401 0.126329
0.229473 -0.178363 0.099038
0.222171 -0.198229 0.150950
0.239959 -0.167589 0.107145
0.216549 -0.204711 0.132496
0.245239 -0.200930 0.125317
0.232905 -0.214556 0.125518
-0.327767 0.142992 -0.025166
-0.300988 0.139787 -0.092055
-0.310489 0.144943 -0.069016
-0.289579 0.221881 -0.033563
-0.293720 0.164382 -0.069483
-0.270925 0.178266 -0.022060
-0.279074 0.113854 -0.076101
-0.338278 0.207690 -0.020349
-0.277834 0.134510 -0.021584
-0.333495 0.171752 -0.038158
-0.304457 0.100516 -0.034623
-0.204175 0.171560 -0.064429
-0.322202 0.215749 -0.059887
-0.283078 0.193383 -0.056163
-0.217528 0.143436 -0.033172
-0.333155 0.128187 -0.079414
-0.237580 0.197306 -0.041842
-0.324593 0.113801 -0.059989
-0.248361 0.119879 -0.043776
-0.294574 0.157443 -0.040190
-0.323073 0.173354 -0.090656
-0.312274 0.195951 -0.031825
-0.264877 0.177509 -0.092790
-0.239863 0.139340 -0.074922
-0.352465 0.197361 -0.067606
-0.315889 0.170759 -0.049488
-0.304497 0.204055 -0.080158
-0.312192 0.166074 -0.013899
-0.257015 0.213701 -0.068140
-0.340182 0.146376 -0.049630
-0.270265 0.156676 -0.051416
-0.301051 0.130263 -0.054212
0.120057 -0.030056 0.144589
0.136503 -0.031140 0.111112
0.124522 -0.023098 0.121916
0.134616 0.020417 0.134360
0.136433 -0.020689 0.122389
0.146078 -0.016960 0.141036
0.141460 -0.048562 0.113297
0.106004 0.002643 0.148006
0.139937 -0.039070 0.151138
0.106169 -0.012850 0.136544
0.126496 -0.059250 0.138881
0.173870 -0.010177 0.120475
0.119018 0.011575 0.127988
0.142333 0.002704 0.123990
0.165495 -0.027342 0.136004
0.107341 -0.036928 0.115290
0.156954 0.003005 0.131005
0.113099 -0.048844 0.127771
0.151930 -0.049167 0.132484
0.134955 -0.025645 0.137026
0.122252 -0.007847 0.114325
0.131666 -0.001798 0.140287
0.148945 -0.013475 0.109536
0.157898 -0.031892 0.118015
0.102574 -0.004421 0.120088
0.124179 -0.004757 0.129379
0.134447 0.006529 0.117483
0.124155 -0.018187 0.149530
0.151949 0.016489 0.119793
0.095371 -0.029497 0.133020
0.150466 -0.018017 0.127684
0.131053 -0.038116 0.127396
0.219838 -0.181088 0.140175
0.222135 -0.183522 0.061844
0.217045 -0.168639 0.083990
0.193959 -0.096278 0.111807
0.218133 -0.169418 0.093281
0.216164 -0.165534 0.121424
0.229181 -0.212079 0.063711
0.208882 -0.120745 0.136223
0.223215 -0.211389 0.139801
0.213435 -0.150640 0.115599
0.227932 -0.231248 0.119299
0.241461 -0.152571 0.086111
0.206583 -0.119714 0.091705
0.209109 -0.129025 0.083032
0.242372 -0.180461 0.110251
0.221213 -0.193789 0.076255
0.216997 -0.136644 0.106955
0.226908 -0.214255 0.092056
0.229408 -0.208226 0.104956
0.214766 -0.175220 0.123842
0.216176 -0.146986 0.056322
0.202267 -0.134397 0.119238
0.221391 -0.160480 0.066638
0.231822 -0.189824 0.082928
0.210586 -0.140941 0.069432
0.208448 -0.146386 0.094312
0.212977 -0.128579 0.069715
0.213937 -0.156180 0.140389
0.206874 -0.105955 0.076936
0.213776 -0.175863 0.107535
0.213152 -0.161214 0.100189
0.221668 -0.197507 0.107265
0.077831 0.014474 0.138876
0.085973 0.009820 0.097996
0.081461 0.017493 0.109307
0.082428 0.055848 0.129692
0.089307 0.016392 0.112154
0.097228 0.020162 0.136169
0.094827 -0.003999 0.101203
0.064150 0.039753 0.144254
0.093493 0.006125 0.142905
0.062816 0.026274 0.129070
0.083936 -0.011171 0.127734
0.126760 0.023879 0.110232
0.070598 0.046729 0.118129
0.092220 0.035479 0.114405
0.118415 0.012841 0.130515
0.065399 0.006614 0.101680
0.106539 0.035325 0.124130
0.074700 -0.002989 0.114300
0.103107 0.000011 0.121757
0.086366 0.017159 0.129275
0.074773 0.027199 0.101183
0.080728 0.033459 0.134028
0.097644 0.022411 0.099025
0.110020 0.010573 0.106856
0.059498 0.030052 0.106151
0.077539 0.027968 0.121932
0.085088 0.037796 0.108457
0.079647 0.024148 0.143437
0.099304 0.049177 0.111040
0.058032 0.012276 0.121548
0.097284 0.019719 0.119175
0.086825 0.008309 0.119187
-0.183212 -0.028805 -0.014483
-0.150254 -0.033679 -0.098990
-0.168899 -0.020853 -0.068230
-0.132778 0.060210 -0.032288
-0.144457 0.001495 -0.075758
-0.117370 0.018073 -0.011460
-0.136042 -0.045981 -0.075539
-0.194742 0.033084 -0.012437
-0.123530 -0.036580 -0.007372
-0.184172 0.006582 -0.035277
-0.157294 -0.051215 -0.018057
-0.074705 0.008440 -0.065477
-0.173687 0.054249 -0.060051
-0.131240 0.027882 -0.056472
-0.079827 -0.023840 -0.021234
-0.203697 -0.033973 -0.090631
-0.093827 0.023303 -0.034631
-0.186413 -0.045509 -0.051302
-0.108858 -0.046052 -0.038659
-0.143597 -0.003925 -0.026284
-0.181329 0.009768 -0.095645
-0.159414 0.030528 -0.025690
-0.119253 0.011554 -0.098761
-0.095642 -0.031389 -0.077777
-0.218068 0.026271 -0.068577
-0.162317 0.009386 -0.047822
-0.148828 0.041470 -0.089565
-0.157153 0.004133 0.000205
-0.109008 0.050249 -0.072120
-0.234707 -0.027850 -0.040205
-0.118246 -0.006131 -0.048878
-0.149665 -0.037980 -0.046966
0.169060 -0.055789 0.148184
0.173788 -0.057977 0.124509
0.168761 -0.049933 0.131398
0.173788 -0.006118 0.141776
0.178985 -0.049884 0.132520
0.182908 -0.045197 0.145235
0.179425 -0.075216 0.122112
0.156134 -0.025344 0.152031
0.178763 -0.066435 0.151925
0.150572 -0.042085 0.142310
0.170534 -0.088480 0.140672
0.199431 -0.038481 0.130454
0.162143 -0.019540 0.137328
0.180201 -0.026583 0.134147
0.194309 -0.055772 0.142112
0.156232 -0.062910 0.126581
0.188942 -0.024442 0.139122
0.160177 -0.074142 0.135511
0.185604 -0.075106 0.138130
0.174559 -0.054537 0.143393
0.164121 -0.037644 0.125233
0.175557 -0.029660 0.146479
0.181343 -0.041936 0.122040
0.188449 -0.058983 0.128671
0.151847 -0.032916 0.128523
0.167033 -0.033298 0.137243
0.173929 -0.024018 0.127803
0.167400 -0.046178 0.150095
0.184783 -0.012223 0.130038
0.148380 -0.056588 0.138684
0.185419 -0.045820 0.136748
0.172550 -0.064593 0.134987
0.218152 -0.216448 0.162777
0.229421 -0.225608 0.091610
0.216820 -0.215584 0.116408
0.234186 -0.160161 0.153615
0.230382 -0.207386 0.116884
0.247078 -0.187836 0.165396
0.237790 -0.229421 0.107663
0.209883 -0.172633 0.163010
0.247586 -0.227132 0.163964
0.211991 -0.199356 0.152996
0.223975 -0.231055 0.149518
0.298894 -0.202900 0.121101
0.216757 -0.161448 0.135272
0.233649 -0.184413 0.132214
0.290179 -0.218946 0.160722
0.215490 -0.223327 0.103488
0.275822 -0.179907 0.146759
0.219690 -0.225966 0.129790
0.263677 -0.230781 0.145500
0.233271 -0.211022 0.152336
0.215231 -0.200677 0.095086
0.220787 -0.179114 0.153881
0.251447 -0.200001 0.096081
0.275666 -0.228619 0.110229
0.207674 -0.181785 0.116539
0.219571 -0.198725 0.138094
0.228317 -0.171939 0.101639
0.225327 -0.202772 0.169703
0.253094 -0.164790 0.115629
0.206708 -0.217299 0.141685
0.249618 -0.210959 0.133792
0.236209 -0.226592 0.136867
0.211066 -0.143032 0.139351
0.210749 -0.145922 0.067745
0.209476 -0.136794 0.084478
0.193408 -0.079913 0.113238
0.208460 -0.137738 0.095152
0.209809 -0.135478 0.119953
0.214771 -0.173900 0.066140
0.202529 -0.097717 0.137646
0.211442 -0.169995 0.136707
0.204895 -0.120776 0.114118
0.215567 -0.193852 0.114280
0.229975 -0.120825 0.087126
0.200586 -0.100286 0.094212
0.202749 -0.105900 0.085130
0.227043 -0.142545 0.109871
0.209541 -0.156402 0.076939
0.209305 -0.109021 0.106954
0.215582 -0.175460 0.090899
0.212358 -0.166708 0.102232
0.205912 -0.141695 0.121617
0.207193 -0.118687 0.061165
0.197661 -0.108065 0.119987
0.209561 -0.129683 0.070459
0.215975 -0.151699 0.083853
0.201108 -0.115099 0.070899
0.202164 -0.118541 0.096145
0.206164 -0.106000 0.074491
0.205613 -0.124446 0.140219
0.201502 -0.088135 0.081403
0.201453 -0.140565 0.105014
0.202999 -0.130396 0.098943
0.210762 -0.158189 0.105960
0.046777 0.047473 0.139818
0.063103 0.050207 0.088551
0.056236 0.060416 0.102523
0.049475 0.086959 0.116099
0.064912 0.056548 0.104281
0.069413 0.052194 0.130182
0.071984 0.029625 0.095108
0.028305 0.074536 0.138594
0.067119 0.037601 0.146682
0.033250 0.064224 0.124207
0.059821 0.019699 0.132448
0.096585 0.063946 0.099493
0.038738 0.084208 0.106469
0.064456 0.074632 0.102166
0.090576 0.050258 0.124992
0.038037 0.044615 0.096272
0.076474 0.073317 0.113019
0.046428 0.029393 0.113619
0.079712 0.031205 0.122340
0.061554 0.051896 0.125909
0.046419 0.073055 0.087303
0.049949 0.069079 0.128128
0.073075 0.063959 0.085815
0.084323 0.049877 0.099231
0.025954 0.072410 0.095796
0.048179 0.070578 0.112534
0.056578 0.079960 0.093598
0.048956 0.057052 0.141682
0.069946 0.085311 0.094779
0.029091 0.050021 0.118735
0.072262 0.057694 0.111399
0.060828 0.044033 0.115023
0.277230 -0.200144 0.154851
0.293233 -0.205075 0.100134
0.282177 -0.193401 0.121083
0.298308 -0.123591 0.147056
0.298406 -0.189341 0.124989
0.306390 -0.176369 0.149060
0.297004 -0.220953 0.102410
0.269985 -0.149626 0.155486
0.297800 -0.211820 0.157054
0.268357 -0.179321 0.144892
0.279930 -0.232824 0.140299
0.340254 -0.169107 0.119736
0.283183 -0.143515 0.134994
0.303095 -0.149757 0.126371
0.329298 -0.196451 0.143144
0.268823 -0.207734 0.110017
0.320008 -0.145721 0.140128
0.268548 -0.217737 0.130471
0.310098 -0.220352 0.136232
0.292719 -0.196085 0.147492
0.281086 -0.173194 0.103060
0.294750 -0.156000 0.150377
0.307919 -0.176635 0.099912
0.320817 -0.203434 0.112170
0.268184 -0.164291 0.115389
0.287971 -0.165736 0.133005
0.296207 -0.147451 0.111082
0.284877 -0.183647 0.157375
0.318729 -0.131267 0.120223
0.257378 -0.199798 0.140737
0.309487 -0.181900 0.133400
0.289957 -0.209486 0.130407
0.032849 0.049716 0.131982
0.064930 0.044751 0.038974
0.046109 0.055413 0.068940
0.064744 0.092762 0.104858
0.064828 0.058041 0.071879
0.085705 0.066581 0.127939
0.076591 0.028827 0.062031
0.010949 0.077684 0.132519
0.079210 0.040324 0.138087
0.023848 0.065858 0.111970
0.059620 0.020851 0.120899
0.125433 0.060351 0.070605
0.033112 0.092511 0.083613
0.070549 0.073560 0.082349
0.117241 0.052086 0.117708
0.018794 0.049758 0.050693
0.102468 0.073031 0.099421
0.033117 0.030682 0.090711
0.095913 0.032775 0.108475
0.067541 0.056948 0.116296
0.034582 0.067718 0.037287
0.045235 0.073925 0.118343
0.087504 0.063043 0.037754
0.106565 0.045026 0.060114
0.001624 0.075461 0.065823
0.045672 0.065204 0.094955
0.058725 0.082693 0.051976
0.051511 0.059807 0.143679
0.087274 0.088686 0.063104
-0.001772 0.051715 0.104365
0.087710 0.054760 0.088469
0.066952 0.042975 0.098779
0.228498 -0.089436 0.168120
0.233089 -0.091701 0.135578
0.228767 -0.083217 0.146417
0.232131 -0.044137 0.161495
0.239241 -0.083371 0.148800
0.241815 -0.079368 0.164258
0.238085 -0.111247 0.134316
0.216884 -0.059506 0.169327
0.236660 -0.102480 0.169452
0.212863 -0.075093 0.160981
0.229522 -0.129542 0.158541
0.260281 -0.070818 0.146237
0.222490 -0.055674 0.156397
0.238957 -0.060961 0.150590
0.255561 -0.089440 0.161180
0.218595 -0.096479 0.140587
0.249008 -0.055673 0.158068
0.219787 -0.108134 0.153542
0.245453 -0.109668 0.155865
0.233801 -0.090706 0.163708
0.224256 -0.071754 0.133930
0.235038 -0.063244 0.165547
0.241220 -0.074930 0.133975
0.247358 -0.093647 0.143448
0.213213 -0.066157 0.141036
0.227232 -0.066706 0.154491
0.234968 -0.057221 0.139234
0.227214 -0.080317 0.169209
0.243123 -0.049128 0.144196
0.210330 -0.089316 0.157698
0.244492 -0.079999 0.154330
0.233301 -0.098380 0.154080
0.203583 -0.052955 0.152417
0.207101 -0.054235 0.132908
0.201761 -0.044681 0.141338
0.204896 -0.000069 0.147233
0.211823 -0.045716 0.141183
0.212889 -0.042200 0.150827
0.212659 -0.074325 0.130385
0.191301 -0.020670 0.155530
0.210823 -0.066054 0.156569
0.184150 -0.037933 0.149189
0.204692 -0.091445 0.147966
0.230869 -0.032736 0.138635
0.195742 -0.016011 0.144989
0.211203 -0.020717 0.142003
0.224244 -0.053453 0.148601
0.191596 -0.060860 0.137471
0.218399 -0.018591 0.146076
0.194258 -0.073427 0.144941
0.217710 -0.075535 0.145631
0.206384 -0.052039 0.149740
0.198839 -0.031509 0.133045
0.208009 -0.025903 0.151705
0.213849 -0.037460 0.130059
0.218798 -0.056724 0.138069
0.187870 -0.028214 0.137370
0.198940 -0.028796 0.144033
0.207102 -0.018771 0.135073
0.201269 -0.043416 0.154643
0.215561 -0.006895 0.137184
0.183488 -0.053037 0.146724
0.216085 -0.040933 0.145044
0.204966 -0.063560 0.142979
0.018948 0.087023 0.132241
0.043194 0.089670 0.070741
0.033958 0.102963 0.085888
0.017509 0.143632 0.102798
0.044171 0.099048 0.089050
0.043765 0.094541 0.119189
0.053122 0.070134 0.077975
-0.003240 0.123963 0.126563
0.045158 0.076838 0.139477
0.007017 0.106637 0.113927
0.040786 0.060355 0.127508
0.068237 0.106124 0.085405
0.010162 0.139037 0.092219
0.041305 0.124292 0.084268
0.064762 0.089037 0.112227
0.013766 0.085354 0.079160
0.047702 0.119167 0.100132
0.025495 0.069863 0.103359
0.057776 0.071482 0.113550
0.038250 0.092605 0.117750
0.018638 0.118307 0.066847
0.023257 0.116805 0.117650
0.047970 0.109769 0.066665
0.062744 0.090571 0.083135
-0.005834 0.121786 0.077832
0.022862 0.116270 0.097942
0.028354 0.131737 0.074451
0.024219 0.098896 0.133635
0.042515 0.142035 0.076295
0.001465 0.089921 0.109641
0.048574 0.098558 0.100143
0.038964 0.082443 0.104956
0.215820 -0.203864 0.130473
0.225272 -0.203321 0.057776
0.221178 -0.182486 0.087020
0.204876 -0.109206 0.108573
0.229309 -0.187663 0.095057
0.233782 -0.186509 0.118964
0.241597 -0.211940 0.071688
0.200487 -0.149157 0.125076
0.232577 -0.216662 0.135204
0.205554 -0.173517 0.115499
0.225602 -0.221317 0.122555
0.268409 -0.172397 0.092392
0.206373 -0.141976 0.094657
0.225666 -0.148427 0.081007
0.271811 -0.201102 0.116004
0.217945 -0.202347 0.078564
0.243334 -0.147384 0.107265
0.219364 -0.209585 0.104289
0.248766 -0.218442 0.118484
0.221699 -0.196069 0.119577
0.213957 -0.162293 0.045547
0.218756 -0.156180 0.118408
0.238038 -0.177261 0.056221
0.256040 -0.201649 0.083950
0.206648 -0.162054 0.065658
0.214149 -0.159320 0.100586
0.218414 -0.143932 0.067966
0.213592 -0.183967 0.128823
0.229332 -0.124433 0.076285
0.213276 -0.195763 0.112603
0.233635 -0.180475 0.106158
0.228504 -0.210179 0.105351
-0.019816 0.128985 0.120283
-0.003212 0.136418 0.067923
-0.005252 0.145659 0.078807
-0.019352 0.182869 0.089204
0.003685 0.143444 0.080219
0.003864 0.136043 0.108485
0.004918 0.117045 0.073136
-0.036524 0.161471 0.114916
0.001617 0.120984 0.125902
-0.030864 0.147903 0.102199
-0.005297 0.103817 0.116385
0.019005 0.150460 0.077221
-0.026890 0.176751 0.080234
0.000997 0.164284 0.074628
0.015973 0.132865 0.103192
-0.023147 0.129258 0.074458
0.006961 0.161984 0.090531
-0.015564 0.114434 0.095174
0.009560 0.117270 0.103951
-0.004797 0.135489 0.105839
-0.024509 0.160703 0.060345
-0.012408 0.156244 0.105813
-0.000391 0.154639 0.062920
0.013992 0.136341 0.078301
-0.041303 0.162520 0.068463
-0.016322 0.157125 0.087768
-0.012243 0.172121 0.066548
-0.014212 0.140330 0.120641
0.001957 0.180172 0.066177
-0.030628 0.132143 0.099317
0.005117 0.141879 0.091544
-0.004439 0.126548 0.095577
-0.250234 0.123214 -0.076982
-0.246172 0.125140 -0.112585
-0.204811 0.139091 -0.091690
-0.258866 0.217791 -0.080948
-0.202779 0.147052 -0.091699
-0.213134 0.109933 -0.077190
-0.233093 0.082730 -0.106780
-0.276870 0.197909 -0.070460
-0.240805 0.108470 -0.067311
-0.297537 0.156266 -0.085385
-0.256755 0.062607 -0.078719
-0.200964 0.172904 -0.093120
-0.255310 0.199940 -0.091869
-0.196843 0.186411 -0.086821
-0.211712 0.131670 -0.080288
-0.247784 0.087376 -0.105526
-0.216692 0.187443 -0.081354
-0.248722 0.076208 -0.093437
-0.219455 0.096961 -0.089958
-0.245206 0.135673 -0.082104
-0.285337 0.165523 -0.109516
-0.224134 0.184401 -0.072990
-0.241948 0.163412 -0.101185
-0.220643 0.130981 -0.102223
-0.288770 0.175300 -0.098576
-0.240976 0.175061 -0.083068
-0.255668 0.188234 -0.096526
-0.245204 0.152051 -0.073957
-0.222073 0.200608 -0.088750
-0.244787 0.123596 -0.090777
-0.223199 0.154949 -0.082160
-0.236614 0.107808 -0.092309
0.270811 -0.139647 0.155844
0.279338 -0.140302 0.107175
0.273064 -0.131713 0.124644
0.278761 -0.090454 0.150445
0.285231 -0.132575 0.130226
0.291509 -0.134104 0.151242
0.283651 -0.179596 0.107744
0.253491 -0.106963 0.159717
0.281413 -0.157816 0.158319
0.255431 -0.123620 0.148111
0.275259 -0.208635 0.143885
0.321964 -0.117903 0.121395
0.264969 -0.105394 0.139355
0.283117 -0.109379 0.130330
0.315048 -0.138685 0.147903
0.262210 -0.148434 0.118466
0.301515 -0.100964 0.142024
0.259913 -0.173517 0.135106
0.301433 -0.174379 0.139224
0.278013 -0.141036 0.152051
0.266544 -0.120718 0.104151
0.277030 -0.113100 0.154163
0.291577 -0.124089 0.103334
0.302090 -0.144162 0.119689
0.251909 -0.118056 0.115236
0.270621 -0.117832 0.136597
0.277996 -0.104631 0.112986
0.268755 -0.129420 0.160057
0.293675 -0.095560 0.122972
0.252110 -0.133890 0.143041
0.293188 -0.128528 0.138080
0.277147 -0.151848 0.136903
-0.089417 0.154581 0.080686
-0.060187 0.157013 0.011496
-0.066586 0.163625 0.029663
-0.061859 0.208127 0.060163
-0.055471 0.164985 0.041730
-0.047313 0.160993 0.067255
-0.050431 0.141146 0.019078
-0.107456 0.193875 0.076338
-0.054076 0.148892 0.082290
-0.096383 0.171147 0.064483
-0.072502 0.132264 0.071066
-0.024543 0.176385 0.037442
-0.085824 0.204775 0.039825
-0.045823 0.192467 0.031309
-0.035994 0.159326 0.060725
-0.099003 0.145064 0.019987
-0.037367 0.192350 0.053402
-0.086480 0.141077 0.045442
-0.046945 0.144778 0.061123
-0.060130 0.158423 0.065002
-0.082238 0.185707 0.006658
-0.066787 0.189474 0.070657
-0.048004 0.172087 0.006425
-0.035731 0.160772 0.027806
-0.116297 0.187667 0.021711
-0.075490 0.185619 0.049044
-0.061995 0.197322 0.022027
-0.073014 0.166093 0.083170
-0.037610 0.207525 0.027029
-0.109925 0.157257 0.057519
-0.043802 0.167665 0.049779
-0.066945 0.151782 0.049329
0.202919 -0.111326 0.137869
0.202947 -0.115314 0.075314
0.203515 -0.111937 0.090674
0.201517 -0.065522 0.118523
0.204074 -0.111006 0.096034
0.208167 -0.101749 0.124665
0.205087 -0.136689 0.075641
0.198118 -0.080264 0.138149
0.204585 -0.130150 0.137459
0.195563 -0.098136 0.116009
0.202139 -0.151286 0.114212
0.253516 -0.094926 0.089484
0.197116 -0.084038 0.104105
0.203263 -0.087548 0.094298
0.239925 -0.111472 0.120048
0.198130 -0.118317 0.082917
0.221729 -0.083493 0.109850
0.201764 -0.134010 0.096690
0.210390 -0.128955 0.105862
0.199401 -0.112389 0.120550
0.200695 -0.098767 0.072123
0.197055 -0.087731 0.120459
0.210541 -0.102539 0.075107
0.218747 -0.119355 0.085197
0.196837 -0.093600 0.079991
0.199093 -0.098406 0.102203
0.205046 -0.085360 0.081405
0.200470 -0.100043 0.140136
0.207293 -0.072383 0.089920
0.193651 -0.110334 0.106981
0.202200 -0.105867 0.100833
0.202411 -0.121811 0.108555
0.175198 -0.057033 0.149352
0.190398 -0.062360 0.106814
0.173665 -0.055793 0.118489
0.201522 -0.005713 0.143898
0.191890 -0.048339 0.117509
0.213716 -0.034681 0.156492
0.200126 -0.080457 0.112099
0.160497 -0.023001 0.157843
0.207304 -0.067240 0.156291
0.158025 -0.040978 0.140823
0.189199 -0.089987 0.140935
0.244034 -0.042374 0.119203
0.170141 -0.011305 0.130655
0.198905 -0.028649 0.127483
0.236819 -0.056154 0.147340
0.155805 -0.062274 0.109071
0.228216 -0.025326 0.138031
0.167162 -0.078689 0.127190
0.218825 -0.078604 0.134808
0.195433 -0.051506 0.142443
0.168532 -0.041414 0.108579
0.185406 -0.025690 0.147307
0.209139 -0.040964 0.105199
0.223148 -0.065704 0.114486
0.145777 -0.028197 0.117026
0.178998 -0.038253 0.132448
0.188038 -0.020500 0.109449
0.186408 -0.043397 0.162085
0.214283 -0.011557 0.117873
0.136864 -0.055650 0.134425
0.213249 -0.050006 0.127334
0.193303 -0.067894 0.129744
-0.137394 0.065336 0.050759
-0.112326 0.064888 -0.041332
-0.129146 0.073876 -0.003904
-0.090493 0.167595 0.038354
-0.098694 0.092362 -0.008028
-0.066773 0.100530 0.052756
-0.085277 0.029229 -0.011598
-0.164959 0.128315 0.049563
-0.073942 0.052790 0.059133
-0.153636 0.097745 0.033851
-0.106151 0.006242 0.047499
-0.014298 0.095571 0.004307
-0.145264 0.156994 0.010367
-0.087182 0.117442 0.012222
-0.022182 0.073834 0.044821
-0.170813 0.058130 -0.021887
-0.039718 0.116401 0.033588
-0.149542 0.028134 0.017361
-0.050803 0.033001 0.034245
-0.093339 0.085286 0.037753
-0.146710 0.097389 -0.039667
-0.114712 0.119573 0.042233
-0.076561 0.098826 -0.034413
-0.048282 0.067027 -0.013442
-0.193334 0.120410 -0.002243
-0.123874 0.096672 0.019182
-0.111524 0.134903 -0.022134
-0.115861 0.090709 0.061678
-0.059616 0.151918 -0.003839
-0.196732 0.074586 0.025636
-0.062759 0.088775 0.019725
-0.105494 0.055319 0.021564
-0.031444 -0.136556 0.051192
-0.023377 -0.140339 -0.030407
-0.012586 -0.137057 -0.016393
-0.014118 -0.107004 0.019510
-0.005454 -0.133754 0.003753
0.012266 -0.133129 0.033908
-0.005368 -0.143380 -0.018562
-0.042581 -0.121405 0.047728
-0.009751 -0.137092 0.055296
-0.043735 -0.129750 0.026164
-0.032604 -0.151266 0.030317
0.011525 -0.132850 -0.000223
-0.028555 -0.116800 -0.005447
-0.000402 -0.124767 -0.003076
0.016632 -0.136011 0.028481
-0.038839 -0.138528 -0.017036
0.014513 -0.121076 0.013568
-0.036142 -0.140395 0.004201
-0.003055 -0.139928 0.026699
-0.008323 -0.135495 0.037549
-0.040014 -0.130268 -0.043680
-0.011717 -0.121618 0.035257
-0.013190 -0.129355 -0.033575
0.006755 -0.136603 -0.015996
-0.046550 -0.127424 -0.017500
-0.019996 -0.126910 0.014662
-0.009164 -0.120904 -0.022873
-0.019002 -0.129295 0.053979
-0.000917 -0.114205 -0.017217
-0.034189 -0.135590 0.021255
0.006986 -0.134358 0.011256
-0.008626 -0.140115 0.018299
0.249411 -0.108063 0.159709
0.257207 -0.109095 0.120720
0.252099 -0.100751 0.130915
0.258042 -0.060709 0.152424
0.263150 -0.101161 0.135438
0.269405 -0.102226 0.154035
0.262255 -0.139191 0.117894
0.232126 -0.077039 0.162762
0.259769 -0.123537 0.162920
0.231415 -0.092933 0.150016
0.251710 -0.165034 0.146768
0.294130 -0.087182 0.128260
0.242810 -0.074502 0.143356
0.263380 -0.077759 0.136423
0.288111 -0.107567 0.151011
0.237377 -0.116671 0.126080
0.277435 -0.070917 0.145034
0.237868 -0.135257 0.139406
0.275286 -0.135122 0.143832
0.257481 -0.109853 0.153760
0.244042 -0.089244 0.118283
0.257625 -0.081100 0.156817
0.267528 -0.092066 0.116611
0.277302 -0.111928 0.126736
0.229187 -0.086098 0.125419
0.248948 -0.084422 0.141575
0.257093 -0.073952 0.122625
0.247379 -0.098127 0.162348
0.271927 -0.064537 0.129570
0.226978 -0.104157 0.145634
0.271783 -0.097732 0.140676
0.254570 -0.118276 0.140025
0.162907 -0.026957 0.144685
0.174538 -0.029903 0.105342
0.166267 -0.023488 0.117256
0.175194 0.019274 0.134348
0.177949 -0.021350 0.120827
0.186128 -0.014850 0.139668
0.180976 -0.042728 0.107481
0.149594 0.002422 0.147893
0.180418 -0.033810 0.148950
0.147628 -0.013033 0.134552
0.166311 -0.050695 0.135279
0.206758 -0.010858 0.118191
0.160863 0.008793 0.125885
0.183074 0.001237 0.121156
0.199847 -0.025389 0.134604
0.149064 -0.034026 0.109822
0.194552 0.002327 0.130145
0.156086 -0.041505 0.123880
0.187426 -0.041374 0.130615
0.175086 -0.023762 0.137086
0.162504 -0.009093 0.107711
0.173376 -0.001806 0.139915
0.185281 -0.014768 0.103633
0.194670 -0.028607 0.113578
0.145519 -0.006529 0.114620
0.166273 -0.005662 0.127300
0.175141 0.003612 0.113560
0.167219 -0.015360 0.148094
0.190192 0.014560 0.117698
0.138839 -0.028682 0.129867
0.189313 -0.017973 0.126521
0.172276 -0.033302 0.125887
-0.261330 0.079555 -0.020981
-0.236960 0.083780 -0.097203
-0.251321 0.091714 -0.064661
-0.227767 0.198999 -0.037468
-0.226119 0.111482 -0.074061
-0.206073 0.120582 -0.022412
-0.214908 0.049838 -0.073959
-0.275152 0.153906 -0.023824
-0.209306 0.068124 -0.015009
-0.270039 0.112882 -0.035244
-0.233188 0.025482 -0.026344
-0.146936 0.114864 -0.062534
-0.264322 0.183295 -0.056310
-0.217620 0.144893 -0.057607
-0.157649 0.087659 -0.031300
-0.281783 0.074041 -0.081019
-0.176786 0.138543 -0.040468
-0.264550 0.046962 -0.047434
-0.184223 0.053002 -0.036937
-0.225618 0.099970 -0.036514
-0.263988 0.118619 -0.098370
-0.239102 0.144353 -0.033211
-0.207200 0.124118 -0.092251
-0.180557 0.083374 -0.074771
-0.298415 0.141604 -0.067599
-0.248863 0.115580 -0.050396
-0.239723 0.163473 -0.085709
-0.242971 0.104694 -0.014538
-0.193375 0.183779 -0.071208
-0.303675 0.088115 -0.043593
-0.201729 0.107139 -0.049027
-0.235126 0.070223 -0.048496
0.197439 -0.026549 0.155032
0.202127 -0.027080 0.133419
0.196398 -0.018448 0.141929
0.199731 0.025925 0.146437
0.206168 -0.018532 0.141530
0.208460 -0.015434 0.151832
0.207046 -0.042687 0.131407
0.185387 0.005446 0.156631
0.206180 -0.036309 0.159725
0.178318 -0.011389 0.149602
0.197173 -0.056160 0.149817
0.225525 -0.006551 0.139386
0.190270 0.011613 0.145125
0.207839 0.005873 0.141641
0.218764 -0.025422 0.149688
0.184171 -0.033112 0.137693
0.213904 0.007313 0.145964
0.187852 -0.042085 0.145285
0.211060 -0.043767 0.147155
0.201571 -0.024718 0.150714
0.193840 -0.003953 0.134595
0.203622 -0.000007 0.152031
0.209431 -0.010432 0.131115
0.214481 -0.027406 0.138762
0.181473 -0.001892 0.138680
0.194274 -0.001376 0.144374
0.202890 0.008509 0.136402
0.195961 -0.016386 0.156669
0.211571 0.019726 0.137583
0.174872 -0.026957 0.147899
0.212202 -0.014461 0.145412
0.199528 -0.034287 0.144134
-0.048320 0.150004 0.072872
-0.032079 0.145174 0.003220
-0.037576 0.152467 0.023911
-0.024759 0.189223 0.057880
-0.024900 0.155933 0.034240
-0.009294 0.148743 0.066828
-0.020259 0.122515 0.013735
-0.066597 0.172768 0.077185
-0.014338 0.140381 0.079345
-0.061037 0.164030 0.057361
-0.032488 0.112159 0.060564
0.009782 0.161676 0.031838
-0.051764 0.180523 0.035609
-0.018423 0.169354 0.033471
0.004021 0.153459 0.058975
-0.063432 0.136419 0.012332
-0.001477 0.169900 0.050593
-0.051798 0.123776 0.035551
-0.008422 0.129449 0.051308
-0.025551 0.154784 0.061332
-0.051487 0.160467 0.002135
-0.034860 0.167319 0.065947
-0.018997 0.155615 0.006582
-0.004131 0.147157 0.021118
-0.079206 0.163650 0.019576
-0.041888 0.162829 0.045868
-0.030709 0.171667 0.022433
-0.036414 0.161858 0.083170
-0.011133 0.181814 0.027832
-0.073727 0.151965 0.048086
-0.010977 0.157331 0.044750
-0.029013 0.142159 0.045056
-0.338176 0.117605 -0.071420
-0.300848 0.114879 -0.136437
-0.317099 0.117867 -0.099970
-0.278459 0.222217 -0.072953
-0.292151 0.140709 -0.108808
-0.269874 0.156521 -0.070786
-0.284909 0.078441 -0.115922
-0.338616 0.184942 -0.062452
-0.287685 0.110605 -0.072253
-0.341908 0.146030 -0.081327
-0.313910 0.061405 -0.082163
-0.207712 0.152466 -0.108881
-0.321195 0.203331 -0.092574
-0.272390 0.172705 -0.086796
-0.228074 0.126749 -0.077783
-0.358265 0.102013 -0.122939
-0.236306 0.168959 -0.080638
-0.344224 0.075494 -0.097221
-0.253686 0.088216 -0.092400
-0.297163 0.137016 -0.084310
-0.330523 0.140506 -0.136269
-0.305137 0.177153 -0.073858
-0.258849 0.156292 -0.133571
-0.247406 0.117893 -0.116778
-0.369242 0.169509 -0.103604
-0.316146 0.141867 -0.083907
-0.297054 0.182601 -0.115459
-0.317603 0.138259 -0.063215
-0.238978 0.202235 -0.101457
-0.371102 0.117722 -0.089445
-0.265071 0.140570 -0.089812
-0.307665 0.106003 -0.095171
0.209245 -0.119166 0.108546
0.210505 -0.119662 0.019220
0.209479 -0.114161 0.043936
0.202548 -0.064957 0.076546
0.212022 -0.115123 0.058267
0.216368 -0.112004 0.090778
0.216103 -0.144390 0.024612
0.200758 -0.084242 0.107692
0.213088 -0.136619 0.108939
0.200729 -0.099997 0.081126
0.214215 -0.161011 0.085169
0.246541 -0.098756 0.047951
0.201769 -0.084667 0.055503
0.209732 -0.089570 0.041290
0.239847 -0.115030 0.080425
