-0.089480 -0.269281 -0.017175
-0.091826 -0.281896 -0.003025
-0.087679 -0.250932 -0.015003
-0.085785 -0.289063 -0.015356
-0.090067 -0.278413 -0.014897
-0.090626 -0.293899 -0.017542
-0.097035 -0.055622 0.125235
-0.087786 -0.057654 0.071516
-0.082256 -0.047370 0.068749
-0.083430 -0.024985 0.091865
-0.090092 -0.051694 0.098605
-0.093395 -0.078751 0.090875
-0.084150 -0.063814 0.062125
-0.091684 -0.041671 0.118337
-0.095300 -0.064132 0.115707
-0.090094 -0.045316 0.099572
-0.094003 -0.072621 0.105688
-0.087903 -0.042508 0.087329
-0.086568 -0.044234 0.077872
-0.075786 -0.033231 0.055634
-0.087967 -0.050644 0.084159
-0.085282 -0.072342 0.072624
-0.088321 -0.036902 0.090190
-0.090057 -0.068787 0.083363
-0.092959 -0.062820 0.095294
-0.094216 -0.057036 0.105544
-0.081258 -0.042547 0.060382
-0.089271 -0.037049 0.104865
-0.083821 -0.052091 0.060405
-0.088580 -0.053751 0.077864
-0.077632 -0.046219 0.046587
-0.083805 -0.034997 0.080882
-0.085273 -0.038611 0.070266
-0.093613 -0.050039 0.111099
-0.080929 -0.027826 0.073307
-0.080917 -0.054159 0.087385
-0.090946 -0.046795 0.090747
-0.091769 -0.060272 0.085503
-0.086329 0.153984 0.184235
-0.132618 0.169231 0.140629
-0.117256 0.177368 0.155987
-0.073585 0.227512 0.164260
-0.102273 0.180550 0.167165
-0.077103 0.177767 0.180360
-0.127188 0.142953 0.160050
-0.067247 0.193993 0.174745
-0.080886 0.148850 0.189843
-0.101098 0.177057 0.164480
-0.108043 0.134403 0.182585
-0.083875 0.198642 0.173133
-0.104956 0.209539 0.148568
-0.094040 0.208919 0.159892
-0.082679 0.169574 0.182195
-0.132467 0.155836 0.150328
-0.075445 0.202795 0.176882
-0.122809 0.133939 0.167246
-0.099375 0.147534 0.182958
-0.093418 0.166631 0.176467
-0.128371 0.186967 0.136917
-0.075769 0.198225 0.169959
-0.112979 0.190336 0.152787
-0.108027 0.166682 0.166997
-0.125988 0.196142 0.139728
-0.096335 0.195987 0.160169
-0.106927 0.209229 0.145949
-0.076002 0.170911 0.181090
-0.089278 0.226809 0.153042
-0.116009 0.162311 0.158771
-0.092877 0.190514 0.171294
-0.111168 0.153170 0.172495
-0.012142 -0.009478 0.172784
-0.029897 0.004359 0.131566
0.053463 0.013259 0.128794
-0.031943 0.015022 0.129239
0.038766 0.003638 0.152609
-0.038773 -0.026117 0.151233
-0.039843 -0.001839 0.124881
0.011379 0.001856 0.159841
-0.057449 -0.013439 0.163128
-0.043717 0.001564 0.144571
-0.058391 -0.022530 0.155792
-0.060716 0.000016 0.135514
-0.002291 0.008527 0.130595
0.034742 0.017733 0.108733
-0.053946 0.000618 0.135418
0.022512 -0.009220 0.145462
-0.033356 0.006483 0.132715
-0.010946 -0.007759 0.145967
-0.055070 -0.001131 0.147585
-0.041043 -0.003811 0.157509
-0.042047 0.011223 0.106436
0.018215 0.005936 0.147422
-0.054980 0.005011 0.117567
-0.046197 0.005793 0.130562
-0.001403 0.012122 0.099132
0.019467 0.012120 0.135183
-0.015592 0.010788 0.120727
-0.017103 0.000895 0.154435
-0.025097 0.014958 0.117755
0.078887 0.006495 0.144342
-0.030477 0.003643 0.145182
-0.018818 0.001096 0.145204
-0.057224 -0.236154 0.020876
-0.078079 -0.234795 0.012152
-0.042426 -0.210681 0.016169
-0.073772 -0.161194 0.015221
-0.049418 -0.225391 0.019196
-0.072461 -0.270272 0.016632
-0.083282 -0.252103 0.012842
-0.061154 -0.199249 0.019409
-0.072702 -0.247166 0.018648
-0.076753 -0.214740 0.016328
-0.075268 -0.263145 0.019275
-0.073380 -0.197991 0.015069
-0.069727 -0.205666 0.014047
-0.054355 -0.181476 0.014422
-0.076998 -0.225272 0.013390
-0.052389 -0.259384 0.018403
-0.075352 -0.181146 0.015236
-0.067787 -0.254078 0.017601
-0.078741 -0.239236 0.015683
-0.075093 -0.234011 0.017932
-0.083470 -0.203064 0.007217
-0.051736 -0.200976 0.017399
-0.081400 -0.216094 0.012513
-0.079818 -0.228155 0.016014
-0.070406 -0.213791 0.009211
-0.063590 -0.186900 0.015929
-0.077255 -0.193883 0.012984
-0.067609 -0.220912 0.018420
-0.074149 -0.171538 0.013082
-0.024980 -0.230882 0.017966
-0.074938 -0.208973 0.015760
-0.073254 -0.245074 0.015915
-0.089663 -0.033401 0.128537
-0.086862 -0.036330 0.084233
-0.083156 -0.028162 0.083360
-0.073483 -0.009954 0.103080
-0.087070 -0.030158 0.107093
-0.094893 -0.055486 0.098279
-0.086869 -0.042294 0.077398
-0.082377 -0.021403 0.123409
-0.092027 -0.042077 0.119746
-0.083802 -0.023964 0.107782
-0.093211 -0.050654 0.110744
-0.081431 -0.022859 0.096725
-0.082623 -0.024373 0.090090
-0.073380 -0.016065 0.074260
-0.084858 -0.029193 0.094372
-0.090531 -0.048939 0.084767
-0.080654 -0.018805 0.100967
-0.091265 -0.046217 0.093631
-0.090637 -0.040458 0.102703
-0.090037 -0.035750 0.111951
-0.078705 -0.023595 0.077609
-0.080001 -0.017356 0.112768
-0.082847 -0.031976 0.075166
-0.085985 -0.032844 0.090019
-0.077866 -0.026170 0.066177
-0.077810 -0.016260 0.093356
-0.079581 -0.019487 0.084252
-0.087283 -0.028704 0.117079
-0.073285 -0.012131 0.088257
-0.084094 -0.031942 0.098111
-0.084869 -0.026188 0.099801
-0.090304 -0.038564 0.095507
-0.103312 -0.347599 -0.028749
-0.103500 -0.352187 -0.075699
-0.103950 -0.339898 -0.073421
-0.102953 -0.313525 -0.049882
-0.103600 -0.343275 -0.046944
-0.102636 -0.364491 -0.054304
-0.102785 -0.358035 -0.083343
-0.102521 -0.329986 -0.031298
-0.102770 -0.358353 -0.034176
-0.103087 -0.331815 -0.043293
-0.102374 -0.363868 -0.042926
-0.103667 -0.329043 -0.057868
-0.103477 -0.331409 -0.067650
-0.103273 -0.320462 -0.082002
-0.104037 -0.340273 -0.060659
-0.102363 -0.362880 -0.072940
-0.103445 -0.323726 -0.050372
-0.102779 -0.362466 -0.063532
-0.103068 -0.357160 -0.051195
-0.103513 -0.350475 -0.041259
-0.103302 -0.332869 -0.082612
-0.102675 -0.321344 -0.038891
-0.103119 -0.345171 -0.084101
-0.103512 -0.347538 -0.067287
-0.102399 -0.335120 -0.090563
-0.103245 -0.318660 -0.060985
-0.103369 -0.325337 -0.073585
-0.103000 -0.339797 -0.036826
-0.102432 -0.314708 -0.070343
-0.102758 -0.347731 -0.055154
-0.103546 -0.335617 -0.052628
-0.103458 -0.354878 -0.061314
-0.015599 -0.147167 0.101273
-0.021154 -0.147992 0.052399
0.054201 -0.146157 0.041781
-0.045164 -0.141831 0.065370
0.046325 -0.147388 0.083981
-0.017448 -0.146602 0.066640
-0.022183 -0.144601 0.027947
0.014255 -0.145967 0.094164
-0.051416 -0.147080 0.093690
-0.036397 -0.147462 0.071096
-0.056981 -0.146680 0.079723
-0.068015 -0.146644 0.069376
0.009953 -0.148134 0.050147
0.032370 -0.145373 0.023655
-0.057696 -0.147590 0.056715
0.035210 -0.145888 0.058856
-0.031583 -0.146289 0.061731
-0.000361 -0.144341 0.060062
-0.044537 -0.146460 0.078637
-0.033244 -0.147051 0.088306
-0.041833 -0.145991 0.016808
0.021656 -0.147512 0.081294
-0.055532 -0.146002 0.033613
-0.044567 -0.148042 0.051573
0.002453 -0.145494 0.004516
0.018802 -0.146279 0.068310
-0.008306 -0.146164 0.040184
-0.007326 -0.148037 0.087229
-0.032789 -0.144385 0.041127
0.077886 -0.145014 0.071491
-0.021225 -0.148102 0.079197
0.000421 -0.146839 0.074278
0.096888 -0.354359 0.148797
0.104268 -0.353932 0.017111
0.102625 -0.347802 0.068174
0.098742 -0.302765 0.100882
0.103296 -0.343658 0.060051
0.099877 -0.322777 0.128508
0.101556 -0.363745 0.037708
0.097547 -0.307488 0.140099
0.099358 -0.362831 0.139910
0.098376 -0.339528 0.113332
0.098077 -0.366028 0.116615
0.098735 -0.327390 0.068034
0.102681 -0.306538 0.079828
0.103817 -0.314199 0.059269
0.097583 -0.346093 0.097416
0.089211 -0.353792 0.038001
0.101503 -0.324524 0.100281
0.097490 -0.366159 0.073147
0.099526 -0.357434 0.089261
0.102643 -0.348170 0.127430
0.102633 -0.328359 0.004598
0.101532 -0.315162 0.116071
0.103680 -0.334859 0.030494
0.099724 -0.354310 0.055417
0.091396 -0.320848 0.047253
0.104317 -0.320231 0.086781
0.103309 -0.311634 0.027588
0.101715 -0.336548 0.153894
0.100727 -0.303228 0.046266
0.078247 -0.355443 0.097682
0.101142 -0.337438 0.084541
0.099648 -0.357912 0.112417
-0.086296 -0.123077 0.109015
-0.082228 -0.126052 0.036767
-0.061564 -0.124359 0.029118
-0.089174 -0.108045 0.063720
-0.067893 -0.126092 0.071831
-0.076043 -0.132276 0.059550
-0.076289 -0.127771 0.020672
-0.082176 -0.119876 0.099131
-0.082423 -0.125475 0.095763
-0.086463 -0.121613 0.068373
-0.079225 -0.128519 0.080715
-0.081551 -0.119869 0.055933
-0.079879 -0.121700 0.042755
-0.069911 -0.118031 0.014518
-0.080645 -0.123907 0.049537
-0.057350 -0.132348 0.038135
-0.088149 -0.116676 0.055918
-0.075717 -0.128903 0.046064
-0.081431 -0.128377 0.068027
-0.085794 -0.124927 0.082823
-0.085380 -0.119837 0.015640
-0.080267 -0.118835 0.078127
-0.080935 -0.122840 0.020719
-0.084165 -0.125697 0.040954
-0.075988 -0.123598 0.003012
-0.077525 -0.117925 0.049566
-0.085535 -0.119396 0.031203
-0.084444 -0.123498 0.088641
-0.089658 -0.111122 0.035755
-0.046351 -0.127961 0.058620
-0.086872 -0.123501 0.061919
-0.079524 -0.127218 0.055983
0.031830 -0.152655 0.146088
0.046164 -0.154105 -0.003316
0.034801 -0.145464 0.052594
0.052230 -0.055203 0.118227
0.053020 -0.147401 0.064504
0.067931 -0.134049 0.139622
0.054382 -0.165095 0.029684
0.014390 -0.108892 0.147630
0.070028 -0.154974 0.154170
0.025415 -0.139360 0.120415
0.051310 -0.167788 0.134832
0.080706 -0.139619 0.068908
0.031609 -0.093052 0.082157
0.058599 -0.115446 0.068090
0.078568 -0.150344 0.115851
0.024503 -0.152209 0.024697
0.073210 -0.127838 0.105999
0.035671 -0.163546 0.085303
0.065746 -0.162152 0.106913
0.052398 -0.145483 0.134952
0.028794 -0.138081 -0.021874
0.042859 -0.116078 0.131575
0.069191 -0.137504 0.001257
0.072098 -0.149755 0.043573
0.015368 -0.131151 0.032908
0.039686 -0.131526 0.094429
0.043169 -0.115046 0.021581
0.039845 -0.143645 0.160062
0.061681 -0.072845 0.044935
0.017540 -0.148494 0.103428
0.063903 -0.147793 0.087172
0.050099 -0.154811 0.104774
-0.027535 0.149518 0.209503
-0.039011 0.167846 0.203675
-0.043209 0.176493 0.201069
-0.024301 0.228906 0.184146
-0.026201 0.182910 0.201834
-0.008746 0.168277 0.208611
-0.024959 0.130930 0.214791
-0.034760 0.190209 0.194985
-0.012627 0.143410 0.215782
-0.052816 0.174982 0.195691
-0.031341 0.116103 0.219069
0.008610 0.190982 0.200975
-0.047933 0.208203 0.187335
-0.018124 0.207821 0.194200
0.006973 0.160464 0.211499
-0.055300 0.149886 0.209338
0.001499 0.208444 0.195001
-0.049820 0.127069 0.214834
-0.000220 0.133933 0.218007
-0.018917 0.162862 0.206767
-0.051294 0.197391 0.188618
-0.014218 0.189134 0.198603
-0.018434 0.196750 0.197961
-0.011056 0.164131 0.208004
-0.066563 0.195896 0.188811
-0.034985 0.196995 0.193343
-0.034864 0.212579 0.186346
-0.030383 0.163472 0.203274
-0.011483 0.225824 0.185879
-0.058721 0.163844 0.201972
-0.003107 0.183429 0.205295
-0.035423 0.143867 0.210647
0.014796 -0.359992 0.052524
0.036397 -0.359995 -0.046688
0.020701 -0.359865 -0.024354
0.049642 -0.357997 0.015215
0.029264 -0.359839 -0.005342
0.066307 -0.357923 0.049514
0.044849 -0.359727 -0.009266
-0.003669 -0.359339 0.043515
0.049868 -0.359276 0.061169
0.009193 -0.361253 0.027609
0.033037 -0.357173 0.046916
0.082212 -0.361180 -0.005244
0.013427 -0.357216 -0.009264
0.038944 -0.360267 0.009059
0.082047 -0.360110 0.030728
0.000853 -0.361113 -0.028042
0.075018 -0.360378 0.011052
0.012427 -0.360043 0.006691
0.060987 -0.360644 0.025936
0.049962 -0.360518 0.038476
0.014969 -0.359585 -0.048355
0.022844 -0.358924 0.034352
0.056956 -0.360962 -0.041441
0.073723 -0.358711 -0.026813
-0.009446 -0.358977 -0.005894
0.023948 -0.360105 0.015336
0.039256 -0.359858 -0.025534
0.030454 -0.360195 0.069116
0.056548 -0.359118 -0.018014
-0.010565 -0.359261 0.017826
0.061236 -0.361016 0.000101
0.038270 -0.361484 0.024888
-0.013957 -0.361442 -0.017454
-0.018842 -0.364645 -0.088903
0.104392 -0.362137 -0.095565
-0.071978 -0.362876 -0.068916
0.093232 -0.362748 -0.047455
-0.004559 -0.362508 -0.062270
-0.020034 -0.361429 -0.106832
0.031175 -0.361738 -0.023671
-0.082552 -0.362389 -0.025283
-0.053708 -0.362664 -0.056782
-0.092758 -0.360271 -0.042095
-0.096936 -0.361236 -0.062524
0.043380 -0.363092 -0.090969
0.069948 -0.363327 -0.102075
-0.087809 -0.361827 -0.077735
0.072905 -0.363030 -0.076682
-0.036059 -0.363089 -0.072555
0.018549 -0.362282 -0.075985
-0.068344 -0.362300 -0.047758
-0.045252 -0.362283 -0.034957
-0.064042 -0.362978 -0.120041
0.055783 -0.363240 -0.040986
-0.077558 -0.362645 -0.100206
-0.058660 -0.363127 -0.083632
0.026595 -0.362515 -0.116590
0.048209 -0.363712 -0.062078
0.008473 -0.363844 -0.097144
0.001939 -0.363197 -0.034857
-0.040031 -0.363275 -0.098361
0.124699 -0.361332 -0.062920
-0.022241 -0.362389 -0.049586
0.022013 -0.363426 -0.052127
-0.103821 -0.323827 -0.028971
-0.104043 -0.329146 -0.079008
-0.104348 -0.316191 -0.077945
-0.102430 -0.297787 -0.052449
-0.103703 -0.319004 -0.048494
-0.103342 -0.344007 -0.056242
-0.103518 -0.335948 -0.086513
-0.102207 -0.308087 -0.031573
-0.102988 -0.335858 -0.035049
-0.102940 -0.308020 -0.045449
-0.102799 -0.343383 -0.044718
-0.103319 -0.305750 -0.060542
-0.103651 -0.308712 -0.070647
-0.103285 -0.300661 -0.088151
-0.104566 -0.315839 -0.063480
-0.102929 -0.341815 -0.076151
-0.102867 -0.303384 -0.053726
-0.103241 -0.341475 -0.066524
-0.103744 -0.334172 -0.053083
-0.104007 -0.326886 -0.042290
-0.103496 -0.309295 -0.086425
-0.102612 -0.300843 -0.039736
-0.103617 -0.321546 -0.089003
-0.104037 -0.323673 -0.070452
-0.102582 -0.310660 -0.095945
-0.102893 -0.298694 -0.063809
-0.103352 -0.303660 -0.078216
-0.102818 -0.315859 -0.037633
-0.102094 -0.297810 -0.074140
-0.102727 -0.323713 -0.057449
-0.103608 -0.312099 -0.054832
-0.103853 -0.332234 -0.063728
-0.215185 0.108290 0.070621
-0.223293 0.106594 0.041358
-0.221207 0.117842 0.042118
-0.205955 0.144680 0.055230
-0.217570 0.113583 0.059751
-0.226053 0.088503 0.054351
-0.226018 0.100397 0.036661
-0.207958 0.126276 0.068524
-0.219375 0.100004 0.066901
-0.212662 0.123187 0.061055
-0.223396 0.093005 0.062004
-0.215116 0.126993 0.050963
-0.216979 0.122224 0.045289
-0.214109 0.137221 0.035909
-0.218957 0.116919 0.050156
-0.227076 0.094138 0.043974
-0.212206 0.132032 0.056479
-0.225094 0.096426 0.050833
-0.222514 0.102287 0.056747
-0.219187 0.106033 0.062653
-0.218057 0.124776 0.036736
-0.209262 0.131815 0.062779
-0.222648 0.112769 0.036246
-0.221639 0.109645 0.047326
-0.219279 0.121523 0.029545
-0.211363 0.135739 0.048424
-0.216336 0.129684 0.042096
-0.212968 0.116284 0.064916
-0.209646 0.141704 0.043523
-0.219056 0.111142 0.054147
-0.215824 0.122167 0.053972
-0.223281 0.103328 0.050131
-0.034337 -0.355145 -0.011718
-0.009577 -0.354254 -0.098896
-0.022881 -0.356385 -0.082033
0.010420 -0.355294 -0.043295
-0.017506 -0.355013 -0.062221
0.031938 -0.355382 -0.013798
0.006715 -0.354360 -0.065909
-0.054154 -0.355351 -0.019538
0.006032 -0.354626 -0.004695
-0.043394 -0.355994 -0.032362
-0.016364 -0.349080 -0.019455
0.049747 -0.357859 -0.062572
-0.033578 -0.354154 -0.070246
-0.003769 -0.355823 -0.050844
0.052746 -0.355348 -0.030502
-0.052948 -0.355135 -0.080284
0.042803 -0.356179 -0.046741
-0.039770 -0.355443 -0.054499
0.026410 -0.355416 -0.030599
0.006887 -0.356586 -0.022402
-0.035608 -0.355565 -0.098824
-0.022780 -0.355441 -0.029843
0.014556 -0.355824 -0.094681
0.041762 -0.354203 -0.082661
-0.061629 -0.355483 -0.062661
-0.024906 -0.356565 -0.045248
0.000404 -0.354895 -0.078794
-0.015773 -0.355257 0.000162
0.019071 -0.355287 -0.075818
-0.063084 -0.354914 -0.041849
0.024356 -0.356379 -0.055972
-0.005318 -0.356779 -0.037495
-0.088820 -0.251377 0.009686
-0.080002 -0.254835 -0.016983
-0.082810 -0.235872 -0.014765
-0.084691 -0.197213 -0.005717
-0.086012 -0.244751 -0.006005
-0.085085 -0.278259 -0.010736
-0.078716 -0.263384 -0.020216
-0.088894 -0.225355 0.008128
-0.088400 -0.264475 0.004980
-0.086344 -0.231611 -0.002523
-0.086445 -0.273007 -0.003493
-0.083987 -0.223501 -0.009304
-0.083533 -0.228103 -0.012602
-0.079219 -0.210222 -0.016679
-0.083675 -0.240157 -0.012837
-0.080492 -0.271646 -0.017368
-0.085994 -0.212454 -0.006431
-0.083553 -0.268566 -0.012229
-0.085543 -0.260662 -0.007868
-0.087536 -0.251848 -0.002332
-0.078184 -0.227804 -0.017170
-0.087034 -0.217547 -0.000508
-0.079098 -0.241941 -0.018237
-0.082076 -0.248188 -0.014356
-0.075810 -0.234650 -0.019293
-0.083437 -0.212357 -0.011643
-0.081344 -0.219121 -0.015141
-0.088364 -0.240083 0.003617
-0.080704 -0.201593 -0.014059
-0.083749 -0.250396 -0.010398
-0.084976 -0.232780 -0.009563
-0.083798 -0.260441 -0.013649
-0.075163 -0.213868 0.016596
-0.087145 -0.214941 -0.000403
-0.081576 -0.195237 0.004572
-0.080815 -0.149708 0.010432
-0.081400 -0.204592 0.011930
-0.083192 -0.249024 0.008234
-0.087951 -0.228683 -0.002012
-0.076634 -0.183254 0.015868
-0.079338 -0.225745 0.014663
-0.082092 -0.192903 0.011897
-0.081880 -0.241563 0.013939
-0.082320 -0.183483 0.008787
-0.085577 -0.188379 0.004614
-0.083847 -0.167959 -0.001278
-0.083429 -0.202981 0.006929
-0.081720 -0.238328 0.004465
-0.082200 -0.169026 0.010104
-0.084621 -0.233211 0.008688
-0.084047 -0.221233 0.010447
-0.083147 -0.213572 0.012050
-0.086996 -0.186740 -0.003733
-0.078544 -0.180253 0.012652
-0.086269 -0.202129 -0.000223
-0.086101 -0.209001 0.006675
-0.086605 -0.194981 -0.007946
-0.083943 -0.170937 0.006277
-0.085931 -0.177763 0.002416
-0.080076 -0.200706 0.013651
-0.084098 -0.158850 0.003430
-0.074504 -0.209794 0.009192
-0.084259 -0.191596 0.008539
-0.086369 -0.222666 0.005538
-0.143179 0.163345 0.146178
-0.172243 0.163261 0.109489
-0.165778 0.177463 0.112892
-0.140449 0.210822 0.124808
-0.154583 0.172320 0.132096
-0.166004 0.142449 0.128850
-0.175660 0.154184 0.106951
-0.134949 0.187551 0.142372
-0.151101 0.153978 0.142774
-0.147466 0.182367 0.133082
-0.159159 0.145311 0.137422
-0.156304 0.187786 0.121139
-0.160558 0.183431 0.113684
-0.159641 0.201804 0.104933
-0.159873 0.175570 0.122436
-0.173682 0.147080 0.115618
-0.146729 0.193750 0.128779
-0.167699 0.149142 0.124037
-0.162022 0.157000 0.129556
-0.154293 0.163428 0.136385
-0.165425 0.185867 0.105551
-0.142734 0.191940 0.134176
-0.170046 0.172267 0.105992
-0.164952 0.167440 0.117868
-0.170736 0.181992 0.097209
-0.150626 0.198517 0.119041
-0.159299 0.191959 0.110851
-0.142336 0.175340 0.139813
-0.151616 0.205999 0.112500
-0.158130 0.168447 0.125223
-0.154350 0.183475 0.124469
-0.166417 0.159283 0.121006
0.026775 0.073194 0.231460
0.051732 0.074302 0.224541
0.061689 0.084432 0.220467
0.028392 0.113561 0.225479
0.048504 0.074970 0.225975
0.042382 0.067725 0.229723
0.056037 0.073057 0.223455
0.027048 0.086459 0.229109
0.010498 0.070001 0.234303
0.029432 0.080226 0.229631
0.025461 0.068144 0.233675
0.017202 0.088321 0.230910
0.048109 0.086136 0.224843
0.067104 0.100475 0.218124
0.024093 0.077816 0.229174
0.059872 0.069167 0.222879
0.032891 0.098983 0.225563
0.048226 0.069198 0.226203
0.027093 0.074522 0.231194
0.032457 0.073349 0.231179
0.051903 0.087798 0.222155
0.042581 0.088427 0.225015
0.039829 0.084080 0.226936
0.043233 0.077593 0.225938
0.066901 0.079048 0.220131
0.048589 0.097777 0.221938
0.046819 0.091705 0.223553
0.033873 0.077383 0.229091
0.049191 0.110407 0.222036
0.062284 0.072812 0.221595
0.038778 0.082305 0.226771
0.044627 0.071753 0.227811
-0.094850 -0.076332 0.097187
-0.094907 -0.079291 0.038071
-0.094275 -0.071156 0.037918
-0.094539 -0.048831 0.064469
-0.094768 -0.073976 0.069808
-0.093145 -0.090454 0.061692
-0.092796 -0.084178 0.028908
-0.094287 -0.063484 0.091848
-0.092640 -0.083002 0.087919
-0.094853 -0.067690 0.072313
-0.091886 -0.088061 0.077239
-0.094331 -0.065006 0.055821
-0.095835 -0.066849 0.046611
-0.093574 -0.056519 0.025770
-0.094347 -0.073560 0.053073
-0.090978 -0.088702 0.040975
-0.096198 -0.060087 0.061955
-0.093082 -0.087125 0.051986
-0.094050 -0.083694 0.065683
-0.095501 -0.078625 0.078390
-0.094870 -0.065893 0.027423
-0.095411 -0.059104 0.077741
-0.093770 -0.073795 0.027350
-0.095273 -0.076585 0.045687
-0.092960 -0.068838 0.016214
-0.095413 -0.057484 0.051762
-0.096161 -0.060594 0.038136
-0.094688 -0.071813 0.084241
-0.095186 -0.050924 0.041775
-0.089858 -0.077035 0.060051
-0.096691 -0.069921 0.061564
-0.095377 -0.081380 0.054505
-0.186396 0.142209 0.103370
-0.202520 0.140460 0.065557
-0.198724 0.153962 0.067705
-0.178967 0.185286 0.083241
-0.192101 0.149549 0.088597
-0.201029 0.124256 0.084042
-0.205257 0.133290 0.061096
-0.178225 0.164877 0.100606
-0.191873 0.132932 0.099011
-0.185755 0.159669 0.090888
-0.197379 0.125236 0.093201
-0.190872 0.165219 0.077678
-0.194011 0.159835 0.071019
-0.191311 0.177414 0.060408
-0.194930 0.152836 0.077940
-0.205166 0.127369 0.069814
-0.185334 0.170142 0.085452
-0.202126 0.128040 0.078708
-0.197847 0.135081 0.085864
-0.192819 0.140761 0.093301
-0.196209 0.162194 0.060790
-0.182164 0.169890 0.092274
-0.200988 0.148098 0.060734
-0.198695 0.143747 0.073358
-0.198226 0.159144 0.053119
-0.186314 0.175390 0.075949
-0.193212 0.168413 0.066822
-0.184061 0.152132 0.096527
-0.185677 0.181750 0.068790
-0.193971 0.146124 0.081767
-0.190699 0.159611 0.081748
-0.199863 0.136989 0.077887
0.053847 -0.218177 0.164388
0.057131 -0.218608 0.074697
0.050117 -0.202879 0.124507
0.059834 -0.144468 0.154620
0.062114 -0.200509 0.118149
0.072775 -0.192592 0.164750
0.063326 -0.252564 0.100937
0.045481 -0.171033 0.168698
0.076565 -0.233526 0.169369
0.046048 -0.187403 0.152223
0.069006 -0.265402 0.157051
0.085912 -0.188668 0.128545
0.041417 -0.163074 0.135546
0.060260 -0.170983 0.125774
0.085440 -0.212118 0.155410
0.050274 -0.223916 0.104559
0.077614 -0.174539 0.149833
0.055095 -0.249910 0.137977
0.082747 -0.247394 0.143547
0.061961 -0.204836 0.160116
0.044056 -0.189860 0.066834
0.055203 -0.174752 0.156950
0.071958 -0.193496 0.082289
0.075989 -0.218131 0.117644
0.037164 -0.182643 0.103209
0.051732 -0.181567 0.138846
0.049930 -0.169158 0.094057
0.055788 -0.195848 0.169952
0.064382 -0.151925 0.115690
0.048006 -0.209416 0.143892
0.069072 -0.198660 0.139654
0.061953 -0.227390 0.145462
-0.070108 -0.136688 0.067522
-0.081346 -0.141386 0.017649
-0.066832 -0.140650 0.017413
-0.078414 -0.124083 0.042158
-0.065577 -0.140202 0.044806
-0.072718 -0.147479 0.031090
-0.079503 -0.144517 0.006819
-0.065462 -0.132932 0.063141
-0.069000 -0.138992 0.056571
-0.076803 -0.137356 0.041933
-0.069848 -0.143248 0.046271
-0.079103 -0.136259 0.033172
-0.078114 -0.139751 0.024725
-0.074841 -0.135053 0.006370
-0.076807 -0.139993 0.029100
-0.063961 -0.145949 0.020518
-0.080011 -0.134514 0.034836
-0.073957 -0.142492 0.026808
-0.074508 -0.141218 0.039752
-0.074952 -0.139673 0.050178
-0.086000 -0.137608 0.002787
-0.071185 -0.134738 0.047811
-0.081842 -0.139186 0.009037
-0.081131 -0.140645 0.022984
-0.082083 -0.140766 -0.007965
-0.074509 -0.134965 0.031985
-0.082914 -0.136068 0.017309
-0.070945 -0.137764 0.054277
-0.084933 -0.129544 0.021251
-0.050380 -0.142100 0.036967
-0.078127 -0.139878 0.037806
-0.076794 -0.141407 0.032684
-0.228052 0.088986 0.039218
-0.232725 0.087933 0.009901
-0.231364 0.095732 0.009672
-0.218441 0.118189 0.023885
-0.230268 0.092192 0.027691
-0.237360 0.073800 0.020693
-0.234529 0.083476 0.004351
-0.222486 0.102080 0.036624
-0.232132 0.082860 0.034766
-0.225957 0.100008 0.027970
-0.235369 0.078405 0.028771
-0.227263 0.101545 0.019061
-0.228049 0.098249 0.013905
-0.223855 0.110305 0.003179
-0.230307 0.094743 0.017522
-0.236679 0.078267 0.010990
-0.225002 0.106966 0.023961
-0.235040 0.080933 0.017851
-0.233570 0.084825 0.023926
-0.231606 0.086853 0.029849
-0.227390 0.100486 0.004369
-0.222621 0.107331 0.030846
-0.231590 0.091939 0.003047
-0.231889 0.090543 0.014774
-0.228354 0.097482 -0.004397
-0.223424 0.109643 0.016282
-0.226849 0.104089 0.010760
-0.227005 0.094570 0.032122
-0.220777 0.115326 0.012871
-0.230363 0.090927 0.021628
-0.228022 0.097915 0.021560
-0.233948 0.085722 0.017791
-0.076412 0.171828 0.188342
-0.134712 0.181144 0.141281
-0.112658 0.200501 0.150856
-0.087602 0.244441 0.154020
-0.096463 0.189296 0.171161
-0.108406 0.152831 0.172474
-0.136708 0.162464 0.145443
-0.066055 0.208801 0.179437
-0.091060 0.164954 0.184426
-0.100424 0.198282 0.165481
-0.104338 0.153505 0.179511
-0.111031 0.210718 0.155012
-0.114525 0.209694 0.144107
-0.110141 0.230156 0.138924
-0.113917 0.188929 0.160295
-0.123718 0.158427 0.156006
-0.094887 0.220111 0.162789
-0.116423 0.156683 0.162967
-0.115352 0.170510 0.167188
-0.100780 0.178465 0.174311
-0.130693 0.208662 0.132485
-0.081948 0.212791 0.167823
-0.130480 0.196796 0.139527
-0.121859 0.186794 0.153517
-0.135249 0.204153 0.126804
-0.097932 0.224010 0.152387
-0.112834 0.219870 0.141386
-0.079729 0.191856 0.178966
-0.106262 0.237636 0.142190
-0.095392 0.180373 0.162441
-0.105900 0.205817 0.160604
-0.117203 0.173166 0.159749
-0.069035 -0.276439 0.000075
-0.070965 -0.274699 -0.026083
-0.051892 -0.257739 -0.022655
-0.070327 -0.204247 -0.019603
-0.060693 -0.268019 -0.020388
-0.069520 -0.315115 -0.022953
-0.073021 -0.288434 -0.024323
-0.069124 -0.246859 -0.003386
-0.073694 -0.285816 -0.010721
-0.073454 -0.259324 -0.022204
-0.072996 -0.300217 -0.019851
-0.075766 -0.247669 -0.020679
-0.069773 -0.253282 -0.023518
-0.057961 -0.230317 -0.021013
-0.074686 -0.268668 -0.024679
-0.055751 -0.299508 -0.023581
-0.073171 -0.230132 -0.021391
-0.066345 -0.290632 -0.024269
-0.073983 -0.278646 -0.023483
-0.072056 -0.273376 -0.017844
-0.071686 -0.251676 -0.023983
-0.064598 -0.248603 -0.019960
-0.072238 -0.260891 -0.023157
-0.071280 -0.270307 -0.023914
-0.065172 -0.264485 -0.023622
-0.067085 -0.237654 -0.023294
-0.073106 -0.245237 -0.023736
-0.070840 -0.263412 -0.013851
-0.068568 -0.216989 -0.021241
-0.041013 -0.274405 -0.023376
-0.071486 -0.256672 -0.024498
-0.069571 -0.283166 -0.025114
-0.040783 0.002343 0.147050
-0.052613 0.007193 0.097594
-0.021362 0.015951 0.095535
-0.029037 0.020222 0.110837
-0.025026 0.011470 0.123388
-0.066276 -0.007292 0.111667
-0.060574 0.005286 0.088136
-0.019600 0.014219 0.137975
-0.057544 -0.001690 0.135220
-0.047867 0.007298 0.118659
-0.066356 -0.007405 0.123711
-0.057663 0.003521 0.107240
-0.039585 0.011270 0.100753
-0.021137 0.020242 0.079492
-0.055423 0.004926 0.104091
-0.040993 0.003600 0.105089
-0.042106 0.010906 0.108081
-0.052260 0.003842 0.107874
-0.058976 0.004112 0.117019
-0.051666 0.004479 0.128202
-0.048060 0.011451 0.078825
-0.027225 0.013481 0.122268
-0.059167 0.005447 0.083015
-0.056473 0.005851 0.100913
-0.043619 0.012979 0.065968
-0.024484 0.016912 0.107902
-0.040322 0.013612 0.091784
-0.039853 0.007998 0.130678
-0.035283 0.017375 0.095201
-0.007148 0.014968 0.114443
-0.044243 0.008885 0.115516
-0.048542 0.007938 0.112275
-0.098134 -0.095102 0.074437
-0.095553 -0.098711 0.014688
-0.096454 -0.091073 0.013271
-0.101600 -0.069525 0.040532
-0.097155 -0.094386 0.045904
-0.092214 -0.109374 0.037497
-0.092061 -0.102987 0.004196
-0.100153 -0.084070 0.068532
-0.093847 -0.101746 0.064586
-0.098582 -0.087978 0.048008
-0.091365 -0.106167 0.053424
-0.098116 -0.085270 0.032129
-0.099229 -0.087592 0.022892
-0.098210 -0.077193 0.000822
-0.096420 -0.093400 0.028307
-0.088979 -0.108264 0.016902
-0.101141 -0.080216 0.037395
-0.092167 -0.105354 0.027048
-0.094402 -0.103214 0.042050
-0.097887 -0.097931 0.054362
-0.098104 -0.086294 0.003079
-0.101031 -0.079926 0.053887
-0.095307 -0.093187 0.002879
-0.096429 -0.096246 0.021465
-0.095020 -0.089729 -0.007965
-0.100305 -0.078382 0.027066
-0.100119 -0.081625 0.014074
-0.098522 -0.091805 0.060419
-0.101332 -0.071645 0.017624
-0.091243 -0.097317 0.035845
-0.100033 -0.090478 0.037571
-0.095991 -0.100527 0.029732
0.040698 0.074724 0.224383
0.085528 0.081175 0.208789
0.047461 0.089887 0.223398
0.055044 0.137390 0.208531
0.070146 0.089981 0.212700
0.061253 0.097097 0.215755
0.084508 0.073557 0.214699
0.020870 0.107428 0.223586
0.053378 0.075937 0.225050
0.029856 0.094146 0.226233
0.056176 0.072809 0.223079
0.096394 0.089729 0.203216
0.041567 0.125821 0.221757
0.069640 0.115578 0.213241
0.087747 0.076715 0.208095
0.043494 0.080214 0.225633
0.081256 0.105303 0.204117
0.040103 0.075440 0.230868
0.080808 0.072462 0.216772
0.058840 0.083647 0.218364
0.068621 0.102362 0.213568
0.050582 0.109539 0.215596
0.096449 0.098962 0.200741
0.096458 0.075585 0.206608
0.034565 0.106339 0.223827
0.046191 0.109454 0.221308
0.076128 0.119345 0.205259
0.038634 0.082543 0.225131
0.080989 0.130758 0.203136
0.016399 0.082257 0.230933
0.078157 0.089660 0.213427
0.063995 0.073992 0.217306
0.036859 -0.295809 0.090135
0.040496 -0.296807 0.014174
0.076565 -0.295616 0.004961
0.016275 -0.296070 0.031319
0.073668 -0.296137 0.055345
0.043006 -0.295234 0.031472
0.040203 -0.295150 -0.004035
0.062226 -0.295140 0.081204
0.011273 -0.296575 0.076700
0.029992 -0.296615 0.039954
0.003163 -0.295181 0.054575
-0.005428 -0.295247 0.036387
0.062903 -0.295610 0.012659
0.065358 -0.295769 -0.006490
0.000819 -0.295870 0.018802
0.072596 -0.295629 0.020880
0.031597 -0.295838 0.024363
0.053673 -0.294995 0.021843
0.017786 -0.295760 0.049342
0.029152 -0.295265 0.064157
0.023445 -0.296328 -0.012653
0.060278 -0.295769 0.057138
0.009713 -0.295478 -0.000119
0.019285 -0.296371 0.014540
0.052085 -0.295691 -0.016310
0.063299 -0.296430 0.032351
0.050837 -0.296059 0.004429
0.048617 -0.295695 0.068454
0.030134 -0.295954 0.005666
0.081188 -0.295537 0.038472
0.040691 -0.296301 0.050491
0.054907 -0.296517 0.042226
-0.029551 -0.091324 0.114784
-0.005538 -0.092629 0.005490
-0.022094 -0.086220 0.046516
0.011032 -0.026349 0.091347
-0.002562 -0.075071 0.044607
0.024868 -0.061300 0.114919
0.003272 -0.105798 0.036311
-0.037911 -0.044121 0.111770
0.016976 -0.096620 0.118235
-0.031485 -0.073820 0.089888
-0.011185 -0.110865 0.100239
0.057872 -0.070230 0.052819
-0.020965 -0.034574 0.063534
0.009248 -0.052948 0.061768
0.051172 -0.085012 0.100603
-0.038081 -0.095874 0.027108
0.040572 -0.055347 0.082287
-0.025475 -0.108398 0.065085
0.029624 -0.104998 0.078966
0.000771 -0.078019 0.096726
-0.023584 -0.067708 0.008008
-0.010359 -0.044683 0.099385
0.022120 -0.070783 0.012826
0.038842 -0.091954 0.034197
-0.043591 -0.060573 0.045220
-0.015095 -0.063186 0.072792
-0.005355 -0.042196 0.027215
-0.011487 -0.073175 0.126397
0.024419 -0.029463 0.046718
-0.050453 -0.086006 0.076161
0.017961 -0.079127 0.066371
-0.006127 -0.095026 0.075376
0.001407 -0.295179 0.048399
0.005754 -0.296336 -0.004416
0.043699 -0.294812 -0.010901
-0.017920 -0.295301 0.008595
0.039515 -0.295326 0.027038
0.007950 -0.294710 0.009415
0.005344 -0.294605 -0.019994
0.026518 -0.294540 0.043071
-0.022437 -0.296079 0.040981
-0.004375 -0.295869 0.014967
-0.030557 -0.294804 0.025197
-0.037241 -0.294423 0.014138
0.028114 -0.295320 -0.005837
0.031688 -0.295094 -0.019837
-0.031772 -0.294913 -0.001009
0.038425 -0.294773 0.001690
-0.003092 -0.295018 0.003441
0.018590 -0.294611 0.001819
-0.015982 -0.294880 0.022699
-0.005000 -0.294894 0.032918
-0.010659 -0.295407 -0.025860
0.026398 -0.295412 0.027099
-0.023130 -0.294768 -0.016003
-0.014124 -0.295716 -0.004485
0.017984 -0.295072 -0.028088
0.028369 -0.295739 0.011030
0.016062 -0.295133 -0.012294
0.013072 -0.295048 0.034704
-0.003820 -0.295217 -0.011353
0.048435 -0.294456 0.013652
0.005120 -0.295462 0.023424
0.019333 -0.295893 0.017257
-0.232544 0.074783 0.027226
-0.236798 0.073894 -0.017894
-0.236295 0.077154 -0.020543
-0.228524 0.095598 0.002730
-0.235282 0.075110 0.007324
-0.239153 0.071342 -0.003131
-0.237523 0.072688 -0.027189
-0.230171 0.082268 0.022514
-0.234756 0.072176 0.019716
-0.232848 0.080746 0.006571
-0.237752 0.071932 0.008865
-0.235032 0.079109 -0.005068
-0.234128 0.079099 -0.012466
-0.232499 0.087034 -0.030107
-0.235275 0.075997 -0.008221
-0.238605 0.071408 -0.018183
-0.232805 0.085113 -0.000222
-0.237246 0.072156 -0.009521
-0.236138 0.072710 0.002484
-0.235494 0.073163 0.011943
-0.234138 0.079294 -0.028823
-0.231154 0.086709 0.011896
-0.236581 0.075011 -0.030233
-0.236632 0.074520 -0.013292
-0.235376 0.077286 -0.040949
-0.232057 0.087703 -0.008814
-0.234725 0.082108 -0.018323
-0.233023 0.077177 0.015387
-0.230912 0.092872 -0.014910
-0.234166 0.075540 -0.001154
-0.234361 0.077293 -0.000199
-0.237250 0.073481 -0.005877
-0.089261 -0.154282 0.030724
-0.088357 -0.159691 -0.005409
-0.089309 -0.149072 -0.003835
-0.089090 -0.122716 0.014569
-0.090410 -0.153034 0.015223
-0.088773 -0.175363 0.006129
-0.087672 -0.164910 -0.012909
-0.089550 -0.140235 0.029403
-0.089579 -0.164120 0.024563
-0.089059 -0.143849 0.017597
-0.089249 -0.171134 0.017072
-0.089555 -0.141127 0.007136
-0.089210 -0.144224 0.001038
-0.088230 -0.132193 -0.010117
-0.089334 -0.150835 0.003219
-0.087902 -0.170622 -0.005089
-0.090024 -0.134803 0.012334
-0.089062 -0.168387 0.002721
-0.089595 -0.163500 0.010941
-0.090307 -0.157968 0.018466
-0.087034 -0.143120 -0.009849
-0.090050 -0.134855 0.021139
-0.087552 -0.153534 -0.011184
-0.088982 -0.155717 -0.000326
-0.086183 -0.147539 -0.017714
-0.089540 -0.132072 0.004039
-0.089010 -0.137732 -0.003403
-0.089880 -0.149138 0.022953
-0.087957 -0.125633 -0.000807
-0.088718 -0.155774 0.007776
-0.090161 -0.147402 0.009206
-0.089801 -0.162363 0.001735
-0.053684 -0.297340 0.026676
-0.050720 -0.297899 -0.040810
-0.025589 -0.297094 -0.047028
-0.061867 -0.296553 -0.023561
-0.029121 -0.296885 -0.005392
-0.049587 -0.296246 -0.025316
-0.050292 -0.296801 -0.054354
-0.036078 -0.296417 0.017695
-0.064764 -0.297774 0.014074
-0.055106 -0.297674 -0.017725
-0.070409 -0.297022 -0.003405
-0.072893 -0.297575 -0.021413
-0.038015 -0.297214 -0.040928
-0.034858 -0.297252 -0.055908
-0.068758 -0.297583 -0.034833
-0.027902 -0.296545 -0.034447
-0.055365 -0.297147 -0.031638
-0.044079 -0.296861 -0.033533
-0.061205 -0.297447 -0.010054
-0.056127 -0.296836 0.003181
-0.058719 -0.297630 -0.061591
-0.040305 -0.296914 -0.003677
-0.065551 -0.297823 -0.052028
-0.061554 -0.298448 -0.039701
-0.045641 -0.297097 -0.064235
-0.036187 -0.296973 -0.025046
-0.044436 -0.297411 -0.048114
-0.045947 -0.297122 0.007029
-0.056112 -0.297138 -0.046780
-0.020063 -0.296523 -0.018996
-0.048977 -0.297224 -0.010095
-0.042374 -0.297852 -0.017914
-0.080456 -0.297365 -0.012440
-0.078632 -0.297759 -0.062094
-0.052753 -0.296825 -0.066907
-0.089253 -0.296955 -0.048221
-0.056183 -0.297012 -0.034350
-0.077733 -0.296226 -0.049564
-0.078315 -0.296965 -0.073460
-0.064801 -0.296830 -0.017954
-0.091243 -0.297946 -0.020114
-0.083527 -0.297332 -0.043770
-0.096039 -0.297281 -0.032089
-0.096037 -0.297956 -0.046219
-0.065310 -0.297128 -0.062579
-0.061742 -0.297043 -0.074230
-0.094568 -0.297636 -0.058191
-0.055987 -0.296538 -0.056586
-0.083188 -0.297080 -0.055431
-0.071736 -0.296763 -0.056481
-0.088563 -0.297573 -0.037669
-0.084341 -0.297014 -0.027510
-0.086223 -0.297294 -0.080058
-0.066725 -0.297083 -0.033139
-0.091988 -0.297917 -0.071642
-0.089018 -0.298269 -0.061415
-0.072672 -0.296951 -0.081476
-0.063853 -0.297272 -0.049098
-0.071724 -0.297414 -0.068639
-0.074256 -0.296951 -0.025165
-0.084039 -0.297198 -0.067574
-0.047914 -0.296361 -0.045251
-0.077931 -0.296975 -0.037464
-0.070712 -0.297687 -0.043467
-0.050543 -0.361572 -0.036158
-0.022636 -0.360604 -0.141381
-0.040258 -0.360662 -0.120862
-0.004677 -0.359900 -0.077883
-0.033613 -0.361647 -0.097760
0.018840 -0.362531 -0.042049
-0.009116 -0.360810 -0.104086
-0.068338 -0.363157 -0.046995
-0.007219 -0.360189 -0.029438
-0.055691 -0.361850 -0.064636
-0.031744 -0.357616 -0.046410
0.035903 -0.362400 -0.098091
-0.048304 -0.359654 -0.107701
-0.018977 -0.363149 -0.085867
0.039944 -0.360329 -0.059930
-0.063938 -0.360896 -0.122017
0.029514 -0.364329 -0.080368
-0.053882 -0.362610 -0.089099
0.010199 -0.360177 -0.062673
-0.007694 -0.361874 -0.051727
-0.051242 -0.362883 -0.143319
-0.039270 -0.360923 -0.060501
0.003077 -0.362413 -0.136378
0.027928 -0.359283 -0.120627
-0.076910 -0.362209 -0.101644
-0.042170 -0.362697 -0.079517
-0.016574 -0.361384 -0.119488
-0.030293 -0.362952 -0.024360
0.007909 -0.361050 -0.115708
-0.073126 -0.360465 -0.077733
0.009769 -0.362671 -0.090635
-0.021066 -0.362546 -0.069022
-0.095380 -0.114499 0.050748
-0.087849 -0.117839 -0.000929
-0.091419 -0.110025 -0.002208
-0.098307 -0.089711 0.020400
-0.093273 -0.114017 0.025062
-0.086692 -0.129333 0.018569
-0.084131 -0.122340 -0.009805
-0.098190 -0.103842 0.045540
-0.090175 -0.121466 0.043067
-0.094389 -0.107401 0.028109
-0.086715 -0.126358 0.032760
-0.093900 -0.104787 0.013879
-0.093829 -0.106329 0.005846
-0.092795 -0.096249 -0.012727
-0.090765 -0.112465 0.009837
-0.083778 -0.128079 0.000174
-0.096616 -0.100250 0.018274
-0.086146 -0.124803 0.009276
-0.089140 -0.122794 0.022081
-0.093268 -0.117018 0.032934
-0.089933 -0.105522 -0.010146
-0.098415 -0.099146 0.033069
-0.087725 -0.112094 -0.011234
-0.089641 -0.115440 0.004299
-0.087188 -0.108720 -0.019185
-0.095909 -0.097819 0.008854
-0.093785 -0.101144 -0.001720
-0.095141 -0.111102 0.038673
-0.095752 -0.091369 0.000728
-0.088661 -0.116690 0.016475
-0.094862 -0.110042 0.017863
-0.090056 -0.120091 0.010778
-0.103286 -0.346392 -0.070764
-0.103179 -0.350954 -0.119110
-0.103785 -0.338195 -0.117316
-0.102814 -0.310114 -0.092454
-0.103546 -0.341966 -0.088820
-0.102379 -0.363361 -0.096993
-0.102567 -0.356281 -0.127485
-0.102412 -0.327964 -0.073530
-0.102593 -0.356891 -0.076301
-0.102856 -0.329883 -0.085333
-0.102144 -0.361679 -0.085041
-0.103695 -0.326887 -0.100567
-0.103275 -0.329750 -0.110927
-0.103160 -0.317403 -0.125990
-0.104148 -0.338778 -0.103897
-0.101930 -0.361795 -0.116618
-0.103690 -0.320993 -0.092619
-0.102609 -0.360607 -0.106650
-0.103063 -0.355639 -0.093613
-0.103333 -0.349352 -0.083248
-0.103094 -0.331085 -0.126199
-0.102545 -0.318485 -0.080843
-0.103036 -0.344107 -0.128293
-0.103360 -0.346302 -0.110512
-0.102099 -0.333762 -0.135053
-0.103093 -0.315393 -0.104273
-0.103417 -0.322937 -0.116854
-0.102829 -0.338235 -0.079068
-0.102359 -0.311343 -0.113480
-0.102567 -0.346699 -0.097802
-0.103470 -0.333784 -0.095005
-0.103211 -0.353536 -0.104434
-0.087887 -0.029680 0.085169
-0.088817 -0.032680 0.042179
-0.083067 -0.025958 0.040591
-0.068866 -0.010947 0.062205
-0.086219 -0.026701 0.064649
-0.098245 -0.050309 0.053568
-0.089865 -0.038586 0.034654
-0.079037 -0.018582 0.080533
-0.092304 -0.037246 0.075588
-0.082903 -0.022850 0.064566
-0.095022 -0.045890 0.066272
-0.080525 -0.022680 0.054392
-0.083192 -0.023518 0.048285
-0.071689 -0.016580 0.030425
-0.085290 -0.027161 0.051791
-0.093282 -0.043542 0.042286
-0.078696 -0.018905 0.058519
-0.093241 -0.040846 0.050530
-0.091559 -0.036120 0.059099
-0.090163 -0.031813 0.068347
-0.079399 -0.022935 0.035026
-0.076939 -0.017439 0.069297
-0.084322 -0.029916 0.031548
-0.087032 -0.030005 0.048147
-0.079136 -0.025346 0.020799
-0.075818 -0.017004 0.051835
-0.079207 -0.019459 0.042042
-0.086153 -0.025668 0.073569
-0.070541 -0.013632 0.047927
-0.082620 -0.027926 0.055580
-0.084147 -0.024374 0.057057
-0.091642 -0.034070 0.053411
0.070203 -0.296126 0.164990
0.074150 -0.297238 0.057497
0.095263 -0.296190 0.045338
0.057723 -0.296582 0.086633
0.093393 -0.296411 0.116161
0.076091 -0.295522 0.083469
0.074572 -0.295691 0.036567
0.088657 -0.296000 0.153676
0.053109 -0.296804 0.146239
0.067975 -0.297009 0.097514
0.046358 -0.295656 0.118347
0.037691 -0.296154 0.088167
0.087369 -0.295963 0.058655
0.088437 -0.296602 0.030070
0.044782 -0.296393 0.067986
0.096028 -0.296534 0.064265
0.068711 -0.296249 0.074038
0.082288 -0.295733 0.069759
0.059395 -0.295971 0.110012
0.066689 -0.295569 0.129276
0.063966 -0.296770 0.024813
0.083607 -0.296290 0.120820
0.051044 -0.296243 0.038891
0.058301 -0.296670 0.060595
0.079187 -0.296245 0.018421
0.088754 -0.296613 0.081532
0.081000 -0.296607 0.046488
0.079295 -0.295924 0.136998
0.066743 -0.296179 0.048430
0.097346 -0.296601 0.095719
0.077136 -0.296678 0.109522
0.083475 -0.296963 0.095725
0.038994 0.099886 0.223997
0.075261 0.102024 0.210126
0.073955 0.124637 0.206498
0.037512 0.177237 0.204073
0.060983 0.107702 0.214241
0.061525 0.073691 0.221933
0.081311 0.090456 0.210526
0.031162 0.130994 0.217371
0.031650 0.088156 0.227437
0.042194 0.118824 0.218300
0.049335 0.075924 0.227226
0.044528 0.135727 0.213674
0.059219 0.127995 0.211143
0.080073 0.155368 0.194476
0.050998 0.112975 0.215047
0.079295 0.083120 0.216543
0.045170 0.153099 0.207554
0.063278 0.083361 0.220595
0.048767 0.093778 0.222841
0.048892 0.101635 0.219936
0.072955 0.135410 0.201443
0.048793 0.135588 0.211657
0.067883 0.121008 0.208114
0.064038 0.108707 0.212472
0.083303 0.118903 0.201706
0.058073 0.150537 0.205027
0.061268 0.143256 0.204512
0.042144 0.109906 0.220568
0.061301 0.171001 0.198074
0.070192 0.100530 0.213266
0.053978 0.124651 0.213438
0.062728 0.092680 0.218743
0.102031 -0.324409 0.146979
0.103313 -0.330843 0.031438
0.103021 -0.313176 0.028015
0.099621 -0.297735 0.087530
0.103182 -0.316951 0.098965
0.103856 -0.350512 0.078733
0.103710 -0.339382 0.013985
0.102036 -0.301870 0.139288
0.103180 -0.337250 0.128846
0.102712 -0.303589 0.102261
0.103321 -0.347082 0.108048
0.103106 -0.303484 0.068081
0.102118 -0.303057 0.049098
0.100854 -0.297780 0.002169
0.102503 -0.313724 0.059361
0.105073 -0.349833 0.031950
0.101703 -0.300506 0.078277
0.103271 -0.346268 0.054349
0.103448 -0.335289 0.090851
0.102436 -0.325866 0.115503
0.102635 -0.305276 0.012769
0.099806 -0.297118 0.115078
0.103893 -0.320816 0.004988
0.102795 -0.322689 0.045702
0.102353 -0.307242 -0.011226
0.101448 -0.295408 0.061395
0.101895 -0.298403 0.028373
0.102185 -0.311701 0.126090
0.100448 -0.296351 0.040005
0.104538 -0.323024 0.078015
0.101700 -0.310851 0.085667
0.103034 -0.333762 0.065698
-0.011095 -0.296528 0.023685
-0.006215 -0.297442 -0.026707
0.026593 -0.296279 -0.033271
-0.026280 -0.296707 -0.013842
0.022725 -0.296289 0.003613
-0.004508 -0.295939 -0.013366
-0.006356 -0.296386 -0.041285
0.012146 -0.295939 0.018757
-0.030573 -0.297099 0.016717
-0.014357 -0.296963 -0.007856
-0.037580 -0.296234 0.002826
-0.042999 -0.296142 -0.008703
0.013149 -0.296763 -0.028055
0.015712 -0.296532 -0.041397
-0.038445 -0.296471 -0.023683
0.023133 -0.296117 -0.020622
-0.013974 -0.296491 -0.019193
0.004548 -0.296274 -0.020733
-0.024730 -0.296395 -0.000619
-0.015511 -0.296186 0.008970
-0.019999 -0.296876 -0.047090
0.010945 -0.296638 0.003449
-0.030741 -0.296499 -0.037704
-0.023395 -0.297216 -0.026689
0.003493 -0.296315 -0.049168
0.013134 -0.296726 -0.012258
0.002789 -0.296636 -0.034125
0.000010 -0.296420 0.010927
-0.014840 -0.296741 -0.033168
0.030823 -0.295886 -0.009170
-0.006612 -0.296713 0.000057
0.005545 -0.297345 -0.005855
-0.086534 -0.213548 -0.004243
-0.075150 -0.215589 -0.027671
-0.073301 -0.196260 -0.026650
-0.081659 -0.156668 -0.020477
-0.080538 -0.206602 -0.021211
-0.079596 -0.244794 -0.024247
-0.073058 -0.225354 -0.029273
-0.087108 -0.186957 -0.006119
-0.085048 -0.226675 -0.009929
-0.082897 -0.195148 -0.018590
-0.082256 -0.237149 -0.018312
-0.079939 -0.185255 -0.021551
-0.079217 -0.190607 -0.025023
-0.071280 -0.172203 -0.027569
-0.078587 -0.202997 -0.025436
-0.071287 -0.235986 -0.028018
-0.082690 -0.172789 -0.021568
-0.077826 -0.230425 -0.025428
-0.081412 -0.221787 -0.022230
-0.083883 -0.212498 -0.017812
-0.073049 -0.189450 -0.027610
-0.083126 -0.181805 -0.017429
-0.074054 -0.201517 -0.027667
-0.077502 -0.209746 -0.025680
-0.068679 -0.198072 -0.028696
-0.079361 -0.175592 -0.024904
-0.078123 -0.181780 -0.026675
-0.085214 -0.202242 -0.011982
-0.076475 -0.163046 -0.025897
-0.071295 -0.212298 -0.025127
-0.081265 -0.194357 -0.024582
-0.078427 -0.222657 -0.026078
-0.060733 -0.235054 -0.008757
-0.063101 -0.233248 -0.027475
-0.040874 -0.211584 -0.025552
-0.067158 -0.159118 -0.024712
-0.050849 -0.225479 -0.024630
-0.062953 -0.277719 -0.025098
-0.066443 -0.248628 -0.025676
-0.062957 -0.200786 -0.011453
-0.069155 -0.246891 -0.016672
-0.067400 -0.215447 -0.025161
-0.067204 -0.262897 -0.023776
-0.072072 -0.199109 -0.024646
-0.060854 -0.209019 -0.026850
-0.048057 -0.182681 -0.023874
-0.069796 -0.224509 -0.027550
-0.045620 -0.261340 -0.024877
-0.068424 -0.182397 -0.025705
-0.058454 -0.252498 -0.027043
-0.068857 -0.237530 -0.027052
-0.066407 -0.231964 -0.022339
-0.065804 -0.204521 -0.026313
-0.054993 -0.202530 -0.024127
-0.067598 -0.214333 -0.025371
-0.065262 -0.227516 -0.026651
-0.055808 -0.217975 -0.024581
-0.059197 -0.190308 -0.026500
-0.066480 -0.197724 -0.027035
-0.063828 -0.219723 -0.019277
-0.061307 -0.171281 -0.025696
-0.030467 -0.231816 -0.026212
-0.065763 -0.210635 -0.028278
-0.061806 -0.243931 -0.027486
-0.212730 0.103588 0.064539
-0.217637 0.106726 -0.026555
-0.216493 0.111757 0.007683
-0.193264 0.175237 0.030082
-0.212805 0.121668 0.004699
-0.206221 0.138448 0.048910
-0.224115 0.090679 -0.015443
-0.194548 0.153721 0.056267
-0.217036 0.088691 0.054924
-0.204430 0.121755 0.036528
-0.224535 0.083450 0.037452
-0.206059 0.134829 0.007507
-0.200017 0.156905 0.012097
-0.201869 0.152711 0.004513
-0.214164 0.112417 0.028845
-0.217175 0.108523 -0.007412
-0.208512 0.139593 0.032334
-0.224929 0.082759 0.006883
-0.222970 0.093421 0.020752
-0.214093 0.113404 0.048571
-0.208946 0.127985 -0.032080
-0.198089 0.150964 0.035356
-0.213052 0.122493 -0.014000
-0.220999 0.096090 0.000621
-0.202971 0.137233 -0.009986
-0.203016 0.140406 0.017651
-0.203780 0.150050 -0.019683
-0.204204 0.124967 0.065267
-0.197414 0.171360 -0.006001
-0.213455 0.106890 0.021436
-0.212454 0.125991 0.018579
-0.218203 0.099477 0.038765
-0.209388 0.138400 0.054297
-0.215230 0.135535 0.020193
-0.213022 0.147288 0.021143
-0.198241 0.173873 0.037220
-0.210752 0.143412 0.041026
-0.219861 0.115574 0.034002
-0.217650 0.129355 0.015106
-0.201726 0.156149 0.052080
-0.213499 0.129006 0.048909
-0.205452 0.153920 0.042482
-0.217244 0.121160 0.042796
-0.207468 0.156833 0.031068
-0.208790 0.152305 0.025108
-0.204627 0.166456 0.015150
-0.211712 0.146544 0.029481
-0.219536 0.122348 0.022031
-0.204828 0.161657 0.037587
-0.218144 0.124981 0.029590
-0.215849 0.131202 0.037242
-0.212670 0.135596 0.044234
-0.209022 0.154278 0.015841
-0.201949 0.162728 0.045062
-0.213996 0.141636 0.013982
-0.213775 0.139115 0.026325
-0.209690 0.151325 0.008323
-0.203086 0.165711 0.028847
-0.207638 0.159678 0.021300
-0.206756 0.146360 0.047311
-0.200981 0.171330 0.023911
-0.211743 0.140517 0.034308
-0.208483 0.151616 0.034923
-0.215815 0.132531 0.029959
-0.102607 -0.085322 0.047355
-0.097076 -0.090661 -0.008164
-0.098487 -0.083453 -0.009313
-0.102592 -0.064188 0.016074
-0.101074 -0.086114 0.019045
-0.094867 -0.101743 0.009434
-0.093141 -0.094511 -0.017680
-0.104237 -0.076438 0.041721
-0.098470 -0.092901 0.036257
-0.101875 -0.079809 0.020952
-0.095268 -0.098165 0.024208
-0.100579 -0.078110 0.007717
-0.100972 -0.080269 -0.000599
-0.098600 -0.071197 -0.019190
-0.099097 -0.085079 0.003173
-0.092098 -0.100410 -0.008124
-0.103059 -0.073538 0.012343
-0.095241 -0.096735 0.001559
-0.097828 -0.094351 0.014432
-0.101176 -0.089108 0.026158
-0.097991 -0.079761 -0.017518
-0.104052 -0.072371 0.027410
-0.095907 -0.086024 -0.018272
-0.098148 -0.087849 -0.002482
-0.094640 -0.083774 -0.028027
-0.102098 -0.071601 0.002957
-0.100938 -0.075392 -0.007549
-0.102596 -0.083276 0.032631
-0.101211 -0.066495 -0.003546
-0.095198 -0.088883 0.008873
-0.102419 -0.083269 0.011130
-0.098736 -0.091869 0.003227
-0.055325 0.001334 0.109943
-0.060413 0.003093 0.063683
-0.049169 0.009173 0.059669
-0.039340 0.015125 0.081089
-0.051143 0.007150 0.088466
-0.072828 -0.010811 0.077186
-0.064064 0.000057 0.053892
-0.043066 0.011147 0.103075
-0.063840 -0.003143 0.100702
-0.053398 0.006442 0.086474
-0.070214 -0.008701 0.090724
-0.058131 0.003605 0.076116
-0.052874 0.007865 0.068042
-0.041051 0.014011 0.044741
-0.058287 0.003652 0.072764
-0.062849 -0.002889 0.065796
-0.049155 0.008775 0.077437
-0.064353 -0.001381 0.072785
-0.063578 0.000021 0.084445
-0.059908 0.001864 0.093641
-0.051589 0.008299 0.049572
-0.045114 0.010480 0.090440
-0.060844 0.002525 0.048836
-0.060107 0.002489 0.068863
-0.053059 0.008010 0.033041
-0.043596 0.012405 0.073704
-0.050224 0.009844 0.059401
-0.053490 0.005765 0.096855
-0.042741 0.013180 0.064487
-0.045352 0.008259 0.079454
-0.053391 0.007060 0.081377
-0.060990 0.002861 0.078086
-0.142886 0.207954 0.123157
-0.164667 0.207765 0.094018
-0.159897 0.220225 0.096026
-0.139724 0.249193 0.105386
-0.151242 0.215428 0.111898
-0.161094 0.186653 0.108241
-0.167217 0.199868 0.091227
-0.136110 0.228545 0.119752
-0.149291 0.199742 0.120217
-0.145352 0.225089 0.112162
-0.155749 0.191891 0.115950
-0.151424 0.229911 0.103391
-0.155397 0.225055 0.096785
-0.154662 0.241353 0.088815
-0.154940 0.219385 0.103520
-0.166694 0.192840 0.098381
-0.144537 0.234643 0.108405
-0.161804 0.195204 0.105377
-0.157230 0.202426 0.109925
-0.151388 0.207331 0.115090
-0.158597 0.228269 0.090575
-0.141436 0.232769 0.113434
-0.163046 0.215615 0.090772
-0.158828 0.211455 0.100783
-0.162845 0.224135 0.082706
-0.147661 0.239556 0.100187
-0.154151 0.233386 0.094838
-0.142345 0.218189 0.116935
-0.148115 0.245353 0.094932
-0.155180 0.212571 0.106267
-0.150570 0.225952 0.105373
-0.160769 0.203804 0.102079
