-0.100582 -0.363550 0.237199
-0.102386 -0.324846 0.236612
-0.102315 -0.343124 0.214979
-0.102289 -0.362384 0.194339
-0.047510 -0.302513 0.241623
-0.123130 -0.352859 0.159577
-0.103243 -0.301321 0.194202
-0.081554 -0.300884 0.209851
-0.103425 -0.324137 0.173507
-0.010635 -0.303779 0.243607
-0.103665 -0.343262 0.153479
-0.035254 -0.301893 0.220984
-0.081537 -0.300645 0.183265
-0.058216 -0.301090 0.199814
-0.103490 -0.362324 0.134128
-0.104002 -0.321681 0.133899
-0.098396 -0.282587 0.153975
-0.073280 -0.300722 0.151187
-0.091858 -0.244442 0.159759
-0.017188 -0.354203 0.163021
-0.104570 -0.304893 0.115080
-0.104067 -0.344370 0.096578
-0.088675 -0.180559 0.178556
-0.102939 -0.361544 0.074592
-0.097305 -0.195226 0.155708
-0.099897 -0.155129 0.164239
-0.090027 -0.224614 0.137263
-0.107220 -0.342192 0.067038
0.007071 -0.290524 0.175306
-0.079945 -0.301662 0.102878
-0.104246 -0.322331 0.074125
-0.064356 -0.285755 0.115749
-0.008867 -0.302512 0.146683
0.010863 -0.252341 0.184511
-0.108034 -0.097460 0.166777
-0.061804 -0.254662 0.127638
-0.090319 -0.183528 0.137232
0.054409 -0.323936 0.175655
-0.027817 -0.302783 0.121618
-0.093516 0.064381 0.239686
0.091336 -0.304473 0.206509
0.032684 -0.286770 0.170007
-0.196964 0.071712 0.161758
-0.104713 -0.302848 0.055828
-0.103698 -0.343561 0.034491
-0.063821 -0.205784 0.130687
-0.003533 -0.188495 0.182761
-0.104616 -0.114789 0.140684
-0.074399 -0.301893 0.071013
0.015154 -0.302279 0.135568
-0.075594 -0.166264 0.130709
-0.019561 -0.246345 0.135729
-0.052491 -0.302425 0.083507
-0.099353 -0.056458 0.160784
0.055331 -0.302384 0.161991
-0.140644 0.106368 0.199623
-0.097495 -0.133137 0.122877
-0.151449 0.072212 0.175487
-0.109787 0.071336 0.205623
-0.133269 0.073535 0.188827
-0.024548 -0.302489 0.090702
0.027393 -0.219789 0.166857
-0.086814 0.073054 0.213554
0.108290 -0.352337 0.162719
-0.103661 -0.363803 -0.003148
-0.086236 -0.034278 0.162713
-0.054071 -0.168791 0.124997
-0.103065 -0.293013 0.026787
-0.067958 -0.145825 0.120758
-0.110617 -0.072511 0.121489
-0.169812 0.098465 0.153433
-0.104315 -0.303063 0.017036
-0.034419 -0.362439 0.041704
-0.203930 0.086888 0.113932
0.027519 -0.197942 0.156277
-0.076057 -0.301920 0.029058
-0.103503 -0.323089 -0.003520
0.010347 -0.178278 0.147578
-0.044586 -0.301313 0.047998
-0.012025 0.079008 0.246703
-0.000999 -0.301743 0.079787
-0.023278 -0.301799 0.063160
0.101630 -0.303378 0.155015
0.046903 -0.302042 0.114811
-0.095529 -0.138663 0.084629
-0.091112 -0.033594 0.135117
-0.159997 0.120512 0.152075
0.045486 -0.349552 0.088639
0.075162 -0.302219 0.130474
-0.103740 -0.342785 -0.024135
-0.214309 0.085330 0.089771
-0.101188 -0.054524 0.111794
-0.071311 -0.015117 0.151780
-0.105844 -0.093224 0.088968
-0.181632 0.116959 0.127052
-0.031211 0.084697 0.224255
-0.232176 0.080204 0.071621
-0.094964 -0.191099 0.048279
-0.056813 -0.158571 0.091768
-0.088523 -0.269244 0.012843
-0.103510 -0.362460 -0.044187
-0.100573 0.152174 0.195102
0.001393 0.074158 0.231264
-0.104154 -0.303232 -0.024510
-0.027300 -0.166325 0.099073
-0.206035 0.109530 0.089714
-0.103526 -0.114538 0.064202
-0.228730 0.073421 0.054517
-0.190273 0.142068 0.113006
-0.221588 0.093589 0.065812
-0.086827 -0.148819 0.055323
-0.191388 0.137868 0.099560
-0.092739 -0.283632 -0.020497
-0.096486 -0.054234 0.083443
-0.150551 0.179580 0.148204
-0.060466 -0.003702 0.132158
-0.088332 -0.229039 0.005077
-0.090511 -0.032937 0.093525
-0.103280 -0.344811 -0.063981
-0.052890 -0.156830 0.063017
0.111147 -0.307464 0.114488
-0.099168 -0.127761 0.041070
0.024834 -0.153866 0.118983
-0.029860 0.139505 0.209059
0.012133 -0.360299 0.008577
-0.102576 -0.363806 -0.082963
-0.103537 -0.321911 -0.064198
-0.218290 0.115599 0.052326
-0.078299 -0.366266 -0.067006
-0.086398 -0.244680 -0.015052
-0.091246 -0.207469 -0.001081
-0.162659 0.175292 0.118412
0.046264 0.071864 0.226368
-0.104083 -0.077058 0.045676
-0.196359 0.148236 0.076731
0.078689 -0.214841 0.114364
-0.088361 -0.148864 0.018613
-0.229551 0.094185 0.020669
-0.139899 0.197359 0.135182
-0.074672 -0.265578 -0.028829
-0.061128 0.000179 0.103952
-0.106876 -0.097231 0.022400
0.067070 0.084911 0.230055
0.022765 -0.302944 0.018522
-0.061580 -0.050221 0.072591
0.002314 -0.303398 0.000468
-0.234780 0.073892 -0.004245
-0.094352 -0.159008 -0.004222
-0.056282 -0.302967 -0.045674
-0.082157 -0.301292 -0.066083
-0.104663 -0.338522 -0.102392
-0.098812 -0.117686 0.006611
-0.102924 -0.342847 -0.105459
-0.091491 -0.032120 0.051479
0.072976 -0.302435 0.045912
0.060770 0.095022 0.217659
0.098706 -0.302322 0.062525
-0.013754 -0.303032 -0.022882
-0.082960 -0.205907 -0.029129
-0.067894 -0.226052 -0.031757
-0.215602 0.112830 0.012145
-0.210500 0.145873 0.030285
-0.108810 -0.088992 -0.000066
-0.061471 -0.000050 0.075933
-0.157449 0.218699 0.101189
0.085785 0.073978 0.215107
-0.077221 -0.014531 0.054423
0.028167 0.162578 0.210167
-0.129897 0.237456 0.125630
0.121884 -0.343656 0.044845
-0.111044 -0.047824 0.007164
-0.097701 0.238893 0.147046
-0.217168 0.134379 0.007896
0.036773 -0.302702 -0.004170
0.087315 -0.361666 0.005026
-0.177807 0.208651 0.069628
-0.153922 0.208761 0.087653
-0.043559 -0.301927 -0.066263
-0.037486 0.212240 0.173946
0.060601 -0.302845 0.010159
-0.102016 -0.363295 -0.144360
0.085681 -0.302814 0.025916
-0.010839 -0.286291 -0.041927
-0.082206 -0.300975 -0.104617
-0.057719 -0.301794 -0.086382
-0.103035 -0.304399 -0.123602
-0.182236 0.173774 0.040423
-0.073177 -0.176010 -0.038946
-0.193319 0.192763 0.038241
-0.106510 -0.085072 -0.022938
-0.152450 0.246318 0.092654
-0.034594 0.015540 0.077494
0.084624 0.105628 0.204056
-0.228353 0.093886 -0.036602
-0.202720 0.173458 0.017105
0.076367 -0.118164 0.092075
-0.102770 -0.321805 -0.144656
-0.065192 -0.007993 0.032500
-0.071519 -0.219037 -0.071344
-0.097811 -0.347747 -0.156451
-0.005003 -0.220761 -0.023673
-0.090587 -0.119983 -0.040807
-0.081924 -0.107796 -0.029226
-0.163354 0.248043 0.069873
-0.008317 -0.243457 -0.039329
-0.119121 0.277786 0.116088
-0.231322 0.073952 -0.065067
-0.005083 -0.178145 -0.010712
-0.220534 0.115210 -0.040904
-0.018613 -0.302896 -0.083917
-0.008232 -0.197793 -0.025265
0.040010 -0.003703 0.100754
0.126994 0.071392 0.197228
-0.013745 0.023421 0.070766
-0.044751 -0.301556 -0.106579
-0.137893 0.280574 0.091639
-0.209947 0.153729 -0.021097
-0.071430 -0.134960 -0.048965
-0.232571 0.081548 -0.072694
-0.180558 0.232512 0.033462
-0.058090 -0.301663 -0.124968
-0.128084 0.287952 0.094834
-0.080606 -0.300895 -0.143949
-0.087185 -0.013682 -0.012850
-0.099422 -0.343757 -0.182941
-0.102612 -0.302575 -0.165551
-0.081543 0.320636 0.137900
0.113603 0.126268 0.193362
-0.197953 0.192642 -0.010308
-0.047944 -0.300164 -0.127685
-0.127557 0.303415 0.091186
-0.087445 -0.058203 -0.042123
-0.006044 -0.168582 -0.033017
-0.034585 0.010649 0.026956
-0.011546 0.284145 0.163872
0.031154 0.231715 0.171670
-0.070196 -0.363079 -0.183163
-0.043252 -0.134383 -0.051798
-0.183735 0.232085 0.010273
-0.169462 0.264228 0.035146
0.160695 0.074668 0.194588
-0.153498 0.288054 0.056905
-0.061184 -0.114772 -0.057084
-0.085906 -0.088468 -0.065094
-0.000174 -0.203475 -0.055215
-0.160881 0.257602 0.034482
0.017377 -0.275858 -0.079939
-0.216235 0.095184 -0.085172
0.098920 -0.195836 0.017510
-0.184169 0.198046 -0.014993
0.009731 -0.235870 -0.070908
-0.137621 0.314448 0.069755
0.009178 -0.302071 -0.104991
-0.028978 0.014906 0.015261
-0.107568 0.334873 0.098635
0.040131 -0.302520 -0.084309
-0.047308 -0.364834 -0.183390
0.030708 -0.364298 -0.122438
-0.210001 0.116374 -0.080359
-0.078086 -0.003441 -0.035223
-0.079454 -0.038031 -0.052334
-0.211212 0.073232 -0.102396
-0.006124 -0.301738 -0.124802
-0.032334 -0.301506 -0.145142
-0.199258 0.173254 -0.050024
-0.055523 -0.300631 -0.163783
0.023033 -0.217567 -0.062910
0.108323 -0.260948 -0.024563
-0.201606 0.153631 -0.067348
0.020606 -0.173876 -0.051793
0.089536 -0.302762 -0.062546
-0.022005 -0.118116 -0.059290
-0.170745 0.272354 0.005648
0.167055 0.073224 0.165457
-0.062954 -0.304160 -0.184290
-0.047831 -0.325243 -0.183746
-0.059170 -0.100122 -0.083734
-0.177506 0.252245 -0.012613
-0.161962 0.292323 0.016481
-0.065713 -0.058989 -0.071658
-0.111385 0.356108 0.081308
0.021552 -0.281454 -0.113122
-0.015626 -0.365516 -0.183436
0.116816 0.184601 0.172690
-0.190521 0.147734 -0.074940
-0.204181 0.080167 -0.116491
-0.198727 0.134310 -0.090332
-0.205869 0.075032 -0.125778
-0.024031 0.044226 -0.000657
-0.041922 -0.155953 -0.109928
-0.132345 0.347403 0.051613
-0.189598 0.194259 -0.060863
-0.040289 -0.025200 -0.048477
0.006987 -0.301131 -0.145180
-0.018403 -0.300925 -0.164800
-0.180681 0.231883 -0.038703
-0.022178 0.184104 0.056348
-0.100201 0.355538 0.073912
-0.025418 0.355309 0.128021
-0.199704 0.106829 -0.115802
0.101732 -0.302852 -0.081424
0.168848 0.096259 0.151349
0.049552 -0.301974 -0.123797
-0.056382 -0.000362 -0.061849
0.000513 -0.343635 -0.183593
0.203037 0.073866 0.161440
-0.024517 0.085150 -0.001111
0.029013 -0.116154 -0.054257
-0.068347 -0.024731 -0.084753
-0.162818 0.293477 -0.012498
0.047476 0.301450 0.145782
0.034008 -0.301402 -0.143610
0.026329 -0.365592 -0.183130
-0.064457 -0.101071 -0.124917
0.038340 -0.001148 -0.000781
-0.067556 -0.067705 -0.111867
0.076592 -0.302202 -0.118599
-0.139600 0.352117 0.020416
0.036452 -0.332896 -0.168006
-0.177362 0.213552 -0.073659
0.108345 -0.315854 -0.106610
0.101237 -0.302380 -0.107049
-0.166564 0.271475 -0.042724
-0.181093 0.173379 -0.098728
-0.159722 0.259850 -0.046417
-0.185104 0.106222 -0.136519
0.036576 0.007685 -0.013822
0.046144 0.060766 0.018369
0.009129 -0.304338 -0.184714
-0.185065 0.075067 -0.152546
-0.114929 0.322210 0.014304
0.188071 0.087504 0.131108
0.052852 -0.363208 -0.182835
-0.016643 0.083483 -0.023764
-0.034540 -0.113426 -0.131863
0.165850 0.141200 0.133663
0.076615 -0.045040 -0.015828
-0.153928 0.311735 -0.029869
0.046806 -0.301184 -0.164000
0.103114 -0.353653 -0.147215
0.076617 -0.301696 -0.142410
-0.067878 -0.007629 -0.114604
0.043264 -0.324597 -0.183438
-0.067869 -0.063039 -0.141745
-0.142138 0.351870 -0.009985
0.101376 -0.301674 -0.131739
-0.171763 0.145474 -0.130838
-0.051182 0.010380 -0.101042
-0.164765 0.228773 -0.090810
0.070575 -0.343699 -0.182796
-0.171861 0.105787 -0.154429
-0.067648 -0.027266 -0.136927
0.208274 0.073993 0.112213
0.097181 0.269167 0.116391
-0.145414 0.331392 -0.039609
0.141471 0.211987 0.120111
-0.161697 0.204836 -0.110976
0.100487 -0.363343 -0.182579
0.060980 -0.150407 -0.108272
-0.050911 -0.073351 -0.157986
0.034784 -0.064615 -0.088282
0.032395 0.142373 0.004079
-0.043884 -0.096378 -0.166052
0.091211 -0.300703 -0.163796
-0.160623 0.133873 -0.152217
-0.162347 0.093385 -0.172262
-0.143199 0.200060 -0.107757
0.089794 -0.323017 -0.182847
-0.150458 0.268111 -0.088341
-0.156058 0.173948 -0.135523
-0.027172 -0.121736 -0.176569
-0.152353 0.244910 -0.101033
-0.155877 0.072102 -0.184928
-0.047410 -0.014535 -0.144339
-0.171200 0.087081 -0.193041
-0.141954 0.311380 -0.067994
0.216822 0.074439 0.090735
-0.010024 0.009940 -0.106602
-0.033226 -0.048169 -0.152438
0.008915 0.227909 0.006990
0.185931 0.125872 0.090510
-0.134396 0.353017 -0.048498
0.074896 0.347841 0.103254
-0.018973 -0.085202 -0.168658
0.009538 0.059785 -0.078603
0.001865 0.181704 -0.032228
-0.143186 0.232167 -0.120675
-0.033664 0.005252 -0.145080
-0.008687 0.310251 0.012775
-0.025271 -0.116582 -0.200597
0.169389 0.185964 0.082214
-0.137670 0.112741 -0.181941
-0.002113 -0.052954 -0.156281
-0.034279 -0.024069 -0.168101
0.225702 0.074334 0.069906
-0.026202 0.033989 -0.137855
-0.129813 0.307315 -0.094075
0.235814 0.079528 0.073292
-0.133377 0.213004 -0.142914
-0.128281 0.164008 -0.161818
0.218317 0.097455 0.065197
-0.128885 0.272271 -0.114963
-0.127772 0.134634 -0.179728
-0.025881 -0.044278 -0.186091
-0.104337 0.354715 -0.064199
0.018561 -0.128126 -0.195824
-0.126775 0.184742 -0.159616
-0.032513 -0.088655 -0.223522
0.124596 0.299460 0.069757
-0.118468 0.163175 -0.174992
-0.112844 0.073450 -0.215460
-0.109123 0.071809 -0.212405
-0.111794 0.105136 -0.204550
0.224971 0.096917 0.043121
-0.114114 0.294348 -0.120936
-0.111639 0.254468 -0.140638
-0.024500 0.046177 -0.173001
-0.107415 0.203071 -0.167036
0.235084 0.074024 0.028854
-0.026034 -0.036880 -0.217749
-0.106893 0.322929 -0.113554
-0.026170 -0.066235 -0.234486
-0.110160 0.230704 -0.159560
-0.102230 0.345398 -0.107325
-0.098209 0.162637 -0.189318
-0.102488 0.156104 -0.199025
0.160078 0.245456 0.036603
-0.083701 0.071781 -0.228233
-0.096563 0.303276 -0.130346
0.213086 0.142815 0.024236
0.031384 -0.110326 -0.229690
-0.093130 0.283537 -0.141809
-0.084668 0.132565 -0.206140
0.231032 0.074705 -0.007616
-0.083676 0.251811 -0.161786
-0.082693 0.345320 -0.122859
-0.068940 0.194875 -0.189426
-0.062189 0.112613 -0.222940
-0.076689 0.314472 -0.141112
0.113095 0.332921 0.006240
0.236718 0.077436 -0.019662
-0.067471 0.235236 -0.175275
-0.057243 0.069381 -0.246909
-0.055160 0.144718 -0.213475
0.179003 0.198412 -0.013332
-0.062128 0.355157 -0.129965
-0.035000 0.071882 -0.242791
-0.058916 0.273229 -0.166730
-0.038483 0.104471 -0.230212
-0.054960 0.263575 -0.169139
-0.048930 0.184798 -0.201519
0.223993 0.106939 -0.035521
-0.048194 0.224491 -0.187293
-0.049935 0.303947 -0.156621
0.142905 0.275490 -0.027926
0.231998 0.075793 -0.059651
-0.035032 0.207349 -0.198116
-0.019710 0.123348 -0.226699
-0.044259 0.343267 -0.143520
-0.023604 0.175152 -0.207876
-0.006423 0.152185 -0.205697
-0.007258 0.073835 -0.246123
-0.024506 0.243889 -0.184495
0.204998 0.139396 -0.061207
-0.018902 0.203737 -0.199292
0.220808 0.096148 -0.073996
-0.025089 0.302975 -0.163136
0.028369 0.342335 -0.106116
-0.023747 0.323964 -0.155729
0.001535 0.145087 -0.221652
-0.023016 0.356899 -0.144390
-0.000105 0.171902 -0.211624
0.011086 0.112640 -0.231611
-0.011580 0.263529 -0.178921
0.025438 0.076298 -0.241242
0.025205 0.072694 -0.244199
0.222892 0.072515 -0.096544
0.000728 0.320773 -0.149586
0.224223 0.073916 -0.099284
0.002643 0.235067 -0.190612
0.012286 0.212773 -0.196873
0.029416 0.125580 -0.224892
0.001705 0.295511 -0.169695
0.022628 0.189722 -0.203034
0.135695 0.243490 -0.095406
0.001306 0.346160 -0.151715
0.024776 0.243362 -0.181122
0.098325 0.321870 -0.091318
0.056365 0.071218 -0.239955
0.045273 0.164886 -0.207864
0.031851 0.227477 -0.189095
0.059687 0.114072 -0.223700
0.191808 0.095264 -0.133695
0.042328 0.204051 -0.195355
0.055609 0.142169 -0.214713
0.026980 0.306134 -0.162398
0.036055 0.271430 -0.172911
0.097471 0.072059 -0.222371
0.185186 0.073201 -0.156471
0.173079 0.188118 -0.111725
0.029876 0.341013 -0.149719
0.046482 0.248288 -0.179476
0.077348 0.097765 -0.229810
0.112301 0.221375 -0.147014
0.078777 0.281875 -0.143854
0.154216 0.086167 -0.180188
0.177941 0.133107 -0.143169
0.144404 0.072303 -0.199331
0.182821 0.076723 -0.172461
0.084032 0.182118 -0.198635
0.134103 0.146928 -0.180591
0.130373 0.082919 -0.220314
