-0.041491 -0.058121 0.053402
0.029231 -0.055276 -0.007334
-0.033216 -0.054732 0.020238
-0.088001 -0.054048 -0.018294
0.135173 -0.054002 -0.068876
0.150623 -0.055038 -0.104316
-0.053745 -0.051759 -0.038056
0.164984 -0.055237 -0.049104
0.053152 -0.053488 -0.029158
0.123402 -0.053219 -0.045429
-0.002237 -0.054547 0.014794
0.029663 -0.055455 0.034067
0.014265 -0.054538 -0.123488
0.132080 -0.056278 0.019489
-0.044328 -0.054603 -0.088688
0.012631 -0.055400 -0.054574
0.138213 -0.055308 -0.131028
0.139731 -0.055835 -0.027078
0.101593 -0.054542 -0.078489
0.090711 -0.054780 0.031625
0.042977 -0.056233 -0.082206
0.178218 -0.056890 -0.004253
0.058441 -0.054978 0.012191
0.103817 -0.054389 -0.003884
0.208786 -0.104401 0.016107
0.208709 -0.109261 -0.038095
0.208620 -0.100371 -0.039032
0.208390 -0.078533 -0.010851
0.208870 -0.102560 -0.005384
0.208860 -0.120642 -0.015426
0.208653 -0.114306 -0.048315
0.209205 -0.092342 0.013480
0.209025 -0.114183 0.008789
0.209423 -0.092460 -0.003324
0.209017 -0.120150 -0.002638
0.208467 -0.092056 -0.020142
0.209369 -0.094085 -0.030399
0.208719 -0.084528 -0.050327
0.208499 -0.100506 -0.023890
0.208819 -0.118355 -0.037264
0.208530 -0.088157 -0.012914
0.208749 -0.118824 -0.026146
0.208560 -0.113851 -0.011585
0.208651 -0.108086 0.000659
0.209322 -0.093861 -0.047461
0.208656 -0.085046 0.002960
0.208934 -0.104728 -0.050556
0.209040 -0.105653 -0.030732
0.209359 -0.096623 -0.059051
0.209030 -0.082873 -0.023604
0.208806 -0.088665 -0.036998
0.208722 -0.099611 0.005377
0.208876 -0.079639 -0.033951
0.209632 -0.105369 -0.015863
0.208891 -0.097141 -0.012786
0.208553 -0.111271 -0.023007
-0.209231 -0.176032 -0.347069
-0.199276 -0.169500 -0.379009
-0.212320 -0.163832 -0.377486
-0.184949 -0.094084 -0.350609
-0.196271 -0.155069 -0.381958
-0.185409 -0.139232 -0.343206
-0.201377 -0.193943 -0.378570
-0.205162 -0.117478 -0.339404
-0.195012 -0.183408 -0.345876
-0.214304 -0.148734 -0.354160
-0.209729 -0.196524 -0.359491
-0.167739 -0.140998 -0.376522
-0.213547 -0.104419 -0.370787
-0.183814 -0.122419 -0.372232
-0.175096 -0.170225 -0.354872
-0.213533 -0.181072 -0.380105
-0.172846 -0.124956 -0.358617
-0.214506 -0.194063 -0.371671
-0.186136 -0.190704 -0.366758
-0.196389 -0.163350 -0.353992
-0.210701 -0.146239 -0.380608
-0.194024 -0.122777 -0.348552
-0.188891 -0.141213 -0.378113
-0.183516 -0.176610 -0.379117
-0.214375 -0.128243 -0.377797
-0.205214 -0.137294 -0.364745
-0.197743 -0.117614 -0.386813
-0.205566 -0.153548 -0.341717
-0.177471 -0.100340 -0.383518
-0.217325 -0.170145 -0.364757
-0.183511 -0.155890 -0.370288
-0.205011 -0.183199 -0.367327
-0.128157 0.013552 -0.102831
-0.123706 0.011926 -0.203010
-0.071472 0.013638 -0.221157
-0.192025 0.010577 -0.184893
-0.078570 0.015265 -0.148362
-0.119758 0.010406 -0.181506
-0.127361 0.013053 -0.237727
-0.094701 0.014755 -0.117359
-0.216240 0.013244 -0.120985
-0.154169 0.012759 -0.171204
-0.215136 0.013080 -0.156735
-0.270335 0.011340 -0.172438
-0.089822 0.014009 -0.206917
-0.085184 0.013153 -0.241362
-0.237396 0.012545 -0.198684
-0.074193 0.012923 -0.199232
-0.142547 0.012369 -0.189881
-0.101259 0.013521 -0.193692
-0.178726 0.011905 -0.153761
-0.153336 0.014296 -0.136378
-0.170570 0.010174 -0.246907
-0.096024 0.014639 -0.147885
-0.211612 0.010368 -0.228446
-0.165552 0.011887 -0.203463
-0.100590 0.013387 -0.262255
-0.087986 0.013991 -0.180768
-0.109399 0.013399 -0.218082
-0.114032 0.014615 -0.136025
-0.142851 0.012760 -0.219030
-0.063352 0.013287 -0.168086
-0.128745 0.013568 -0.154548
-0.101412 0.012274 -0.168663
-0.223282 -0.039193 -0.260428
-0.222905 -0.036929 -0.371102
-0.222497 -0.036746 -0.322939
-0.223975 0.061419 -0.296287
-0.223860 -0.012584 -0.336358
-0.224781 0.011523 -0.277914
-0.224971 -0.062466 -0.357841
-0.223777 0.040250 -0.270960
-0.223825 -0.067974 -0.274316
-0.222967 -0.007846 -0.296325
-0.221948 -0.077483 -0.297528
-0.193459 -0.001674 -0.331051
-0.222384 0.048071 -0.318864
-0.224489 0.026657 -0.335629
-0.203036 -0.034405 -0.295063
-0.223116 -0.033013 -0.342892
-0.223936 0.007606 -0.298334
-0.223602 -0.074771 -0.329835
-0.223465 -0.058096 -0.312084
-0.223556 -0.023086 -0.277965
-0.222908 -0.002750 -0.374650
-0.224002 0.027956 -0.300503
-0.224242 -0.014364 -0.353271
-0.218691 -0.055006 -0.336349
-0.221990 0.007627 -0.347101
-0.222886 0.012173 -0.319997
-0.222476 0.028721 -0.363677
-0.224043 -0.006686 -0.263004
-0.225451 0.053790 -0.346606
-0.220884 -0.034960 -0.303831
-0.224231 -0.011609 -0.315676
-0.225118 -0.050304 -0.285736
-0.160058 -0.057342 -0.143526
-0.135609 -0.056791 -0.258521
-0.155132 -0.055590 -0.232059
-0.121789 -0.020989 -0.188023
-0.140332 -0.054239 -0.218287
-0.104113 -0.046962 -0.150156
-0.125155 -0.055393 -0.225982
-0.172763 -0.041845 -0.155538
-0.114077 -0.055719 -0.137959
-0.161454 -0.054998 -0.176637
-0.138319 -0.051967 -0.153990
-0.079842 -0.056372 -0.215058
-0.157658 -0.026340 -0.214155
-0.129370 -0.045138 -0.204582
-0.087669 -0.055113 -0.172742
-0.179464 -0.055158 -0.243496
-0.095508 -0.049993 -0.194557
-0.161115 -0.053498 -0.203979
-0.111047 -0.056954 -0.184487
-0.120666 -0.055621 -0.166123
-0.159612 -0.052613 -0.260609
-0.144894 -0.040193 -0.169957
-0.113134 -0.053581 -0.253827
-0.096330 -0.055790 -0.235764
-0.182796 -0.045394 -0.218116
-0.151548 -0.051584 -0.194227
-0.135304 -0.037094 -0.243393
-0.136733 -0.055132 -0.127811
-0.109670 -0.027098 -0.231514
-0.185482 -0.055927 -0.185137
-0.110455 -0.056261 -0.210902
-0.134886 -0.057398 -0.184970
0.058338 -0.057038 0.051353
0.084875 -0.057052 -0.043598
0.071729 -0.056135 -0.026872
0.117414 -0.058677 0.009728
0.075085 -0.055497 -0.006547
0.147372 -0.055583 0.051117
0.109519 -0.051632 0.003207
0.019170 -0.057722 0.048810
0.118432 -0.053803 0.068251
0.042390 -0.053905 0.029852
0.093049 -0.048408 0.049418
0.168671 -0.056748 -0.010202
0.048683 -0.056577 -0.016759
0.094761 -0.059788 0.014041
0.165480 -0.054003 0.034235
0.022681 -0.058054 -0.025167
0.161778 -0.059542 0.013550
0.036141 -0.050802 0.008889
0.136771 -0.053675 0.028356
0.119935 -0.056224 0.039319
0.043388 -0.061801 -0.039457
0.073511 -0.059377 0.032786
0.120151 -0.057975 -0.038780
0.151742 -0.057334 -0.028873
0.007683 -0.057945 0.001515
0.062519 -0.057641 0.017843
0.098863 -0.057745 -0.016939
0.080996 -0.057983 0.065496
0.128560 -0.060185 -0.017806
0.012388 -0.058729 0.028783
0.139212 -0.055215 0.000947
0.099515 -0.056183 0.029040
0.204876 -0.131106 0.024722
0.203253 -0.131792 -0.063163
0.202339 -0.129886 -0.067973
0.202087 -0.106017 -0.033315
0.203959 -0.130528 -0.022480
0.200511 -0.139042 -0.040081
0.203028 -0.134622 -0.077648
0.207160 -0.120170 0.012682
0.194492 -0.134844 0.002723
0.203462 -0.124849 -0.027838
0.191031 -0.135815 -0.021611
0.181294 -0.126792 -0.043353
0.205239 -0.123603 -0.054286
0.205117 -0.115921 -0.082691
0.189378 -0.131702 -0.049436
0.196176 -0.138427 -0.066275
0.204243 -0.118801 -0.038949
0.201881 -0.136072 -0.051991
0.199531 -0.133902 -0.030105
0.204532 -0.132698 -0.010972
0.205295 -0.124928 -0.079394
0.206064 -0.118015 -0.015126
0.195164 -0.131352 -0.081612
0.201877 -0.131187 -0.056499
0.204378 -0.129375 -0.097720
0.205269 -0.115510 -0.047546
0.206521 -0.122279 -0.065095
0.205750 -0.126841 -0.002526
0.206448 -0.108026 -0.058858
0.198452 -0.132132 -0.036181
0.205666 -0.127933 -0.033365
0.204176 -0.133412 -0.042841
-0.077214 0.131109 -0.118107
-0.076898 0.125659 -0.153691
-0.080200 0.136420 -0.151409
-0.087876 0.159016 -0.135453
-0.078220 0.134006 -0.133907
-0.071039 0.108976 -0.140020
-0.074969 0.120011 -0.160354
-0.082311 0.145154 -0.120595
-0.073502 0.120912 -0.124212
-0.079721 0.141108 -0.131033
-0.071593 0.113103 -0.130628
-0.081776 0.144358 -0.140172
-0.080951 0.141057 -0.147221
-0.086477 0.151719 -0.158903
-0.079020 0.135178 -0.143383
-0.072568 0.112515 -0.152553
-0.084423 0.149639 -0.135199
-0.073216 0.116405 -0.144759
-0.074221 0.121780 -0.136917
-0.075936 0.128237 -0.129374
-0.081664 0.141412 -0.157243
-0.084148 0.149831 -0.127585
-0.078264 0.131054 -0.158103
-0.077290 0.129399 -0.147623
-0.080132 0.136333 -0.165756
-0.084587 0.151540 -0.142521
-0.083205 0.146396 -0.150471
-0.078900 0.136354 -0.125543
-0.087010 0.156572 -0.148105
-0.076095 0.129098 -0.139640
-0.080221 0.138895 -0.137783
-0.075199 0.122867 -0.145160
-0.066729 0.090735 -0.126612
-0.066389 0.085283 -0.160934
-0.067909 0.096619 -0.158388
-0.071676 0.120931 -0.143620
-0.066999 0.093803 -0.142376
-0.063385 0.067358 -0.147933
-0.065160 0.079356 -0.166826
-0.068954 0.104971 -0.128449
-0.064762 0.080099 -0.132261
-0.067675 0.102249 -0.139385
-0.063935 0.071931 -0.139451
-0.068007 0.104928 -0.148458
-0.068052 0.101809 -0.154770
-0.070822 0.113006 -0.164228
-0.067016 0.095755 -0.151159
-0.064636 0.072099 -0.159875
-0.069891 0.110760 -0.143540
-0.064750 0.075394 -0.152307
-0.064862 0.081251 -0.145361
-0.066012 0.087751 -0.137757
-0.068142 0.102310 -0.163857
-0.070004 0.110907 -0.135689
-0.066467 0.091175 -0.164548
-0.066303 0.089653 -0.155295
-0.067272 0.097589 -0.170643
-0.069736 0.112977 -0.150521
-0.069042 0.107399 -0.157645
-0.067578 0.096475 -0.133783
-0.070835 0.118403 -0.155817
-0.065924 0.089444 -0.148019
-0.068002 0.099488 -0.146074
-0.065641 0.082644 -0.153149
-0.124487 0.184773 -0.099158
-0.120743 0.184788 -0.159210
-0.110381 0.180180 -0.171957
-0.161188 0.189731 -0.146765
-0.108646 0.180967 -0.127645
-0.114979 0.182395 -0.145562
-0.118985 0.184903 -0.179634
-0.112451 0.183935 -0.108732
-0.167932 0.186916 -0.113050
-0.135824 0.185590 -0.141284
-0.161335 0.184734 -0.132775
-0.208239 0.187478 -0.142486
-0.110849 0.183509 -0.160102
-0.115657 0.184150 -0.185975
-0.182307 0.187604 -0.155065
-0.106340 0.178867 -0.157537
-0.131487 0.186906 -0.150617
-0.112041 0.183803 -0.152374
-0.144064 0.187323 -0.132099
-0.131685 0.186999 -0.121478
-0.143652 0.186354 -0.188217
-0.116058 0.184873 -0.128318
-0.168161 0.187375 -0.174169
-0.139426 0.186034 -0.158617
-0.116874 0.184759 -0.200794
-0.110886 0.183912 -0.147534
-0.117401 0.185631 -0.168351
-0.116713 0.185076 -0.120986
-0.133018 0.188014 -0.169136
-0.106051 0.179490 -0.139563
-0.121985 0.185279 -0.135175
-0.113350 0.184501 -0.140590
0.224863 -0.029095 0.048038
0.224526 -0.034549 -0.013038
0.224586 -0.026024 -0.014681
0.223634 -0.005335 0.013676
0.224867 -0.027889 0.019886
0.224223 -0.046256 0.007357
0.224332 -0.037999 -0.023614
0.225048 -0.017679 0.043228
0.224775 -0.038148 0.037386
0.225824 -0.018196 0.021197
0.224321 -0.043244 0.022705
0.224735 -0.018541 0.003790
0.225406 -0.019963 -0.005533
0.224337 -0.010578 -0.025964
0.224925 -0.026233 -0.000605
0.224522 -0.043208 -0.013712
0.224142 -0.014066 0.011103
0.224037 -0.041564 -0.002523
0.224356 -0.037709 0.013214
0.224647 -0.032900 0.026840
0.225085 -0.019233 -0.021570
0.224112 -0.011421 0.028223
0.224989 -0.030600 -0.025512
0.224970 -0.030560 -0.006619
0.225151 -0.023310 -0.033700
0.224878 -0.009135 -0.000143
0.224546 -0.014701 -0.011750
0.225062 -0.024848 0.033220
0.224101 -0.005777 -0.008884
0.225325 -0.030643 0.008240
0.224779 -0.023038 0.011637
0.224600 -0.035537 0.000928
0.121527 0.009486 0.053926
0.107621 0.009292 0.009192
0.210698 0.008770 -0.005537
0.010630 0.008216 0.010377
0.198830 0.010777 0.036532
0.122606 0.011916 0.018924
0.107893 0.012063 -0.019306
0.155800 0.010177 0.049686
-0.019098 0.009373 0.051453
0.058404 0.009728 0.021888
-0.005156 0.010777 0.029339
-0.075896 0.009134 0.024513
0.173436 0.010332 0.000043
0.188889 0.010407 -0.015912
-0.044641 0.010328 0.004025
0.196696 0.009871 0.011114
0.078814 0.011083 0.012332
0.158724 0.010826 0.009539
0.027594 0.008863 0.033105
0.063967 0.010034 0.042471
0.037106 0.009065 -0.022305
0.173588 0.010073 0.035099
-0.014355 0.008582 -0.010561
0.049523 0.010321 0.003134
0.164957 0.010257 -0.026805
0.181238 0.009941 0.017032
0.133692 0.010974 -0.003062
0.132248 0.010998 0.038842
0.081761 0.009960 -0.008062
0.215773 0.008844 0.024791
0.093451 0.009835 0.033567
0.147507 0.010058 0.024436
-0.065503 0.059704 -0.133205
-0.065780 0.054231 -0.176226
-0.065251 0.065064 -0.174317
-0.063170 0.092600 -0.157200
-0.065017 0.062315 -0.154683
-0.066678 0.034466 -0.161235
-0.066179 0.048533 -0.182278
-0.063801 0.074039 -0.136671
-0.065747 0.048911 -0.141028
-0.064025 0.072857 -0.152213
-0.066731 0.040209 -0.151508
-0.063504 0.074472 -0.163514
-0.063912 0.071760 -0.169904
-0.063778 0.083575 -0.179717
-0.064443 0.065254 -0.165757
-0.066913 0.040935 -0.175419
-0.063923 0.080937 -0.157547
-0.066510 0.044120 -0.166837
-0.065688 0.050071 -0.158351
-0.065821 0.055857 -0.149088
-0.064202 0.071878 -0.179986
-0.063807 0.081763 -0.147257
-0.065004 0.060195 -0.181443
-0.065244 0.059297 -0.170370
-0.064444 0.067678 -0.186970
-0.063080 0.083836 -0.165774
-0.063763 0.077865 -0.172900
-0.065096 0.065304 -0.143913
-0.062882 0.090114 -0.171141
-0.065072 0.058845 -0.161946
-0.064565 0.068609 -0.159571
-0.065977 0.051927 -0.166925
-0.185870 -0.127725 -0.254473
-0.169262 -0.127761 -0.375708
-0.182938 -0.127115 -0.352114
-0.147292 -0.128618 -0.306798
-0.175711 -0.126093 -0.329199
-0.121601 -0.127296 -0.260906
-0.155488 -0.128323 -0.330657
-0.207467 -0.127830 -0.267172
-0.144607 -0.127767 -0.241391
-0.199390 -0.127379 -0.288604
-0.165505 -0.127264 -0.262218
-0.098611 -0.127403 -0.332378
-0.195191 -0.128479 -0.336333
-0.165275 -0.126647 -0.310877
-0.101369 -0.126934 -0.281604
-0.204842 -0.128048 -0.354000
-0.113954 -0.127833 -0.308111
-0.198590 -0.128446 -0.314441
-0.132752 -0.129022 -0.286798
-0.146070 -0.126029 -0.270110
-0.192133 -0.128118 -0.376001
-0.178699 -0.128860 -0.278367
-0.142287 -0.126127 -0.369763
-0.118970 -0.127336 -0.352711
-0.214925 -0.126883 -0.328240
-0.182962 -0.126789 -0.299833
-0.160817 -0.127250 -0.352323
-0.172966 -0.127339 -0.237291
-0.141382 -0.129710 -0.346015
-0.209735 -0.126808 -0.298362
-0.130850 -0.128055 -0.321193
-0.162460 -0.128388 -0.287983
-0.091245 -0.058027 -0.118709
-0.067935 -0.058940 -0.238754
-0.083669 -0.057432 -0.213020
-0.050844 -0.018289 -0.165506
-0.070933 -0.058321 -0.195700
-0.024155 -0.054808 -0.126966
-0.053127 -0.057162 -0.204956
-0.110777 -0.051093 -0.132415
-0.044914 -0.058935 -0.109504
-0.094569 -0.057069 -0.155679
-0.070784 -0.054614 -0.129182
0.003151 -0.059497 -0.193032
-0.090672 -0.032740 -0.194545
-0.058011 -0.054264 -0.179229
-0.004490 -0.055130 -0.150555
-0.110591 -0.057529 -0.219332
-0.014738 -0.055516 -0.173014
-0.093944 -0.055954 -0.183130
-0.039407 -0.058416 -0.160594
-0.049052 -0.058144 -0.140514
-0.091746 -0.060187 -0.241491
-0.078992 -0.047559 -0.145712
-0.039998 -0.059559 -0.236092
-0.018621 -0.058072 -0.214633
-0.115681 -0.054736 -0.194459
-0.083407 -0.057562 -0.171549
-0.063307 -0.047044 -0.221522
-0.067837 -0.057835 -0.102297
-0.035867 -0.031065 -0.210029
-0.117686 -0.057774 -0.161278
-0.032532 -0.057311 -0.190257
-0.062232 -0.059096 -0.159896
0.209533 -0.082422 0.009344
0.209857 -0.087882 -0.060990
0.209472 -0.079282 -0.063738
0.209581 -0.061148 -0.028062
0.209789 -0.080902 -0.020567
0.209866 -0.102387 -0.033791
0.209622 -0.093787 -0.073159
0.210301 -0.072359 0.004875
0.210043 -0.093419 -0.001663
0.210644 -0.071130 -0.019076
0.210494 -0.101332 -0.017427
0.209281 -0.072046 -0.039873
0.210448 -0.073677 -0.051929
0.209581 -0.065624 -0.078738
0.209538 -0.078861 -0.044595
0.209868 -0.098589 -0.060677
0.209583 -0.069501 -0.031834
0.209937 -0.099113 -0.047160
0.209653 -0.093117 -0.028306
0.209707 -0.086497 -0.012539
0.210426 -0.073127 -0.073247
0.209584 -0.065660 -0.010397
0.209985 -0.083218 -0.077392
0.209995 -0.083771 -0.052781
0.210342 -0.075258 -0.088741
0.210303 -0.063765 -0.044163
0.209704 -0.069036 -0.061240
0.209688 -0.077882 -0.005721
0.210142 -0.062066 -0.056855
0.210319 -0.083249 -0.034125
0.209883 -0.076726 -0.030499
0.209499 -0.089919 -0.042370
0.079443 0.009266 0.064391
0.065535 0.009226 -0.003288
0.178383 0.008458 -0.017705
-0.025672 0.008975 0.000220
0.159186 0.009867 0.027907
0.076620 0.011034 0.011865
0.069637 0.012003 -0.033420
0.110095 0.010724 0.053718
-0.054654 0.009635 0.054921
0.020011 0.009400 0.016637
-0.038970 0.007678 0.030546
-0.099961 0.007689 0.015359
0.136542 0.008935 -0.016245
0.154485 0.008447 -0.028649
-0.071693 0.009698 -0.004272
0.160324 0.010705 0.000952
0.040064 0.008464 0.002874
0.117625 0.012657 -0.003356
-0.010423 0.011103 0.029422
0.021915 0.010499 0.041625
0.003146 0.007450 -0.043303
0.131117 0.008082 0.035070
-0.046916 0.007806 -0.024754
0.009548 0.007839 -0.007805
0.131334 0.009865 -0.042134
0.141621 0.008167 0.006911
0.096469 0.010927 -0.021036
0.089809 0.009654 0.041061
0.038698 0.007013 -0.022939
0.178465 0.010869 0.018501
0.051940 0.008209 0.029944
0.103715 0.010336 0.020036
-0.093810 0.160190 -0.132355
-0.088880 0.155269 -0.168650
-0.094420 0.164682 -0.167514
-0.106340 0.181611 -0.151116
-0.093369 0.161950 -0.149196
-0.082957 0.140837 -0.154870
-0.086344 0.150573 -0.175249
-0.100805 0.172460 -0.135426
-0.088437 0.151279 -0.138588
-0.096413 0.168209 -0.146530
-0.084615 0.143810 -0.145261
-0.098459 0.170952 -0.155815
-0.096271 0.168613 -0.162852
-0.102434 0.177044 -0.175380
-0.094125 0.163240 -0.159047
-0.082733 0.143180 -0.168091
-0.101756 0.174488 -0.151039
-0.085120 0.147408 -0.160726
-0.087655 0.151520 -0.151950
-0.091030 0.157464 -0.144705
-0.095851 0.168437 -0.172949
-0.102647 0.175720 -0.143189
-0.091511 0.160535 -0.174352
-0.091236 0.158649 -0.163082
-0.092752 0.163759 -0.181949
-0.101431 0.175983 -0.158462
-0.098932 0.172586 -0.166424
-0.095486 0.164217 -0.140606
-0.104146 0.180025 -0.163739
-0.090346 0.157414 -0.154459
-0.095545 0.165796 -0.153082
-0.088077 0.152868 -0.160122
-0.123256 0.012998 -0.126192
-0.116681 0.011681 -0.234016
-0.071891 0.013567 -0.252896
-0.182488 0.010427 -0.214718
-0.078237 0.014809 -0.177855
-0.114657 0.009020 -0.211426
-0.120054 0.012544 -0.268709
-0.092172 0.014357 -0.142833
-0.207495 0.012687 -0.147129
-0.145721 0.012329 -0.200818
-0.205754 0.012178 -0.184767
-0.262522 0.010797 -0.203004
-0.087260 0.013838 -0.237584
-0.083328 0.013048 -0.273224
-0.228051 0.011927 -0.228668
-0.074136 0.011952 -0.231373
-0.134457 0.012183 -0.220213
-0.097399 0.012947 -0.224469
-0.169502 0.011519 -0.183211
-0.145378 0.013606 -0.164151
-0.160819 0.009971 -0.277775
-0.093958 0.014375 -0.176603
-0.202309 0.010107 -0.259521
-0.156148 0.011554 -0.234377
-0.097191 0.012931 -0.294492
-0.085770 0.013913 -0.212177
-0.104036 0.013056 -0.249169
-0.108851 0.014121 -0.162662
-0.134215 0.012767 -0.249832
-0.064595 0.012820 -0.197901
-0.121637 0.013231 -0.184550
-0.097251 0.012009 -0.199176
0.204204 -0.128956 0.015290
0.202588 -0.130471 -0.079630
0.202196 -0.129351 -0.084193
0.205315 -0.109667 -0.044843
0.203153 -0.129546 -0.033618
0.199514 -0.135347 -0.052406
0.202169 -0.132709 -0.091913
0.206359 -0.121245 0.003214
0.200135 -0.132997 -0.006240
0.204678 -0.123062 -0.038091
0.196515 -0.134634 -0.030881
0.195619 -0.126544 -0.058067
0.205031 -0.123935 -0.069620
0.205669 -0.117499 -0.096889
0.199518 -0.129935 -0.064326
0.196412 -0.135140 -0.082738
0.204965 -0.120186 -0.051946
0.200850 -0.134487 -0.067605
0.201572 -0.132488 -0.042075
0.203879 -0.131060 -0.020868
0.206515 -0.125116 -0.094540
0.205752 -0.117242 -0.024238
0.200857 -0.130203 -0.098290
0.202854 -0.130267 -0.072312
0.204826 -0.127940 -0.110195
0.205099 -0.115564 -0.062935
0.205658 -0.122175 -0.080798
0.204564 -0.126075 -0.012082
0.206682 -0.111277 -0.074414
0.199381 -0.129703 -0.050021
0.204896 -0.127958 -0.045568
0.202751 -0.131756 -0.056757
-0.069231 0.027237 -0.168970
-0.072444 0.022047 -0.207573
-0.070230 0.030506 -0.206687
-0.060546 0.054553 -0.190493
-0.068942 0.028867 -0.187270
-0.077849 0.002298 -0.194628
-0.074963 0.016805 -0.213733
-0.064304 0.038381 -0.172343
-0.072522 0.017932 -0.176008
-0.065529 0.037532 -0.185671
-0.075519 0.009204 -0.184856
-0.065351 0.037286 -0.196418
-0.066648 0.035786 -0.201934
-0.065244 0.045949 -0.213645
-0.068092 0.030648 -0.197593
-0.077431 0.009908 -0.207338
-0.063915 0.043291 -0.190925
-0.074452 0.014091 -0.198805
-0.072596 0.018651 -0.190632
-0.071076 0.023248 -0.183038
-0.067992 0.036351 -0.211731
-0.063620 0.044885 -0.181258
-0.071251 0.025794 -0.214891
-0.070037 0.026246 -0.201742
-0.069890 0.032819 -0.221542
-0.063649 0.045355 -0.198032
-0.065587 0.041113 -0.205127
-0.067432 0.031816 -0.178763
-0.061597 0.051886 -0.202924
-0.070019 0.026932 -0.193980
-0.067144 0.034147 -0.191826
-0.072462 0.020722 -0.198289
0.156882 -0.058281 0.100171
0.156227 -0.055380 -0.055223
0.213607 -0.054051 -0.078774
0.075630 -0.058559 -0.023479
0.213294 -0.054790 0.023463
0.165739 -0.053263 -0.013940
0.159920 -0.053569 -0.089926
0.187760 -0.057109 0.078789
0.051680 -0.058484 0.069349
0.109080 -0.055032 -0.005640
0.050674 -0.053553 0.018322
-0.009785 -0.055407 -0.018975
0.197208 -0.053902 -0.055413
0.208356 -0.055077 -0.097471
0.028049 -0.053440 -0.040342
0.204122 -0.055503 -0.055039
0.140291 -0.056166 -0.030462
0.182609 -0.054084 -0.038589
0.095384 -0.057376 0.016596
0.122753 -0.055791 0.045880
0.096346 -0.054577 -0.098142
0.196906 -0.054572 0.026984
0.049363 -0.056470 -0.086932
0.107496 -0.056746 -0.053608
0.186779 -0.054960 -0.115547
0.203569 -0.054333 -0.025929
0.179860 -0.053587 -0.070928
0.172632 -0.054964 0.053748
0.136381 -0.055363 -0.074324
0.206575 -0.054967 0.001817
0.150414 -0.054684 0.011172
0.186535 -0.055815 -0.008538
-0.068285 0.100979 -0.147224
-0.067927 0.095778 -0.180243
-0.070119 0.106409 -0.177540
-0.075380 0.129168 -0.163549
-0.068843 0.103884 -0.162687
-0.063959 0.079566 -0.168002
-0.066482 0.090144 -0.185799
-0.071470 0.114568 -0.149226
-0.065694 0.090917 -0.153005
-0.069895 0.111293 -0.159768
-0.064487 0.083166 -0.159822
-0.070697 0.114077 -0.168059
-0.070506 0.111202 -0.174281
-0.074258 0.121495 -0.183216
-0.068934 0.105337 -0.170846
-0.065388 0.083525 -0.179152
-0.072845 0.119474 -0.163371
-0.065623 0.086545 -0.172265
-0.065996 0.091882 -0.165471
-0.067369 0.098300 -0.158205
-0.070776 0.111484 -0.182830
-0.072905 0.119616 -0.156242
-0.068447 0.101321 -0.183454
-0.067991 0.099642 -0.174751
-0.069692 0.106870 -0.189400
-0.072829 0.121320 -0.169961
-0.071924 0.116193 -0.176888
-0.069414 0.106297 -0.154295
-0.074531 0.126641 -0.175018
-0.067466 0.099462 -0.167938
-0.070187 0.108885 -0.166105
-0.066864 0.093141 -0.172747
0.208698 -0.104971 -0.028546
0.208516 -0.109564 -0.081518
0.208534 -0.101072 -0.082183
0.208442 -0.079107 -0.054470
0.208704 -0.103013 -0.049336
0.208892 -0.121509 -0.058866
0.208584 -0.114781 -0.091641
0.209154 -0.092986 -0.030985
0.208891 -0.114888 -0.035543
0.209370 -0.093175 -0.047194
0.209010 -0.121194 -0.046673
0.208343 -0.092894 -0.063562
0.209292 -0.094682 -0.073752
0.208745 -0.085317 -0.093872
0.208455 -0.100936 -0.066924
0.208795 -0.118816 -0.080356
0.208494 -0.089070 -0.056475
0.208694 -0.119594 -0.069416
0.208492 -0.114366 -0.055313
0.208494 -0.108474 -0.043494
0.209234 -0.094579 -0.091052
0.208696 -0.085744 -0.041042
0.208838 -0.105217 -0.093882
0.208890 -0.106144 -0.074024
0.209417 -0.097184 -0.102836
0.208979 -0.083538 -0.066681
0.208703 -0.089398 -0.080467
0.208582 -0.100081 -0.039005
0.209045 -0.080627 -0.077238
0.209688 -0.105754 -0.059414
0.208713 -0.097777 -0.056527
0.208398 -0.111881 -0.066135
0.112293 0.007201 0.030763
0.094165 0.006370 -0.002648
0.199072 0.006497 -0.019336
0.008518 0.004650 -0.007182
0.182608 0.006391 0.011363
0.107767 0.009318 0.002297
0.099531 0.007742 -0.030100
0.135496 0.007630 0.027053
-0.026879 0.005538 0.029350
0.051020 0.007036 0.003689
-0.005806 0.006866 0.012434
-0.075292 0.006914 0.005021
0.161397 0.006544 -0.018125
0.178190 0.006293 -0.027613
-0.044895 0.006124 -0.008187
0.183343 0.006872 -0.000561
0.071005 0.008073 -0.004108
0.148266 0.008759 -0.009036
0.018816 0.006439 0.013125
0.052383 0.006496 0.020923
0.031788 0.007066 -0.036577
0.160368 0.007003 0.015424
-0.021759 0.006936 -0.022688
0.043111 0.006259 -0.011973
0.159045 0.006705 -0.039041
0.168017 0.005715 -0.003075
0.122821 0.008517 -0.018036
0.118215 0.006694 0.017164
0.073334 0.004860 -0.022861
0.203061 0.007123 0.006722
0.079738 0.007037 0.014207
0.130526 0.006960 0.005908
-0.221246 0.064262 -0.224447
-0.220912 0.064036 -0.346058
-0.223111 0.061705 -0.297016
-0.213843 0.141123 -0.259946
-0.223008 0.083598 -0.309518
-0.216662 0.107135 -0.236059
-0.221690 0.037550 -0.326695
-0.221093 0.126831 -0.227576
-0.216821 0.038940 -0.232376
-0.220069 0.090193 -0.259643
-0.218914 0.027327 -0.259269
-0.173480 0.097782 -0.303846
-0.222672 0.129655 -0.286905
-0.219805 0.116496 -0.299533
-0.184858 0.071434 -0.255679
-0.221366 0.063295 -0.319388
-0.199601 0.105985 -0.267423
-0.217831 0.030389 -0.298131
-0.212386 0.044614 -0.279088
-0.221587 0.075591 -0.244063
-0.223629 0.091190 -0.349719
-0.222715 0.115332 -0.259326
-0.212644 0.090737 -0.332913
-0.202239 0.055470 -0.313062
-0.223791 0.104607 -0.318023
-0.223861 0.099404 -0.285061
-0.220534 0.122363 -0.337854
-0.222993 0.090017 -0.218114
-0.213117 0.135631 -0.313688
-0.221164 0.069356 -0.275104
-0.219210 0.083461 -0.286274
-0.222900 0.052302 -0.259265
-0.047022 -0.060479 -0.045648
-0.019070 -0.060021 -0.154500
-0.030819 -0.058729 -0.135018
0.004638 -0.009511 -0.089549
-0.019604 -0.058687 -0.116051
0.035780 -0.056711 -0.054974
0.005971 -0.053879 -0.124697
-0.073146 -0.051677 -0.059064
0.011454 -0.061685 -0.036969
-0.053347 -0.057416 -0.079432
-0.026109 -0.050722 -0.053192
0.062596 -0.060743 -0.117354
-0.046361 -0.027070 -0.119325
-0.000258 -0.053873 -0.100254
0.057368 -0.055718 -0.072967
-0.075102 -0.057930 -0.134622
0.051244 -0.055357 -0.095558
-0.056629 -0.051301 -0.104780
0.018816 -0.057643 -0.082532
0.007745 -0.059229 -0.068025
-0.056449 -0.062297 -0.158151
-0.026492 -0.046653 -0.073382
0.012783 -0.060526 -0.154993
0.043193 -0.058314 -0.136124
-0.088341 -0.052490 -0.114692
-0.038397 -0.059859 -0.093661
-0.011170 -0.042210 -0.139472
-0.017032 -0.062018 -0.034540
0.027113 -0.025590 -0.130640
-0.085761 -0.055749 -0.078287
0.029451 -0.059384 -0.111149
-0.008311 -0.060649 -0.083089
-0.065677 0.054426 -0.161658
-0.066973 0.049001 -0.200851
-0.065765 0.059613 -0.199396
-0.061486 0.086575 -0.183039
-0.065233 0.056945 -0.180135
-0.068988 0.028196 -0.186608
-0.067849 0.043407 -0.207237
-0.062921 0.068259 -0.164671
-0.066778 0.043867 -0.168406
-0.063499 0.067342 -0.178050
-0.068319 0.035017 -0.177634
-0.063233 0.068644 -0.188754
-0.063867 0.066104 -0.194692
-0.063356 0.077739 -0.205723
-0.064787 0.059885 -0.190714
-0.069077 0.035571 -0.200330
-0.063102 0.075070 -0.183153
-0.068054 0.039219 -0.191616
-0.066811 0.045203 -0.183745
-0.066452 0.050489 -0.175522
-0.064518 0.066473 -0.205105
-0.062713 0.075838 -0.173657
-0.066179 0.054707 -0.206824
-0.065893 0.054129 -0.194900
-0.065121 0.062284 -0.213465
-0.062201 0.077845 -0.190815
-0.063464 0.072195 -0.197814
-0.064910 0.059893 -0.171139
-0.061656 0.084092 -0.196041
-0.065535 0.053864 -0.186872
-0.064538 0.063479 -0.184789
-0.066997 0.046897 -0.191719
-0.109951 0.183216 -0.135479
-0.104794 0.179140 -0.191479
-0.111210 0.185761 -0.193380
-0.127476 0.197145 -0.168783
-0.108398 0.182446 -0.163934
-0.095473 0.166003 -0.172483
-0.101924 0.174636 -0.199977
-0.116857 0.190507 -0.142445
-0.103228 0.176557 -0.147463
-0.113634 0.189103 -0.163748
-0.097807 0.170026 -0.158875
-0.119395 0.191510 -0.176160
-0.113803 0.188568 -0.184789
-0.122211 0.193962 -0.204180
-0.111968 0.185155 -0.179450
-0.095928 0.168450 -0.190689
-0.119541 0.191765 -0.170857
-0.098700 0.172336 -0.182008
-0.102426 0.176349 -0.168215
-0.106355 0.180663 -0.157516
-0.115092 0.188816 -0.199203
-0.120663 0.192660 -0.157313
-0.109216 0.183777 -0.200969
-0.108473 0.181742 -0.185339
-0.110952 0.184598 -0.212740
-0.119230 0.192145 -0.179579
-0.117264 0.190820 -0.190666
-0.111594 0.185994 -0.152194
-0.124633 0.195381 -0.186969
-0.105270 0.179003 -0.172407
-0.111516 0.185863 -0.171448
-0.103763 0.177263 -0.180007
0.097704 -0.124856 -0.048174
0.120168 -0.124135 -0.147428
0.102092 -0.124623 -0.127580
0.142755 -0.124821 -0.088584
0.109564 -0.123797 -0.107752
0.163629 -0.123477 -0.048856
0.137480 -0.125827 -0.105303
0.068147 -0.122072 -0.056828
0.149443 -0.127081 -0.035996
0.084662 -0.122521 -0.072775
0.128169 -0.124012 -0.053152
0.174079 -0.125801 -0.113160
0.086614 -0.125380 -0.114928
0.123054 -0.124842 -0.088389
0.174050 -0.124134 -0.065763
0.070239 -0.125245 -0.128276
0.171094 -0.125647 -0.088021
0.082213 -0.124208 -0.092701
0.158567 -0.128159 -0.073921
0.143489 -0.123148 -0.060948
0.088889 -0.124342 -0.145348
0.107373 -0.125508 -0.067016
0.149095 -0.124854 -0.142886
0.167056 -0.126147 -0.131372
0.057938 -0.124843 -0.101870
0.101709 -0.124491 -0.083664
0.125802 -0.124754 -0.123622
0.114139 -0.122348 -0.034058
0.149345 -0.127303 -0.119855
0.060432 -0.123472 -0.077775
0.155476 -0.125893 -0.101593
0.126478 -0.126740 -0.074464
-0.092624 -0.126045 -0.208716
-0.070668 -0.126551 -0.343958
-0.085415 -0.126005 -0.317941
-0.043998 -0.128911 -0.263894
-0.079375 -0.125099 -0.288822
-0.017500 -0.126866 -0.212656
-0.054803 -0.125862 -0.288216
-0.119501 -0.126515 -0.221693
-0.042987 -0.126559 -0.192497
-0.107714 -0.125384 -0.243255
-0.065114 -0.125008 -0.213451
0.001061 -0.126784 -0.292709
-0.102716 -0.129339 -0.298772
-0.065471 -0.125297 -0.267019
0.002246 -0.125342 -0.237761
-0.114924 -0.127450 -0.315920
-0.009291 -0.126991 -0.265205
-0.106661 -0.125832 -0.270434
-0.027585 -0.127243 -0.241304
-0.042896 -0.124343 -0.223027
-0.098267 -0.127890 -0.341899
-0.082054 -0.128245 -0.231916
-0.041334 -0.126036 -0.335401
-0.014612 -0.125989 -0.319170
-0.128581 -0.126636 -0.283709
-0.085472 -0.125468 -0.255917
-0.059621 -0.127915 -0.313443
-0.076276 -0.126499 -0.189447
-0.040566 -0.130085 -0.308495
-0.122977 -0.125050 -0.251272
-0.027093 -0.126613 -0.282012
-0.061327 -0.126240 -0.241882
0.204876 -0.123547 -0.038408
0.204317 -0.128184 -0.101612
0.204907 -0.121417 -0.100795
0.206291 -0.096429 -0.071111
0.204581 -0.123064 -0.065936
0.203585 -0.134132 -0.077739
0.203782 -0.131705 -0.110650
0.206370 -0.111192 -0.042522
0.204229 -0.132060 -0.048697
0.206521 -0.112496 -0.064062
0.203308 -0.135574 -0.062733
0.206144 -0.113560 -0.081976
0.206105 -0.113783 -0.092571
0.206278 -0.104104 -0.110043
0.205139 -0.121635 -0.086119
0.203612 -0.134929 -0.100280
0.205701 -0.107691 -0.074138
0.203078 -0.135376 -0.089522
0.203573 -0.132185 -0.072881
0.204245 -0.127257 -0.058200
0.206094 -0.114707 -0.110320
0.205958 -0.103645 -0.056197
0.205178 -0.124667 -0.112640
0.204943 -0.126048 -0.093186
0.206087 -0.117498 -0.120201
0.206430 -0.101656 -0.085543
0.206052 -0.108923 -0.098954
0.205063 -0.119387 -0.052685
0.206888 -0.097810 -0.094900
0.205586 -0.125857 -0.077978
0.205333 -0.118146 -0.073880
0.203865 -0.130189 -0.084175
-0.069140 0.102101 -0.170438
-0.067278 0.097311 -0.204816
-0.069730 0.107718 -0.203155
-0.075686 0.129194 -0.187482
-0.069025 0.104961 -0.185032
-0.064271 0.083152 -0.190665
-0.065757 0.092365 -0.211157
-0.072357 0.115153 -0.172559
-0.066591 0.092757 -0.175312
-0.070648 0.112383 -0.182508
-0.065143 0.085962 -0.181879
-0.070886 0.114885 -0.192124
-0.070421 0.112535 -0.198771
-0.073517 0.122497 -0.209858
-0.069145 0.106483 -0.194793
-0.064969 0.086659 -0.203347
-0.073104 0.120200 -0.187034
-0.065493 0.088737 -0.195986
-0.066338 0.093485 -0.187971
-0.068048 0.099486 -0.180629
-0.070021 0.112683 -0.208699
-0.073506 0.120798 -0.179062
-0.067903 0.102481 -0.209780
-0.067748 0.101056 -0.199110
-0.068720 0.108554 -0.216093
-0.073100 0.122711 -0.194243
-0.071596 0.117513 -0.202286
-0.070310 0.107153 -0.177035
-0.074272 0.127397 -0.200449
-0.067769 0.100959 -0.190589
-0.070366 0.110120 -0.188933
-0.066779 0.095016 -0.195874
-0.067618 0.037905 -0.195243
-0.069232 0.032812 -0.227479
-0.067346 0.041930 -0.226281
-0.060078 0.066067 -0.213196
-0.066768 0.039770 -0.210419
-0.073637 0.012870 -0.216142
-0.070889 0.027605 -0.232904
-0.063224 0.049307 -0.197876
-0.069963 0.028325 -0.200929
-0.064291 0.048712 -0.208834
-0.072145 0.019645 -0.208379
-0.063542 0.049210 -0.217859
-0.064592 0.047374 -0.222353
-0.063150 0.057666 -0.231993
-0.065870 0.042131 -0.218955
-0.073224 0.020868 -0.227134
-0.062859 0.055286 -0.213080
-0.071190 0.024396 -0.219800
-0.069461 0.029386 -0.213393
-0.068702 0.034065 -0.206979
-0.065495 0.047970 -0.230986
-0.062528 0.056029 -0.205234
-0.068096 0.037533 -0.232991
-0.067507 0.037353 -0.222258
-0.066567 0.044385 -0.238970
-0.062030 0.057255 -0.219259
-0.063564 0.052757 -0.224961
-0.066100 0.042377 -0.203292
-0.060470 0.063551 -0.223559
-0.067540 0.037565 -0.215733
-0.065271 0.045659 -0.214404
-0.069381 0.031159 -0.219714
-0.076924 0.129577 -0.166497
-0.075391 0.123991 -0.206432
-0.079452 0.135028 -0.204944
-0.088479 0.157026 -0.185669
-0.077510 0.132353 -0.183336
-0.069992 0.109786 -0.190444
-0.073363 0.119090 -0.214143
-0.082685 0.143677 -0.169275
-0.072900 0.119621 -0.172736
-0.079768 0.139552 -0.180444
-0.070489 0.112467 -0.179601
-0.081557 0.142724 -0.191377
-0.080602 0.139791 -0.199526
-0.086236 0.150388 -0.213255
-0.078629 0.133488 -0.194914
-0.070877 0.112420 -0.205107
-0.084771 0.148038 -0.185508
-0.071659 0.115372 -0.196671
-0.073225 0.120108 -0.186783
-0.075412 0.126481 -0.178281
-0.080988 0.139724 -0.210803
-0.084629 0.148591 -0.176686
-0.077225 0.129241 -0.212420
-0.076278 0.127631 -0.199932
-0.079148 0.134911 -0.220381
-0.084826 0.150278 -0.194206
-0.083066 0.145070 -0.203575
-0.078808 0.134735 -0.174141
-0.087227 0.155013 -0.200685
-0.075382 0.127732 -0.190058
-0.079826 0.137219 -0.187903
-0.073976 0.121544 -0.196280
0.223778 -0.012262 0.006608
0.225537 -0.018221 -0.053532
0.223619 -0.008098 -0.055596
0.214753 0.005323 -0.025278
0.224273 -0.010268 -0.019528
0.228103 -0.034848 -0.032893
0.226388 -0.023402 -0.065092
0.221009 -0.002054 0.002714
0.226225 -0.023259 -0.004005
0.222638 -0.001449 -0.018862
0.227652 -0.029953 -0.017205
0.220476 -0.002612 -0.035417
0.222321 -0.004192 -0.045759
0.218611 0.002210 -0.069338
0.223236 -0.009404 -0.041300
0.228406 -0.031802 -0.054387
0.219321 0.000246 -0.028742
0.226667 -0.027019 -0.043412
0.226128 -0.022352 -0.026399
0.225026 -0.015053 -0.012958
0.222222 -0.003046 -0.062149
0.217803 0.002014 -0.011654
0.225093 -0.012869 -0.067086
0.225019 -0.014144 -0.047120
0.223394 -0.007396 -0.076963
0.219191 0.002878 -0.040028
0.220442 -0.000428 -0.053590
0.222897 -0.006871 -0.006943
0.216704 0.004402 -0.048867
0.225176 -0.014462 -0.031025
0.222824 -0.006375 -0.028635
0.226047 -0.020107 -0.040516
-0.099271 0.170674 -0.168935
-0.095647 0.165602 -0.210970
-0.103031 0.175800 -0.209892
-0.116820 0.192972 -0.191919
-0.100258 0.172431 -0.189439
-0.086513 0.147674 -0.195451
-0.092867 0.160083 -0.217599
-0.108638 0.183862 -0.173169
-0.092727 0.161365 -0.176869
-0.103429 0.179216 -0.186921
-0.088130 0.152787 -0.184343
-0.107431 0.182613 -0.196985
-0.104760 0.179591 -0.204377
-0.113449 0.188620 -0.219167
-0.101588 0.173547 -0.200327
-0.086892 0.151300 -0.210477
-0.110982 0.185816 -0.192292
-0.089589 0.156788 -0.202096
-0.092966 0.161798 -0.192391
-0.096633 0.167498 -0.184506
-0.105502 0.179656 -0.215555
-0.111229 0.186385 -0.183261
-0.099680 0.171147 -0.217241
-0.098730 0.169187 -0.204972
-0.102056 0.174064 -0.226192
-0.110837 0.187172 -0.200328
-0.108644 0.183898 -0.208208
-0.102000 0.175086 -0.179969
-0.115207 0.191078 -0.205405
-0.096529 0.167458 -0.195501
-0.102953 0.176386 -0.194291
-0.093708 0.162882 -0.202287
0.208979 -0.072241 0.015526
0.208646 -0.076683 -0.098429
0.208301 -0.071987 -0.108670
0.208849 -0.059329 -0.049950
0.209007 -0.072762 -0.034594
0.208556 -0.084384 -0.060668
0.208122 -0.079609 -0.116803
0.209359 -0.067289 0.004976
0.209053 -0.078914 -0.004733
0.209851 -0.064740 -0.038213
0.209216 -0.083572 -0.031113
0.208612 -0.067891 -0.070006
0.209502 -0.067992 -0.086407
0.208654 -0.062494 -0.129903
0.209281 -0.072084 -0.078350
0.208622 -0.082420 -0.102229
0.208951 -0.065766 -0.060616
0.208682 -0.083237 -0.082496
0.208429 -0.080032 -0.046236
0.209022 -0.075455 -0.021499
0.209720 -0.067514 -0.119885
0.208829 -0.061190 -0.022421
0.208960 -0.074242 -0.127738
0.209135 -0.074405 -0.089504
0.209191 -0.069319 -0.143032
0.209382 -0.060079 -0.076307
0.208932 -0.064670 -0.102714
0.208587 -0.069904 -0.011904
0.209469 -0.059902 -0.094671
0.209104 -0.073101 -0.057397
0.209025 -0.071375 -0.050762
0.208453 -0.077223 -0.069108
-0.064081 0.069911 -0.189384
-0.064798 0.064498 -0.225003
-0.065151 0.075734 -0.222988
-0.065884 0.100856 -0.207432
-0.064300 0.072907 -0.205377
-0.063464 0.047794 -0.210848
-0.064427 0.059134 -0.231074
-0.064518 0.084119 -0.191371
-0.063533 0.059818 -0.194628
-0.064286 0.082288 -0.202536
-0.063611 0.052212 -0.202342
-0.064197 0.084737 -0.212589
-0.064678 0.081656 -0.218800
-0.066008 0.092956 -0.228952
-0.064303 0.075320 -0.214699
-0.064456 0.052765 -0.224043
-0.065233 0.090525 -0.207238
-0.064152 0.055132 -0.215810
-0.063738 0.060667 -0.208522
-0.064193 0.066647 -0.200601
-0.064914 0.082118 -0.228668
-0.065168 0.090872 -0.198838
-0.064541 0.070324 -0.229575
-0.064364 0.069158 -0.219181
-0.064682 0.077804 -0.235747
-0.064950 0.093261 -0.214533
-0.065084 0.087591 -0.221986
-0.064566 0.075585 -0.196731
-0.065490 0.098730 -0.220391
-0.063988 0.069026 -0.211281
-0.064757 0.079299 -0.209289
-0.064348 0.062306 -0.216248
-0.222990 -0.087898 -0.351722
-0.211066 -0.076780 -0.392404
-0.222024 -0.066970 -0.393396
-0.225185 0.031654 -0.380746
-0.218777 -0.058377 -0.391224
-0.219938 -0.033334 -0.368060
-0.212806 -0.111378 -0.394217
-0.222020 -0.002960 -0.353130
-0.222503 -0.112274 -0.360155
-0.219984 -0.047105 -0.377085
-0.220348 -0.130412 -0.378543
-0.188349 -0.041621 -0.396045
-0.223966 0.009030 -0.386876
-0.216794 0.002776 -0.393678
-0.195130 -0.076725 -0.391054
-0.218876 -0.090015 -0.390894
-0.213601 -0.017947 -0.388748
-0.220556 -0.117440 -0.391444
-0.207624 -0.107294 -0.392343
-0.221079 -0.068172 -0.369002
-0.218711 -0.044632 -0.392369
-0.224447 -0.011365 -0.378853
-0.207639 -0.038613 -0.392381
-0.201505 -0.094546 -0.396677
-0.218131 -0.019313 -0.391467
-0.221267 -0.029930 -0.389421
-0.214323 -0.006298 -0.394308
-0.221290 -0.056314 -0.349873
-0.214749 0.023766 -0.396733
-0.219925 -0.076916 -0.379870
-0.213325 -0.053352 -0.392611
-0.222003 -0.101561 -0.378455
-0.009446 -0.129224 -0.150218
0.012813 -0.129097 -0.275617
-0.000148 -0.128340 -0.249541
0.040137 -0.128951 -0.198308
0.006750 -0.126615 -0.224078
0.066604 -0.127534 -0.152224
0.030891 -0.128896 -0.221132
-0.038297 -0.127560 -0.159834
0.042722 -0.130332 -0.134173
-0.026527 -0.127489 -0.179530
0.017075 -0.128559 -0.153363
0.084589 -0.128628 -0.228582
-0.018496 -0.129670 -0.233519
0.019395 -0.126437 -0.201777
0.085756 -0.127032 -0.174453
-0.032611 -0.130356 -0.248023
0.076406 -0.128317 -0.200181
-0.022953 -0.128892 -0.205142
0.058236 -0.131649 -0.180145
0.041121 -0.125173 -0.162915
-0.016209 -0.128432 -0.270704
0.002284 -0.128830 -0.170309
0.044320 -0.127412 -0.269129
0.070522 -0.128578 -0.252227
-0.046120 -0.127552 -0.217421
-0.002864 -0.127284 -0.192114
0.025810 -0.128672 -0.245677
0.005963 -0.127594 -0.130627
0.045881 -0.131399 -0.240898
-0.040226 -0.127050 -0.186826
0.057685 -0.128644 -0.216077
0.022780 -0.128729 -0.180162
-0.142886 0.193812 -0.125730
-0.136420 0.195625 -0.204884
-0.120847 0.196008 -0.213810
-0.161577 0.196216 -0.190448
-0.122906 0.195038 -0.168245
-0.138624 0.195106 -0.187470
-0.136098 0.196643 -0.219863
-0.126894 0.194798 -0.138637
-0.173256 0.193683 -0.140633
-0.149185 0.195140 -0.182332
-0.172526 0.193530 -0.166749
-0.193008 0.192192 -0.184238
-0.126961 0.196796 -0.206592
-0.124810 0.196917 -0.223427
-0.177796 0.193715 -0.199610
-0.123249 0.195240 -0.199289
-0.143476 0.196216 -0.195800
-0.132475 0.196522 -0.197602
-0.156328 0.195494 -0.171435
-0.148075 0.195027 -0.154902
-0.150831 0.196063 -0.227833
-0.131563 0.196335 -0.165404
-0.168017 0.194214 -0.217100
-0.152401 0.194912 -0.203862
-0.132132 0.197101 -0.233261
-0.125616 0.195982 -0.191373
-0.129890 0.196886 -0.213754
-0.135322 0.195475 -0.153482
-0.143879 0.197271 -0.213736
-0.120571 0.195685 -0.182457
-0.137797 0.195372 -0.174106
-0.130551 0.196293 -0.182975
0.223461 -0.029413 -0.003431
0.223759 -0.034824 -0.068085
0.223693 -0.025990 -0.069255
0.222648 -0.005189 -0.040197
0.223844 -0.027973 -0.033697
0.223354 -0.045875 -0.046178
0.223592 -0.038352 -0.077866
0.223753 -0.017742 -0.008771
0.223608 -0.038762 -0.014606
0.224528 -0.017901 -0.031986
0.223311 -0.043534 -0.030132
0.223633 -0.018194 -0.050754
0.224381 -0.019736 -0.060452
0.223597 -0.010183 -0.079463
0.223856 -0.026090 -0.054916
0.223578 -0.043092 -0.068176
0.223139 -0.014030 -0.042691
0.223186 -0.042311 -0.057097
0.223294 -0.038451 -0.040513
0.223442 -0.033186 -0.025695
0.224377 -0.019111 -0.075917
0.222942 -0.010868 -0.024164
0.224212 -0.030742 -0.079852
0.223985 -0.030888 -0.061456
0.224439 -0.022675 -0.086740
0.223834 -0.008581 -0.054460
0.223720 -0.014381 -0.066693
0.223745 -0.024836 -0.019020
0.223373 -0.005536 -0.064032
0.224395 -0.030909 -0.045800
0.223708 -0.022864 -0.042117
0.223549 -0.036047 -0.053235
-0.109182 0.012743 -0.157207
-0.098889 0.011219 -0.271764
-0.070879 0.013748 -0.285511
-0.148446 0.013097 -0.254561
-0.076716 0.014574 -0.222537
-0.102131 0.005180 -0.253239
-0.102795 0.011673 -0.298465
-0.084542 0.014923 -0.179308
-0.173604 0.012002 -0.186220
-0.118985 0.011859 -0.242609
-0.171510 0.009652 -0.226878
-0.223682 0.009353 -0.245502
-0.081468 0.013937 -0.273985
-0.078971 0.014274 -0.301489
-0.190497 0.010203 -0.266591
-0.073098 0.009694 -0.270187
-0.112612 0.012622 -0.260242
-0.088721 0.012029 -0.264643
-0.139890 0.010762 -0.228653
-0.121235 0.012666 -0.206473
-0.130984 0.010199 -0.305683
-0.088707 0.014257 -0.219801
-0.167170 0.009407 -0.291376
-0.127145 0.010756 -0.271825
-0.089129 0.012139 -0.320136
-0.080597 0.014408 -0.255189
-0.091250 0.012601 -0.283311
-0.095884 0.013485 -0.202395
-0.109349 0.014510 -0.282206
-0.062390 0.013085 -0.241941
-0.102363 0.012742 -0.230152
-0.087459 0.011799 -0.243730
0.220076 -0.049094 0.025916
0.219718 -0.051791 -0.080926
0.219999 -0.049327 -0.090494
0.222001 -0.036093 -0.040287
0.220132 -0.049574 -0.025221
0.217302 -0.055931 -0.049885
0.218581 -0.053840 -0.095631
0.221529 -0.044117 0.013684
0.219511 -0.053467 0.004414
0.222294 -0.043090 -0.029798
0.217858 -0.056176 -0.022080
0.220800 -0.046479 -0.058180
0.221603 -0.045446 -0.071647
0.221872 -0.040146 -0.105781
0.220991 -0.049839 -0.064514
0.217739 -0.055633 -0.085231
0.221634 -0.043002 -0.049339
0.218359 -0.056243 -0.068820
0.218483 -0.053761 -0.036481
0.219912 -0.051418 -0.012531
0.222349 -0.045761 -0.098263
0.221855 -0.038524 -0.014364
0.220537 -0.050658 -0.106361
0.220736 -0.051038 -0.074036
0.221563 -0.047315 -0.116991
0.222168 -0.037951 -0.063875
0.221499 -0.042874 -0.084121
0.220550 -0.047480 -0.003535
0.222743 -0.036565 -0.077467
0.220823 -0.049710 -0.046813
0.220906 -0.048680 -0.039948
0.219239 -0.052223 -0.055809
-0.067062 0.036057 -0.215090
-0.070159 0.030404 -0.253348
-0.068158 0.040791 -0.251799
-0.059410 0.068364 -0.235963
-0.066588 0.038496 -0.232805
-0.073996 0.009620 -0.239050
-0.072152 0.024728 -0.258913
-0.062358 0.049592 -0.218015
-0.069614 0.025732 -0.221350
-0.063857 0.048899 -0.230760
-0.072220 0.016221 -0.230160
-0.063432 0.049769 -0.241760
-0.064956 0.047509 -0.247430
-0.063690 0.059238 -0.258006
-0.066229 0.041207 -0.242911
-0.074383 0.017332 -0.252666
-0.062370 0.056166 -0.235908
-0.071763 0.020932 -0.243871
-0.069707 0.026580 -0.236251
-0.068585 0.031847 -0.228350
-0.066291 0.047873 -0.257086
-0.061896 0.057273 -0.226397
-0.069096 0.035761 -0.259304
-0.068011 0.035458 -0.247279
-0.067664 0.044028 -0.265513
-0.061831 0.058772 -0.243445
-0.063876 0.053612 -0.250443
-0.065479 0.041534 -0.223921
-0.060444 0.065757 -0.248724
-0.067821 0.035826 -0.239317
-0.065200 0.045298 -0.237305
-0.070069 0.028613 -0.243900
-0.156207 -0.060121 -0.218371
-0.129633 -0.058996 -0.333192
-0.148311 -0.058721 -0.310042
-0.115444 -0.037393 -0.269976
-0.135007 -0.056760 -0.294374
-0.093615 -0.052928 -0.228322
-0.118995 -0.059012 -0.302244
-0.171012 -0.051498 -0.231830
-0.110532 -0.058694 -0.211269
-0.156487 -0.058105 -0.255752
-0.133267 -0.054506 -0.230165
-0.066279 -0.058099 -0.293828
-0.153184 -0.039124 -0.295857
-0.124632 -0.052192 -0.282861
-0.074843 -0.057600 -0.250347
-0.173815 -0.058297 -0.318275
-0.084576 -0.054809 -0.274335
-0.157757 -0.056823 -0.281994
-0.103201 -0.059198 -0.261313
-0.112730 -0.057969 -0.242338
-0.153424 -0.055651 -0.332908
-0.141641 -0.048277 -0.247670
-0.106487 -0.056566 -0.328034
-0.085253 -0.059588 -0.312604
-0.179930 -0.051585 -0.297419
-0.145605 -0.055710 -0.272487
-0.128522 -0.046193 -0.318433
-0.131056 -0.056728 -0.202853
-0.101361 -0.040717 -0.309614
-0.182581 -0.059665 -0.264251
-0.100696 -0.058308 -0.287849
-0.128249 -0.060122 -0.261355
-0.063028 0.070166 -0.215670
-0.064195 0.064404 -0.252785
-0.065057 0.076422 -0.250852
-0.067032 0.102128 -0.233673
-0.063766 0.073486 -0.231199
-0.061591 0.046075 -0.237264
-0.063393 0.058539 -0.259803
-0.064661 0.085002 -0.217619
-0.062072 0.059356 -0.220608
-0.063986 0.082770 -0.228240
-0.061716 0.051076 -0.227885
-0.064418 0.085327 -0.238909
-0.064724 0.082154 -0.245803
-0.067079 0.094106 -0.258313
-0.063931 0.075699 -0.241347
-0.062889 0.051497 -0.251750
-0.065730 0.091362 -0.233420
-0.062637 0.054341 -0.242523
-0.062456 0.060388 -0.234396
-0.063149 0.066916 -0.226460
-0.065174 0.082881 -0.257057
-0.065613 0.091599 -0.224663
-0.064242 0.070297 -0.258125
-0.063749 0.069244 -0.246308
-0.064770 0.078026 -0.265633
-0.065723 0.094377 -0.241098
-0.065585 0.088388 -0.249672
-0.064007 0.076242 -0.222815
-0.066727 0.099795 -0.247676
-0.063146 0.069247 -0.237410
-0.064660 0.079982 -0.235322
-0.063194 0.062024 -0.243114
-0.159808 0.064446 -0.171788
-0.148547 0.068636 -0.281803
-0.162115 0.077802 -0.235172
-0.170302 0.156240 -0.207253
-0.154771 0.090715 -0.254088
-0.156978 0.108330 -0.181062
-0.145828 0.040512 -0.261065
-0.174743 0.137700 -0.171940
-0.140853 0.046701 -0.178270
-0.173161 0.103674 -0.197080
-0.146117 0.031678 -0.199939
-0.144758 0.098380 -0.239929
-0.172643 0.152699 -0.226411
-0.162046 0.129886 -0.239313
-0.137898 0.068756 -0.208804
-0.170541 0.062791 -0.259903
-0.150813 0.113024 -0.208814
-0.154140 0.040218 -0.233417
-0.139374 0.048606 -0.220220
-0.150285 0.083256 -0.188482
-0.169766 0.103940 -0.280826
-0.166427 0.132547 -0.199919
-0.148209 0.095731 -0.268156
-0.140165 0.059216 -0.244363
-0.179282 0.118778 -0.251321
-0.171012 0.116157 -0.223870
-0.165711 0.137366 -0.271346
-0.165899 0.094573 -0.160240
-0.165693 0.151958 -0.250984
-0.173419 0.070359 -0.212043
-0.150943 0.088279 -0.222073
-0.151397 0.057198 -0.200615
0.084094 -0.057325 -0.032300
0.110028 -0.058122 -0.131329
0.095372 -0.056957 -0.113773
0.135967 -0.059364 -0.074276
0.098649 -0.056553 -0.090613
0.162683 -0.056444 -0.033786
0.129890 -0.053964 -0.084467
0.046957 -0.058215 -0.035500
0.139501 -0.055277 -0.017032
0.069240 -0.054912 -0.055046
0.118650 -0.050814 -0.035119
0.176955 -0.057596 -0.095661
0.074227 -0.057621 -0.101427
0.116249 -0.060377 -0.071309
0.174400 -0.055259 -0.051149
0.048636 -0.058173 -0.114001
0.173812 -0.059794 -0.072186
0.064348 -0.052473 -0.075757
0.153767 -0.055292 -0.057900
0.141326 -0.057808 -0.045574
0.070684 -0.062411 -0.127370
0.096585 -0.060526 -0.050454
0.140434 -0.058866 -0.125912
0.166201 -0.058485 -0.115845
0.035782 -0.059065 -0.084528
0.089154 -0.058221 -0.067887
0.119565 -0.059536 -0.103619
0.105399 -0.058878 -0.016804
0.146063 -0.061056 -0.103083
0.037543 -0.058907 -0.057517
0.154957 -0.056091 -0.085650
0.122775 -0.056882 -0.056412
-0.070743 0.112507 -0.209467
-0.070514 0.107112 -0.246024
-0.073573 0.117655 -0.244008
-0.081248 0.140001 -0.226923
-0.071563 0.115289 -0.224945
-0.065441 0.092969 -0.231441
-0.068786 0.102095 -0.252824
-0.075529 0.126004 -0.211951
-0.067544 0.102977 -0.215285
-0.073368 0.122344 -0.222355
-0.065815 0.095864 -0.221813
-0.075108 0.125246 -0.231956
-0.074333 0.122417 -0.239513
-0.079485 0.132633 -0.251297
-0.072533 0.116309 -0.235108
-0.066698 0.096021 -0.244635
-0.077715 0.130486 -0.226609
-0.067156 0.098597 -0.236910
-0.068161 0.103544 -0.228129
-0.069767 0.109724 -0.220315
-0.075060 0.122582 -0.249786
-0.077397 0.130712 -0.218710
-0.071823 0.112246 -0.250873
-0.070809 0.110677 -0.239744
-0.073696 0.117765 -0.258225
-0.077723 0.132612 -0.234243
-0.076521 0.127382 -0.242937
-0.072505 0.117701 -0.216625
-0.080286 0.137605 -0.240470
