-0.206393 -0.202114 0.390310
-0.190861 -0.201654 0.383103
-0.215067 -0.202111 0.360804
-0.202066 -0.080776 0.382938
-0.202160 0.006386 0.393446
-0.115809 -0.108737 0.394152
-0.204395 0.089514 0.387040
-0.216939 -0.019681 0.315119
-0.200628 -0.115573 0.280474
-0.088125 -0.011509 0.398591
-0.017986 -0.120286 0.386463
-0.101002 -0.124361 0.304599
-0.226204 0.102323 0.308396
-0.104514 0.088736 0.390768
0.006783 -0.049575 0.393821
-0.101377 0.009708 0.339096
-0.217108 -0.012502 0.221333
-0.083983 0.046489 0.338525
-0.091908 0.066301 0.338985
-0.168913 0.174181 0.328380
-0.065265 0.025806 0.333708
-0.101236 0.106069 0.339626
-0.206068 -0.105265 0.167183
-0.073297 0.010232 0.316087
0.117610 -0.115497 0.390943
-0.117678 -0.118730 0.215109
0.008812 0.076272 0.392989
-0.106874 0.146088 0.336008
-0.081444 0.089646 0.327023
-0.114465 0.166870 0.336523
-0.089084 -0.001643 0.278745
-0.097395 0.105994 0.319582
-0.060467 0.045978 0.315405
0.187444 -0.200688 0.382264
-0.004949 0.009930 0.338174
0.196755 -0.197686 0.388201
-0.068199 0.069439 0.315201
-0.083987 0.109390 0.320352
0.107614 -0.032937 0.393488
-0.005544 -0.115357 0.274893
0.164937 -0.183329 0.359169
-0.005152 0.043993 0.337959
-0.093181 0.145802 0.316359
-0.224532 0.127954 0.211219
0.087989 -0.120980 0.330797
0.187480 -0.162807 0.382654
-0.115788 0.188783 0.317101
-0.063015 0.026414 0.285498
0.165249 -0.161927 0.359312
-0.005549 0.073464 0.338082
0.186813 -0.181418 0.362643
-0.083038 0.129163 0.304946
0.200968 -0.125759 0.395015
-0.074718 0.108745 0.300633
-0.005169 -0.006530 0.299579
-0.073066 0.010427 0.254792
0.165198 -0.140611 0.359320
-0.095977 0.166804 0.304983
-0.064524 0.089081 0.286331
-0.005235 0.113749 0.338068
0.187804 -0.143236 0.363089
-0.060779 0.066086 0.274454
0.200875 -0.078161 0.395585
-0.083220 0.146069 0.286518
-0.190367 -0.122286 0.084292
0.074614 0.008811 0.338376
-0.213463 -0.022715 0.108563
0.205249 -0.097789 0.378661
-0.061225 0.046805 0.247327
0.201185 -0.038606 0.396121
-0.063427 0.085898 0.259338
-0.114065 0.186459 0.263775
-0.218778 0.083111 0.138043
-0.074305 0.126074 0.263558
0.209392 -0.043883 0.390057
-0.062587 0.027391 0.224373
-0.130727 0.185789 0.242878
0.205300 -0.058173 0.378499
0.074294 0.066591 0.338245
-0.098623 0.168778 0.255982
-0.084161 0.146954 0.256070
0.201929 0.000966 0.397123
-0.072721 0.010679 0.203851
0.205966 -0.087150 0.360319
0.094391 0.096381 0.361539
0.102793 -0.118975 0.269249
0.099028 -0.007698 0.315136
0.200673 -0.128421 0.330777
0.164653 -0.055413 0.336048
-0.102372 -0.006595 0.162705
0.205973 -0.018370 0.379864
-0.075292 0.126352 0.240922
-0.061188 0.066683 0.224810
-0.014074 -0.125445 0.172592
0.073594 0.106847 0.338600
0.201637 0.040593 0.398020
-0.068039 0.106444 0.233118
0.143479 0.004870 0.337755
0.202857 -0.096937 0.331150
-0.002424 -0.017488 0.216386
-0.092448 0.093769 0.198399
0.204827 -0.047527 0.350332
-0.087383 -0.129068 0.100469
0.206254 0.021125 0.380399
0.143650 0.026526 0.337575
-0.096663 0.165513 0.224488
0.197640 0.085018 0.394751
0.202474 -0.067931 0.330890
-0.072531 0.010559 0.164130
0.207013 0.001271 0.361326
-0.063913 0.086530 0.202166
-0.112705 0.184733 0.208776
0.201834 0.099855 0.397972
-0.195813 -0.114577 0.008988
-0.085805 0.148393 0.209292
0.201802 -0.027248 0.339423
-0.213531 -0.020830 0.034317
0.206611 -0.097146 0.308950
0.201701 -0.127462 0.289513
-0.075755 0.127533 0.201651
0.216970 -0.053070 0.330752
0.206714 0.079983 0.380980
0.142905 0.086361 0.337690
0.208835 -0.112419 0.295056
0.201852 0.001456 0.339768
-0.068230 0.107166 0.190851
-0.061122 0.066507 0.174445
0.186376 0.115157 0.372126
0.142574 0.108053 0.338007
0.207373 0.060994 0.361872
-0.110287 0.181361 0.179766
0.222036 -0.012570 0.333602
0.202025 0.041769 0.339550
0.199883 0.045777 0.340230
-0.094877 0.162626 0.176530
0.205164 0.101537 0.362405
-0.067582 0.103455 0.166876
0.110939 -0.129922 0.190090
0.205439 -0.069025 0.281302
-0.062768 0.083206 0.154518
-0.140681 0.195078 0.144861
0.103317 -0.004552 0.235028
0.206677 -0.089426 0.269634
0.202428 -0.125901 0.249531
-0.063322 0.023279 0.121525
0.218037 -0.053454 0.289760
-0.061142 0.043561 0.130113
0.202449 0.090881 0.339788
-0.078849 0.133906 0.154629
-0.071766 0.011212 0.103473
0.224316 -0.012071 0.306119
-0.111484 0.183146 0.147079
-0.188401 0.184851 0.090343
0.198954 0.112066 0.340221
0.217197 -0.019883 0.295496
-0.091517 -0.008755 0.074804
-0.216326 0.104093 0.028600
0.206801 -0.098797 0.249439
0.224490 -0.032800 0.286934
-0.067715 0.104367 0.134951
0.005206 -0.017397 0.132068
-0.097018 0.164772 0.136753
-0.207853 -0.036403 -0.044640
-0.188319 -0.121532 -0.075285
0.201964 -0.127368 0.210941
-0.118359 0.189696 0.117860
-0.065056 0.092563 0.110679
0.215662 -0.054227 0.249257
-0.063019 0.024395 0.080723
0.209417 -0.121199 0.213611
-0.083239 0.143514 0.113819
0.224953 -0.011676 0.264521
-0.100878 0.170423 0.107303
-0.025910 -0.122601 0.030252
-0.093962 0.110449 0.083679
-0.071625 0.010837 0.053592
0.204833 -0.067175 0.220134
0.081991 -0.125625 0.102573
-0.070701 0.113470 0.090743
-0.083894 0.143736 0.093660
-0.119667 0.191498 0.087920
0.206333 -0.106569 0.190337
0.102493 -0.010881 0.158670
-0.091945 -0.118583 -0.036733
-0.061503 0.072818 0.074171
0.201802 -0.125611 0.171025
-0.071403 0.011250 0.032564
0.224714 -0.042316 0.224343
0.216660 -0.019055 0.226709
-0.101967 0.171930 0.078011
0.206537 -0.079775 0.190112
-0.061765 0.032535 0.043916
-0.084015 0.144212 0.072362
-0.101711 0.011058 -0.004032
-0.216643 0.074904 -0.066048
0.224615 -0.003202 0.224482
-0.066089 0.093396 0.053425
0.202231 -0.126348 0.149849
-0.075673 0.006509 0.005466
-0.077419 0.011462 0.006059
-0.076340 0.123032 0.056692
-0.061538 0.073087 0.044969
0.209512 -0.132365 0.148949
0.224800 -0.033539 0.204050
-0.089670 0.154178 0.054552
-0.116775 0.188168 0.045069
-0.062750 0.052648 0.023115
0.224749 -0.012818 0.204235
0.207329 -0.098774 0.150460
0.018958 -0.016805 0.048009
-0.091729 0.061882 -0.000710
-0.081974 0.010873 -0.016847
-0.082581 0.116274 0.029850
-0.075555 0.078103 0.016945
-0.080576 0.045495 -0.002676
-0.147614 0.197795 0.012745
-0.095301 0.154830 0.031912
-0.109784 0.114016 0.001144
-0.122658 0.193940 0.026061
-0.198672 -0.118206 -0.178210
-0.097230 0.091320 -0.001363
0.203037 -0.059905 0.149975
-0.213938 -0.015294 -0.142891
0.224638 -0.034067 0.174398
-0.104839 0.173272 0.025763
-0.126777 0.159463 0.002476
0.220808 -0.053106 0.161888
-0.113631 0.136177 0.001003
0.202029 -0.127938 0.111929
-0.105766 0.152246 0.011787
-0.066471 0.032833 -0.016087
-0.138054 0.192463 0.000011
0.094744 -0.119265 0.028229
0.207609 -0.096535 0.119528
-0.081288 0.011095 -0.047082
-0.080967 0.082663 -0.014585
0.220598 0.005512 0.171360
-0.092379 0.113193 -0.012195
0.116312 -0.005805 0.087594
-0.065842 0.053143 -0.023957
0.205024 -0.069457 0.119129
0.224468 -0.034742 0.144410
-0.092681 0.104292 -0.025900
-0.114196 0.180815 -0.012635
-0.186535 0.187592 -0.064967
0.206799 -0.106703 0.091178
-0.066734 0.032857 -0.046573
0.224454 -0.013210 0.144323
0.207095 -0.078972 0.100159
0.217567 -0.001564 0.142924
-0.081123 0.011222 -0.073598
0.202725 -0.126532 0.070553
-0.064678 0.053941 -0.045068
-0.098280 0.153330 -0.026319
0.205458 -0.121041 0.071868
0.224496 -0.034984 0.116413
0.220791 0.005229 0.131610
-0.097481 0.000886 -0.107992
0.218640 -0.053991 0.099847
0.207150 -0.098175 0.071519
-0.078314 0.113609 -0.043242
-0.093466 -0.120719 -0.165393
0.204485 -0.066977 0.080331
-0.066429 0.083208 -0.053780
-0.111665 0.182297 -0.043536
-0.091132 0.153982 -0.047015
0.218196 -0.034311 0.095257
0.206434 -0.108345 0.052022
-0.066495 0.034001 -0.086097
-0.216292 0.096368 -0.174125
0.008850 -0.014631 -0.052289
0.220730 0.005372 0.109909
-0.064891 0.063255 -0.075969
-0.081391 0.011089 -0.114019
-0.206489 -0.025087 -0.231617
-0.002552 -0.122744 -0.119410
-0.074179 0.114140 -0.063947
-0.198761 -0.113944 -0.275270
-0.111945 0.184007 -0.071122
0.190974 -0.055717 0.044030
-0.066682 0.084007 -0.085183
0.084773 -0.127589 -0.072004
-0.066569 0.033050 -0.113040
0.224371 -0.022600 0.075816
-0.081153 0.011714 -0.136587
0.203047 -0.125530 0.010621
0.121638 -0.015176 0.001602
-0.064932 0.062502 -0.103225
0.224574 -0.045296 0.057146
-0.076566 0.123489 -0.091948
-0.068437 0.092897 -0.108150
-0.208977 -0.202064 -0.363165
-0.089187 0.151762 -0.100498
0.207628 -0.087426 0.009395
0.225012 -0.004054 0.056884
-0.181141 0.180869 -0.163240
0.213623 -0.111343 -0.004797
-0.077268 0.124462 -0.114633
-0.101537 0.170886 -0.114309
-0.096205 0.124250 -0.132704
-0.066696 0.032945 -0.153668
0.221563 -0.052285 0.020253
0.202398 -0.059391 0.000698
0.206893 -0.107351 -0.018509
-0.200189 -0.199602 -0.379442
-0.080965 0.011412 -0.182667
-0.213855 -0.027471 -0.308277
-0.088188 0.001963 -0.196584
0.210963 -0.012555 0.016662
0.202223 -0.127589 -0.048314
-0.080526 0.133941 -0.139175
-0.068692 0.094615 -0.148636
-0.110046 0.181832 -0.140504
0.223305 -0.032928 0.004090
0.220821 0.006015 0.020066
-0.065180 0.063735 -0.166054
-0.107515 -0.123082 -0.291289
-0.006850 -0.010568 -0.160670
0.207379 -0.088612 -0.038580
0.189894 0.006605 -0.007145
-0.095800 0.162719 -0.154279
-0.080873 0.011528 -0.215357
0.202128 -0.128273 -0.068891
-0.066799 0.033297 -0.195060
0.213030 -0.056691 -0.029262
-0.070326 0.103746 -0.168080
0.206465 -0.108154 -0.060122
0.212535 0.002740 -0.003046
-0.215427 0.085172 -0.291036
0.097825 -0.004866 -0.093193
-0.065196 0.059634 -0.189344
-0.110846 0.182590 -0.174940
0.206662 -0.130393 -0.084942
0.002420 -0.125588 -0.239458
0.202647 -0.125488 -0.089695
-0.070438 0.104018 -0.191143
-0.065752 0.042500 -0.218148
-0.079517 0.131567 -0.189996
0.222496 -0.013252 -0.033083
-0.103714 0.173738 -0.195847
0.206558 -0.079709 -0.080657
-0.065600 0.073292 -0.212594
-0.196557 -0.062729 -0.382085
0.099024 -0.120987 -0.182841
-0.123149 0.194508 -0.203785
0.222170 -0.033408 -0.053453
-0.080328 0.011605 -0.263174
0.219357 -0.053702 -0.068192
-0.065839 0.043215 -0.241139
-0.087480 -0.009057 -0.285575
-0.065744 0.073488 -0.236305
-0.112897 0.174251 -0.227961
0.216772 -0.011048 -0.065753
-0.073102 0.114060 -0.230288
0.215204 0.006871 -0.063711
-0.124720 0.195854 -0.233815
0.205096 -0.067786 -0.110505
-0.094453 0.160776 -0.229890
0.205879 -0.107013 -0.130870
0.222599 -0.013244 -0.074312
0.201888 -0.127945 -0.147807
0.221904 -0.043500 -0.094958
-0.079781 0.012729 -0.297283
-0.109664 0.180644 -0.242433
-0.066245 0.082328 -0.260743
-0.065644 0.043921 -0.279499
-0.084430 0.142301 -0.249437
-0.119888 0.191366 -0.257128
-0.095443 0.109199 -0.277883
-0.208876 0.078848 -0.386405
0.201450 -0.128848 -0.170216
-0.179244 0.183315 -0.314306
-0.101518 -0.111613 -0.398350
0.202236 -0.112614 -0.165597
-0.072298 0.110911 -0.267815
-0.100296 0.013606 -0.337142
0.217706 -0.054274 -0.128961
-0.102253 0.171588 -0.268436
0.222528 -0.003679 -0.105680
0.204344 -0.068014 -0.150191
-0.064582 0.053050 -0.298477
0.207512 -0.031953 -0.137766
-0.065926 0.035564 -0.313905
0.117199 -0.004547 -0.192828
0.206776 -0.088137 -0.170759
-0.073899 0.097935 -0.297857
-0.069037 0.076114 -0.305658
-0.084847 0.139106 -0.288952
-0.000745 -0.004748 -0.293316
-0.106833 0.177461 -0.291100
-0.063377 0.013018 -0.337805
0.222103 -0.013428 -0.134501
-0.074394 0.054225 -0.327958
0.213988 0.007096 -0.135189
0.202025 -0.126607 -0.207556
-0.090166 0.122118 -0.316022
0.221637 -0.034264 -0.156082
0.216689 -0.054064 -0.169572
0.205772 -0.078627 -0.189855
-0.100783 0.105314 -0.336833
-0.123483 0.193877 -0.313908
-0.101667 0.009048 -0.391406
0.206332 -0.099147 -0.208602
0.100963 -0.134444 -0.305490
-0.108650 0.159833 -0.327070
-0.081600 0.094901 -0.337170
0.001999 -0.123394 -0.378663
-0.028570 0.012303 -0.336855
-0.119660 0.180441 -0.332761
0.204340 -0.116791 -0.229246
-0.028728 0.034942 -0.336832
0.201619 -0.058980 -0.207689
0.221353 -0.034299 -0.185800
-0.045909 0.075531 -0.337182
-0.004209 0.011830 -0.337034
0.213479 0.007163 -0.175891
0.201263 -0.128445 -0.250425
0.188702 -0.118514 -0.256870
-0.028670 0.061657 -0.337261
-0.004050 0.034447 -0.336896
0.204627 -0.068895 -0.228978
0.205468 -0.107172 -0.247534
0.019745 0.011897 -0.337177
-0.104248 0.108934 -0.387194
-0.029201 0.105805 -0.337641
-0.003897 0.064978 -0.337465
0.206785 -0.086714 -0.251115
0.019391 0.032984 -0.337016
0.102920 -0.010072 -0.294528
0.209615 -0.026864 -0.223286
0.221975 -0.028272 -0.215412
0.219217 0.003641 -0.205955
-0.005347 -0.018893 -0.387655
0.201876 -0.126438 -0.289275
0.050089 0.011609 -0.337492
0.003794 0.085373 -0.337624
0.212496 -0.056220 -0.250805
-0.005050 0.112272 -0.337985
0.221766 -0.007571 -0.226852
0.165814 -0.201874 -0.363321
0.203934 -0.066532 -0.268582
0.206051 -0.097940 -0.289630
0.034577 0.074738 -0.337752
0.078656 0.011259 -0.337343
0.018435 0.105685 -0.338148
0.063912 0.044675 -0.337287
0.221935 -0.014014 -0.253857
0.221387 -0.042363 -0.268543
0.186491 -0.183954 -0.364785
0.198355 -0.101254 -0.315085
0.177379 -0.163100 -0.363051
0.166478 -0.142398 -0.362885
0.211841 0.007409 -0.256705
0.098809 0.023330 -0.337297
0.202535 -0.117217 -0.328779
0.063721 0.085362 -0.338106
0.078092 0.064391 -0.337604
0.186302 -0.199553 -0.386186
0.204306 -0.067342 -0.307786
0.219011 -0.052948 -0.289960
0.110277 -0.112274 -0.401969
0.000177 0.094353 -0.388451
0.125569 0.006236 -0.337506
0.202774 -0.089410 -0.329045
0.198600 -0.199874 -0.388355
0.222159 -0.003769 -0.276897
0.077256 0.104685 -0.338024
0.186474 -0.162937 -0.385889
0.098780 0.074326 -0.337641
0.202239 -0.068021 -0.329119
0.118451 0.045917 -0.337542
0.204034 -0.106867 -0.348357
0.150477 0.005515 -0.337290
0.137926 0.025918 -0.337901
0.186747 -0.141052 -0.385668
0.204453 -0.079094 -0.348052
0.207689 -0.009123 -0.314984
0.218190 -0.053368 -0.330170
0.201447 -0.125402 -0.378953
0.221974 -0.025075 -0.315895
0.174311 0.005376 -0.337971
0.162465 0.024366 -0.337871
0.095002 0.006074 -0.399052
0.204430 -0.057702 -0.348301
0.118115 0.108441 -0.338287
0.222039 -0.005043 -0.315658
0.088973 0.103861 -0.364049
0.162531 0.046463 -0.337984
0.138020 0.086921 -0.338084
0.206682 -0.079125 -0.370984
0.204283 -0.029319 -0.348403
0.203339 -0.097417 -0.390069
0.205217 -0.008765 -0.348745
0.206784 -0.046951 -0.371422
0.201833 0.030508 -0.338639
0.203692 -0.069172 -0.389951
0.174692 0.086093 -0.338719
0.162428 0.106804 -0.338842
0.202613 0.061631 -0.339129
0.192643 -0.039065 -0.395516
0.207080 0.030431 -0.359612
0.206859 0.002324 -0.376177
0.203694 -0.018891 -0.390812
0.202474 0.090542 -0.339111
0.207256 0.062012 -0.359644
0.202291 0.112999 -0.339115
0.206483 0.030789 -0.381259
0.207879 0.090335 -0.360123
0.206758 0.051786 -0.381251
0.201145 0.113371 -0.361404
0.193265 0.093962 -0.391484
0.202739 0.109667 -0.397650
