-0.207948 -0.151273 0.409352
-0.201160 -0.153951 0.410550
-0.208007 -0.111989 0.409578
-0.207630 -0.070129 0.419134
-0.207997 -0.088773 0.396263
-0.208071 -0.130727 0.376450
-0.207654 -0.031587 0.419558
-0.207994 -0.049904 0.396213
-0.208014 -0.069133 0.376422
-0.187105 -0.062082 0.395050
-0.207766 0.026038 0.409914
-0.208369 -0.088233 0.357157
-0.191593 0.007375 0.411195
-0.203227 -0.152283 0.330615
-0.207823 -0.030358 0.376706
-0.130220 -0.105048 0.401163
-0.207739 0.048435 0.410200
-0.208641 -0.108175 0.338119
-0.207831 0.007768 0.386849
-0.207232 0.086800 0.420799
-0.208120 -0.049525 0.357479
-0.192269 -0.129753 0.330372
-0.207793 0.068211 0.397710
-0.216676 0.140133 0.419089
-0.207980 -0.010984 0.357475
-0.159559 -0.151982 0.330832
-0.201475 0.058794 0.386126
-0.209167 0.145699 0.414919
-0.191870 -0.070305 0.330374
-0.207995 0.049626 0.368149
-0.136855 -0.152182 0.330286
-0.159008 -0.110260 0.330786
-0.209046 0.126324 0.395532
-0.208234 0.027385 0.348368
-0.207520 0.107128 0.379257
-0.191933 -0.030889 0.330207
-0.112890 -0.152199 0.330593
-0.148020 -0.090954 0.330924
-0.159110 -0.069250 0.330452
-0.155800 0.122738 0.416231
-0.170545 -0.048576 0.330604
-0.202471 0.008058 0.330463
-0.160194 -0.008821 0.349972
-0.136688 -0.071080 0.330552
-0.113253 -0.109116 0.330581
-0.170547 -0.011614 0.330497
-0.202342 0.046419 0.330856
-0.183818 0.024585 0.332986
-0.209464 0.146673 0.366944
-0.207632 0.087955 0.340400
-0.147825 -0.028747 0.330477
-0.208595 0.126787 0.347459
-0.113428 -0.069516 0.330727
-0.214777 0.145968 0.344345
-0.106481 0.102053 0.394725
-0.170275 0.068038 0.331592
-0.113297 -0.030163 0.330560
-0.148290 0.029249 0.330672
-0.091740 0.144083 0.418490
-0.208812 0.137078 0.324856
-0.125247 0.008782 0.330883
-0.186121 0.116630 0.314918
-0.029153 0.123452 0.426607
-0.141244 0.147813 0.354463
-0.147495 0.107936 0.332251
-0.125046 0.067896 0.331241
-0.113098 0.047628 0.330772
-0.208876 0.116546 0.286933
-0.112320 0.108619 0.332217
0.008391 0.078853 0.402095
0.114377 -0.128823 0.384659
-0.204012 0.133782 0.265193
0.114967 -0.150282 0.370966
-0.159251 0.112477 0.285036
-0.209433 0.137136 0.257148
-0.059612 0.144859 0.367160
0.034148 0.135394 0.425682
-0.159039 0.116531 0.275346
-0.129215 0.117243 0.296736
-0.098159 0.117575 0.315291
0.114104 -0.067540 0.385094
0.203908 -0.151891 0.409964
-0.208699 0.116570 0.225466
0.114606 -0.149854 0.344423
0.114442 -0.088802 0.371392
-0.098476 0.129749 0.311149
0.183394 -0.078475 0.420389
-0.188034 0.115949 0.235739
0.145625 -0.107691 0.380724
-0.065262 0.117461 0.319997
0.113937 -0.110605 0.344930
-0.130049 0.116780 0.265198
-0.098698 0.117460 0.286479
-0.204372 0.125759 0.210444
0.007347 0.118187 0.356021
-0.209321 0.137539 0.204710
0.114080 -0.011155 0.371768
0.114129 -0.067132 0.345209
0.114586 0.027956 0.386069
0.114155 -0.089040 0.331726
0.074968 0.107445 0.389777
-0.189142 0.115991 0.195967
0.163179 -0.152844 0.331138
0.102266 0.141056 0.414505
-0.031023 0.117802 0.305869
-0.065959 0.117926 0.279570
-0.161191 0.116555 0.206971
0.162950 -0.129639 0.330758
-0.131132 0.116709 0.225842
-0.209131 0.116840 0.166573
-0.099765 0.117283 0.246490
0.114933 0.049870 0.372763
0.144948 -0.090761 0.330362
0.115213 0.089302 0.387267
0.213461 -0.027115 0.402752
0.114303 -0.027329 0.331865
0.203303 -0.153453 0.331343
0.036563 0.143035 0.342669
-0.130611 0.138769 0.217642
0.090160 0.118488 0.367350
0.174847 -0.093133 0.333196
0.161703 0.125210 0.416756
0.194412 -0.113941 0.333349
0.202605 0.051719 0.410982
0.114432 0.050625 0.346712
-0.209601 0.137996 0.146387
0.006049 0.117993 0.295387
-0.066925 0.117782 0.241531
-0.003117 0.137532 0.297178
0.113796 0.028498 0.332572
0.046944 0.118545 0.322070
0.163973 -0.047657 0.330704
-0.214449 0.152165 0.141234
0.175114 0.000403 0.359105
0.136297 0.007356 0.332953
0.183545 -0.071301 0.330682
-0.101089 0.117057 0.206150
-0.031695 0.117964 0.255614
0.203567 -0.091597 0.330959
0.115131 0.089796 0.347509
-0.162665 0.116632 0.155658
-0.132778 0.116958 0.176567
0.089961 0.118218 0.337278
-0.050747 0.144727 0.245386
0.163767 -0.011289 0.330558
0.136373 0.046594 0.333540
-0.209785 0.138390 0.116837
-0.184909 0.105306 0.117366
-0.191940 0.116229 0.116013
-0.209460 0.117216 0.098192
-0.068150 0.117618 0.199952
0.203854 -0.030597 0.330845
0.174343 0.024712 0.333460
0.144669 0.069093 0.331554
0.192231 0.076991 0.364488
0.194484 0.006337 0.333489
0.089768 0.117957 0.307046
-0.102019 0.117269 0.166107
0.222352 0.147440 0.407924
0.094180 0.131848 0.311654
-0.032706 0.117951 0.213021
0.147949 0.146530 0.354064
0.145733 0.109572 0.332848
0.005037 0.117986 0.234855
0.184135 0.047835 0.331596
-0.066718 0.135153 0.186772
0.164595 0.087880 0.332463
0.045668 0.117893 0.259425
-0.131307 0.141405 0.137076
-0.210158 0.138729 0.074427
-0.134667 0.116937 0.116866
0.089087 0.117672 0.277023
-0.206578 0.136906 0.066379
-0.165167 0.116507 0.087359
0.135356 0.117364 0.303879
-0.103330 0.117502 0.125930
-0.194190 0.116271 0.055777
0.207631 0.085635 0.333234
0.016952 0.153198 0.223559
0.003762 0.117890 0.195069
-0.034085 0.117967 0.166376
-0.069927 0.117720 0.139900
0.075633 0.146823 0.259331
0.204734 0.109037 0.332905
-0.210375 0.139071 0.035140
0.184110 0.117286 0.314754
0.134886 0.116924 0.277644
-0.104208 0.117465 0.097221
0.211597 0.135728 0.332970
-0.015517 0.116519 0.160445
-0.166778 0.116315 0.046225
0.087715 0.117257 0.233637
-0.136651 0.117111 0.067713
0.044291 0.117855 0.201402
-0.034544 0.118010 0.143354
-0.168343 0.101962 0.024290
0.002874 0.117938 0.155010
-0.070838 0.117544 0.098647
-0.133228 0.144358 0.058776
0.169789 0.118006 0.268992
0.087167 0.117054 0.207931
-0.195952 0.115907 -0.004186
-0.210456 0.139211 -0.004484
-0.035519 0.117790 0.115964
0.056075 0.121372 0.185186
-0.137753 0.117252 0.035768
0.183004 0.116792 0.269645
0.133604 0.116863 0.228442
-0.209651 0.139246 -0.019673
-0.105971 0.117703 0.046331
-0.066263 0.134808 0.079255
0.086439 0.117549 0.177954
-0.072471 0.117885 0.060882
-0.138584 0.117012 0.007147
0.042132 0.117574 0.139254
0.202281 0.142858 0.263230
0.001782 0.118180 0.106804
-0.209913 0.139067 -0.044056
-0.196530 0.115602 -0.044345
-0.168768 0.116529 -0.022817
0.182437 0.116006 0.227523
-0.073089 0.117741 0.038644
0.132151 0.116617 0.188124
-0.107238 0.117459 0.006155
0.140516 0.148889 0.202708
0.085555 0.117740 0.147944
0.022221 0.139649 0.103959
-0.097386 0.147551 0.015580
-0.169252 0.116456 -0.053937
-0.037453 0.117749 0.045933
0.000393 0.117757 0.066363
-0.210069 0.139414 -0.083976
-0.150198 0.146224 -0.034937
-0.074170 0.117550 0.000622
-0.175331 0.101573 -0.084471
0.084636 0.117676 0.117661
0.181163 0.116217 0.185154
0.130703 0.116764 0.147787
-0.139955 0.117117 -0.053002
0.040780 0.117585 0.080936
-0.108480 0.117460 -0.034161
-0.198211 0.115842 -0.104481
-0.016931 0.131935 0.037420
0.084729 0.152566 0.118794
-0.211208 0.149528 -0.106444
-0.210224 0.139580 -0.113674
-0.170262 0.116432 -0.095010
0.203225 0.145001 0.191939
0.172348 0.098300 0.145872
-0.000777 0.117917 0.026107
0.083542 0.117435 0.087437
-0.039055 0.117533 -0.004524
-0.140967 0.117148 -0.085372
-0.109260 0.117403 -0.063201
-0.075400 0.117667 -0.040380
0.052946 0.128343 0.057135
0.179668 0.116162 0.138445
0.129031 0.116877 0.094384
-0.210214 0.139806 -0.153695
0.082341 0.117608 0.057315
-0.098931 0.142801 -0.073225
0.038668 0.117473 0.018254
-0.199706 0.116273 -0.164721
-0.171416 0.116658 -0.142998
-0.001900 0.117347 -0.014188
-0.141707 0.117215 -0.123765
-0.040214 0.117402 -0.047069
-0.110081 0.117457 -0.103677
-0.076434 0.117594 -0.078243
-0.027567 0.127443 -0.036484
-0.203872 0.134283 -0.177800
0.081416 0.117343 0.027077
-0.210427 0.140208 -0.193329
-0.134329 0.151104 -0.134223
0.127094 0.116991 0.044773
-0.002975 0.117419 -0.053969
0.177607 0.116401 0.078334
-0.172443 0.116456 -0.184428
0.126835 0.155728 0.058099
-0.209230 -0.151212 -0.346807
-0.111089 0.117575 -0.143680
-0.077338 0.117588 -0.119312
-0.041397 0.118040 -0.093253
0.080664 0.117607 -0.003197
-0.142944 0.117371 -0.173589
-0.180895 -0.152059 -0.333285
0.037125 0.117548 -0.039977
-0.190052 -0.130061 -0.333505
-0.201510 0.115820 -0.225107
0.208188 0.155062 0.101037
0.094751 0.142823 0.010529
0.126414 0.117110 0.018495
0.045676 0.150346 -0.034832
-0.189679 -0.089168 -0.333718
-0.004173 0.117295 -0.093703
-0.170910 -0.111554 -0.333005
0.079903 0.117463 -0.033369
-0.209236 -0.151395 -0.386897
-0.208727 -0.070569 -0.346944
-0.208797 -0.110528 -0.367108
-0.143760 0.117137 -0.205361
-0.210738 0.145405 -0.246876
-0.093697 0.101070 -0.179138
-0.210432 0.140147 -0.253665
0.175933 0.116508 0.027214
-0.141976 -0.129157 -0.332873
-0.161198 0.130333 -0.224223
-0.189952 -0.048337 -0.333961
0.013273 0.142972 -0.085770
-0.112556 0.117569 -0.194878
0.036257 0.117306 -0.081600
-0.121692 -0.149976 -0.333232
-0.170972 -0.070498 -0.333515
-0.042798 0.117753 -0.143881
-0.208953 -0.030789 -0.346492
-0.061480 0.143469 -0.149160
-0.174478 0.116547 -0.253463
0.149826 0.123964 -0.004173
-0.079105 0.117285 -0.179740
-0.196726 -0.157176 -0.408817
-0.144609 0.117198 -0.234203
-0.209010 -0.131669 -0.406791
-0.208741 -0.050610 -0.367018
-0.201614 0.004937 -0.335047
0.207906 0.139278 0.038052
-0.203173 0.115903 -0.285019
0.124894 0.117162 -0.035330
-0.121573 -0.109962 -0.332628
-0.005268 0.117087 -0.134075
-0.171362 -0.029022 -0.332921
-0.209158 -0.152463 -0.426963
-0.208516 -0.071091 -0.387037
-0.141953 -0.068538 -0.332934
0.078729 0.117447 -0.076423
0.175175 0.116734 -0.005664
-0.209177 0.027919 -0.345506
-0.208935 -0.091375 -0.406859
-0.185820 -0.055678 -0.369706
-0.113824 0.117794 -0.234996
-0.181266 0.028098 -0.332042
-0.208615 0.008246 -0.366365
-0.208481 -0.031180 -0.386705
-0.142516 -0.029658 -0.332566
-0.208888 -0.111972 -0.426692
-0.162572 0.008963 -0.332338
-0.209116 0.066510 -0.344444
-0.122094 -0.048089 -0.332567
-0.210426 0.137001 -0.313825
0.077849 0.117675 -0.101916
-0.044383 0.117577 -0.194817
-0.208482 -0.051906 -0.406486
0.116181 0.155789 -0.056975
-0.181632 0.118568 -0.304382
-0.154978 -0.103021 -0.392607
0.073321 0.142956 -0.098408
0.034589 0.117519 -0.139610
-0.176189 0.117010 -0.305007
-0.006672 0.117146 -0.174419
0.123907 0.117285 -0.075491
-0.208954 0.046990 -0.365433
0.000765 0.137433 -0.159491
-0.146314 0.117410 -0.283418
-0.198863 0.107592 -0.331112
-0.114629 0.117888 -0.264308
-0.122618 -0.008544 -0.332265
-0.081146 0.117407 -0.240073
-0.178262 0.085275 -0.332105
-0.143529 0.030244 -0.331834
-0.073615 0.154577 -0.217731
-0.208900 0.027341 -0.385986
-0.162670 0.066729 -0.331136
-0.208792 -0.012102 -0.406424
0.173983 0.116522 -0.052150
-0.210666 0.147390 -0.333901
-0.200588 0.017210 -0.391641
-0.208530 -0.032290 -0.426417
0.076986 0.117791 -0.131958
-0.209972 0.121434 -0.352949
0.174183 0.090238 -0.074999
-0.209981 0.126425 -0.354252
-0.208541 0.106180 -0.364679
-0.208938 0.066428 -0.385000
0.205790 0.148037 -0.030485
0.173426 0.116845 -0.075157
0.123109 0.117067 -0.115825
-0.208905 0.006926 -0.425947
-0.150529 0.107164 -0.332215
-0.138758 0.086787 -0.333131
-0.123151 0.070032 -0.331916
-0.113735 0.137248 -0.292374
-0.116217 0.118780 -0.304389
-0.082319 0.118035 -0.281136
0.076100 0.117850 -0.162266
-0.210662 0.147367 -0.374390
0.032255 0.116791 -0.202233
-0.008994 0.117053 -0.234410
-0.209099 0.045967 -0.425218
-0.047121 0.117624 -0.264018
-0.210286 0.126486 -0.394429
-0.131504 -0.033034 -0.410140
-0.208841 0.105843 -0.404846
-0.195821 0.072126 -0.410718
-0.148152 0.134810 -0.350533
-0.209041 0.085690 -0.425180
0.075251 0.117513 -0.192912
-0.210545 0.146995 -0.404634
-0.083682 0.118301 -0.318690
0.121579 0.116859 -0.165204
0.140775 0.125981 -0.146601
0.001363 0.135148 -0.250887
0.061024 0.143635 -0.201754
-0.210489 0.125618 -0.424548
0.171930 0.116658 -0.135731
-0.048331 0.117728 -0.302918
-0.009837 0.117366 -0.274237
0.207801 0.143814 -0.099960
-0.040682 0.139243 -0.295539
-0.209962 0.146959 -0.426966
0.074222 0.117568 -0.223214
0.120605 0.117110 -0.192292
0.030366 0.117207 -0.260376
0.171234 0.116277 -0.163458
0.134333 -0.151718 -0.333806
0.073270 0.117530 -0.253457
-0.107653 0.106536 -0.402090
0.119150 -0.108080 -0.333761
-0.049954 0.118023 -0.353930
-0.011575 0.117750 -0.326346
0.113689 -0.129926 -0.350714
0.134999 -0.128326 -0.333624
0.143241 0.149400 -0.198970
0.119505 0.116811 -0.232534
0.029217 0.117528 -0.301502
-0.132653 0.145041 -0.421743
0.169788 0.116141 -0.205493
-0.060317 0.139598 -0.370109
0.119204 -0.067625 -0.333936
0.134975 -0.086793 -0.333506
0.072127 0.117830 -0.283301
0.204242 0.145799 -0.173640
0.184335 -0.153725 -0.333797
0.167743 -0.127424 -0.333389
0.113694 -0.148906 -0.391247
-0.003026 0.141000 -0.339912
0.113474 -0.089603 -0.368748
0.134884 -0.050434 -0.333463
-0.012622 0.117584 -0.367072
0.113570 -0.049194 -0.350787
0.118613 -0.018393 -0.333551
0.027952 0.117718 -0.338876
0.169353 0.116251 -0.233525
0.118676 0.117418 -0.272768
0.184845 -0.110285 -0.333224
0.113082 -0.107833 -0.390981
0.064848 0.153225 -0.300629
0.071343 0.117956 -0.313526
0.113416 -0.149642 -0.413342
0.167779 -0.071049 -0.333408
-0.068938 0.127169 -0.423425
0.127613 0.154390 -0.262557
0.113288 -0.049324 -0.373058
0.134229 0.012027 -0.333041
0.160012 -0.033354 -0.335970
0.075506 0.077924 -0.349473
0.117878 0.051515 -0.332146
0.025881 0.087261 -0.385596
0.201382 0.130726 -0.232245
0.112614 0.029611 -0.349405
0.168369 0.116596 -0.265860
0.070258 0.118394 -0.343641
0.112915 -0.009772 -0.372729
0.150770 -0.101496 -0.389659
0.026574 0.117503 -0.380719
0.112911 -0.091070 -0.417061
0.180051 0.090211 -0.277345
0.117311 0.118287 -0.313260
0.159497 0.007510 -0.335494
0.049541 0.133373 -0.360437
0.112936 -0.068420 -0.412901
0.112790 -0.027861 -0.394950
0.184673 -0.011139 -0.332872
0.112728 0.068647 -0.353148
0.196965 -0.143822 -0.395123
0.134541 0.086784 -0.331567
0.113257 0.090293 -0.348554
0.167688 0.117456 -0.294134
0.003561 0.136595 -0.411266
0.112331 0.051240 -0.371474
0.112721 -0.028389 -0.417204
0.189196 -0.021807 -0.355086
0.112293 0.029276 -0.389688
0.193703 0.025878 -0.334930
0.184313 0.049038 -0.332102
0.151155 0.106883 -0.331738
0.167690 0.088815 -0.331688
0.112511 0.011199 -0.412286
0.068829 0.118344 -0.396045
0.125520 0.139520 -0.345384
0.112512 0.068529 -0.393652
0.159455 -0.048019 -0.414404
0.189755 0.086262 -0.333104
0.113077 0.109327 -0.388999
0.206328 0.143164 -0.303127
0.112206 0.068769 -0.416306
0.204884 0.106469 -0.332336
0.112533 0.090775 -0.411522
0.080463 0.141178 -0.423271
0.197293 0.118158 -0.356169
0.202355 0.009454 -0.405460
0.182044 0.082317 -0.412885
0.149548 0.144581 -0.416060
0.210741 0.140068 -0.430326
