-0.181945 0.083935 -0.330155
-0.145426 0.083022 -0.331280
-0.191240 0.079243 -0.330201
-0.175973 0.067202 -0.329693
-0.151168 0.071129 -0.330118
-0.155574 0.095291 -0.330532
-0.171661 0.088207 -0.330893
-0.163777 0.072369 -0.331178
-0.166190 0.102907 -0.330702
-0.132993 0.061112 -0.331216
-0.172640 0.078123 -0.331142
-0.163575 0.053451 -0.330606
-0.208352 -0.020342 -0.386296
-0.208055 -0.024525 -0.423145
-0.208858 -0.008211 -0.422033
-0.208043 0.024473 -0.405152
-0.208315 -0.013788 -0.402200
-0.208053 -0.049212 -0.408963
-0.207734 -0.031439 -0.428909
-0.207855 0.001668 -0.387777
-0.207688 -0.032573 -0.392363
-0.207840 -0.000954 -0.399161
-0.207661 -0.040191 -0.400325
-0.208166 0.004694 -0.410837
-0.208205 -0.000803 -0.417808
-0.208175 0.014986 -0.427848
-0.207869 -0.009342 -0.414098
-0.207965 -0.041467 -0.422529
-0.208708 0.012203 -0.405110
-0.208366 -0.036959 -0.414420
-0.208366 -0.029489 -0.406214
-0.208596 -0.022403 -0.397976
-0.207995 0.000157 -0.425684
-0.208334 0.011153 -0.395417
-0.207609 -0.015628 -0.428533
-0.208330 -0.017201 -0.417938
-0.207231 -0.005692 -0.432243
-0.208213 0.015685 -0.414016
-0.208345 0.008520 -0.420664
-0.208385 -0.009647 -0.392890
-0.208357 0.021868 -0.419394
-0.207961 -0.019109 -0.409485
-0.208549 -0.004129 -0.407602
-0.208255 -0.028715 -0.415756
0.182981 0.119302 -0.017805
0.184879 0.119012 -0.081352
0.204472 0.119179 -0.094055
0.172533 0.118462 -0.064858
0.202541 0.119190 -0.046145
0.186393 0.119497 -0.066591
0.186392 0.119195 -0.101031
0.197318 0.118963 -0.024400
0.170618 0.118505 -0.029194
0.179823 0.118673 -0.058350
0.164767 0.119337 -0.047010
0.156135 0.118794 -0.063089
0.196952 0.119230 -0.082967
0.198105 0.119044 -0.108883
0.162085 0.119047 -0.076976
0.203984 0.119181 -0.077584
0.180219 0.119194 -0.072337
0.191566 0.119286 -0.074234
0.173199 0.119028 -0.051110
0.179874 0.119914 -0.039547
0.177259 0.118882 -0.109315
0.193766 0.119196 -0.044651
0.166563 0.119090 -0.098252
0.172368 0.118552 -0.080016
0.190843 0.119314 -0.122177
0.197881 0.118457 -0.066953
0.190504 0.118818 -0.091821
0.189019 0.119139 -0.035429
0.178936 0.118605 -0.089532
0.208235 0.119248 -0.059581
0.186582 0.118920 -0.050943
0.192727 0.118892 -0.058123
-0.116927 0.147720 -0.300149
-0.123256 0.146706 -0.346374
-0.005444 0.149002 -0.352992
-0.179158 0.147636 -0.337837
-0.016430 0.148167 -0.318349
-0.111432 0.149737 -0.331288
-0.123662 0.147734 -0.363487
-0.072564 0.147534 -0.304259
-0.188870 0.147247 -0.302342
-0.155674 0.147717 -0.327624
-0.197485 0.147840 -0.317673
-0.204705 0.147582 -0.329204
-0.059512 0.148416 -0.352735
-0.037611 0.147221 -0.359785
-0.196459 0.147498 -0.345028
-0.033346 0.148135 -0.338943
-0.142544 0.148553 -0.338704
-0.085077 0.147713 -0.340843
-0.176966 0.147807 -0.319854
-0.152364 0.148598 -0.309784
-0.166974 0.148294 -0.369671
-0.048224 0.148213 -0.315159
-0.183600 0.147646 -0.356341
-0.163914 0.146844 -0.346471
-0.074631 0.147740 -0.366906
-0.057579 0.148220 -0.331102
-0.097234 0.146735 -0.354857
-0.103690 0.147585 -0.314510
-0.145679 0.147485 -0.357841
0.011306 0.149665 -0.332159
-0.130158 0.147881 -0.320665
-0.086776 0.148153 -0.323059
-0.195084 -0.037743 -0.428057
-0.180518 -0.027980 -0.423466
-0.199089 -0.011510 -0.424441
-0.184491 0.084388 -0.426846
-0.179074 0.001223 -0.423760
-0.172722 0.007215 -0.430126
-0.160212 -0.063038 -0.419979
-0.201780 0.041329 -0.426453
-0.172486 -0.045015 -0.429448
-0.204318 0.011093 -0.420374
-0.186983 -0.079401 -0.421823
-0.115512 0.015102 -0.420559
-0.199204 0.066206 -0.425115
-0.168426 0.057179 -0.421453
-0.119200 -0.020739 -0.428555
-0.199111 -0.040924 -0.422521
-0.134159 0.044569 -0.426156
-0.199301 -0.061246 -0.420286
-0.126822 -0.057221 -0.423790
-0.171311 -0.013724 -0.426140
-0.193580 0.005632 -0.423829
-0.174714 0.029381 -0.429897
-0.152630 0.022299 -0.420398
-0.140556 -0.027592 -0.419966
-0.201500 0.031493 -0.423607
-0.190977 0.023761 -0.423313
-0.188867 0.050975 -0.419785
-0.195379 -0.011834 -0.425952
-0.149241 0.077468 -0.420345
-0.199201 -0.020207 -0.419983
-0.142464 0.000929 -0.423503
-0.186633 -0.055762 -0.425192
-0.112543 -0.070715 -0.428688
-0.147259 -0.068588 -0.428138
-0.050821 -0.045344 -0.425722
-0.190312 -0.008424 -0.425510
-0.070357 -0.062188 -0.426656
-0.142114 -0.114992 -0.426678
-0.160897 -0.089889 -0.426785
-0.126565 -0.026962 -0.428140
-0.201218 -0.085579 -0.427280
-0.182909 -0.053468 -0.426590
-0.188361 -0.102437 -0.426707
-0.202534 -0.025602 -0.425684
-0.110860 -0.039657 -0.427884
-0.067273 -0.017519 -0.425771
-0.204352 -0.058660 -0.427047
-0.076011 -0.102754 -0.426617
-0.170637 -0.019633 -0.426403
-0.107085 -0.093993 -0.427180
-0.195257 -0.071205 -0.426924
-0.176393 -0.074472 -0.426046
-0.180876 -0.035553 -0.426806
-0.080938 -0.034386 -0.427826
-0.197139 -0.042851 -0.427455
-0.170886 -0.059682 -0.426472
-0.097227 -0.052858 -0.427354
-0.100419 -0.019147 -0.426808
-0.147918 -0.033044 -0.426677
-0.133737 -0.050746 -0.428085
-0.153130 -0.010532 -0.426711
-0.040653 -0.070957 -0.427357
-0.160140 -0.043633 -0.427299
-0.133040 -0.081694 -0.426900
0.094198 0.118328 -0.111365
0.095400 0.117959 -0.149443
0.131256 0.118426 -0.156379
0.076203 0.118074 -0.138532
0.127438 0.118441 -0.125101
0.097612 0.119229 -0.137983
0.095990 0.118206 -0.162682
0.112660 0.118152 -0.114257
0.074466 0.118009 -0.115168
0.086587 0.118380 -0.133685
0.068131 0.118518 -0.124993
0.063415 0.118477 -0.135174
0.115659 0.118482 -0.151283
0.119710 0.118393 -0.164236
0.066725 0.118632 -0.146653
0.125888 0.118614 -0.144097
0.088469 0.118514 -0.143354
0.106730 0.118311 -0.143722
0.078506 0.118407 -0.127561
0.086610 0.118627 -0.120226
0.082685 0.118683 -0.168337
0.115673 0.118136 -0.124981
0.072735 0.118240 -0.159114
0.079347 0.118021 -0.148171
0.107616 0.118377 -0.172461
0.116165 0.118355 -0.137008
0.104882 0.117482 -0.156160
0.101382 0.118211 -0.119983
0.086694 0.118180 -0.155916
0.136210 0.118637 -0.135205
0.094114 0.118346 -0.127876
0.106054 0.117975 -0.131779
-0.200167 0.137275 -0.338547
-0.185566 0.130360 -0.411761
-0.199638 0.140949 -0.386339
-0.163196 0.146343 -0.361517
-0.187284 0.152157 -0.387616
-0.155139 0.150620 -0.341433
-0.174900 0.119157 -0.389831
-0.204575 0.146591 -0.341112
-0.168127 0.127538 -0.333415
-0.200595 0.149929 -0.357759
-0.191851 0.120028 -0.343636
-0.118339 0.153861 -0.383666
-0.198127 0.145312 -0.381842
-0.180996 0.149257 -0.372350
-0.123373 0.146751 -0.345929
-0.201110 0.132973 -0.398158
-0.136449 0.149442 -0.365252
-0.196931 0.117226 -0.374401
-0.145824 0.120343 -0.360073
-0.181788 0.152409 -0.347296
-0.200719 0.146387 -0.409576
-0.188264 0.148512 -0.350304
-0.163446 0.153597 -0.411805
-0.138355 0.133839 -0.394638
-0.207093 0.147754 -0.386699
-0.193020 0.150530 -0.363280
-0.182039 0.148241 -0.401842
-0.194093 0.152221 -0.325206
-0.159334 0.147238 -0.386042
-0.208108 0.143192 -0.367407
-0.157975 0.150022 -0.372937
-0.184675 0.127192 -0.362340
0.166823 0.121764 -0.035377
0.182482 0.124188 -0.157276
0.167033 0.123594 -0.125008
0.200147 0.141663 -0.082956
0.180213 0.124056 -0.109426
0.207127 0.129166 -0.041603
0.188669 0.123249 -0.120512
0.151173 0.126063 -0.049932
0.198874 0.124268 -0.027571
0.157355 0.125627 -0.070695
0.185432 0.126511 -0.044523
0.202572 0.131756 -0.111061
0.169246 0.130368 -0.109595
0.192292 0.128948 -0.094026
0.200383 0.126870 -0.067684
0.143937 0.125891 -0.138521
0.206910 0.129060 -0.087300
0.158809 0.128925 -0.097110
0.192700 0.121576 -0.082101
0.195421 0.124489 -0.053998
0.163039 0.122178 -0.160633
0.178526 0.129427 -0.062943
0.201140 0.128541 -0.151050
0.203024 0.124765 -0.133505
0.141222 0.123488 -0.114974
0.173797 0.122727 -0.088309
0.187282 0.126846 -0.135791
0.180824 0.124653 -0.015307
0.200325 0.135482 -0.123178
0.129546 0.124111 -0.080419
0.201421 0.124189 -0.101850
0.180380 0.123342 -0.070584
-0.210101 0.128801 -0.321400
-0.210248 0.124938 -0.376217
-0.210579 0.132342 -0.378839
-0.209858 0.151616 -0.346906
-0.210104 0.130297 -0.340936
-0.209899 0.116941 -0.352617
-0.209706 0.121681 -0.387797
-0.209355 0.138988 -0.324290
-0.209602 0.121102 -0.328028
-0.209343 0.139792 -0.339957
-0.209515 0.117668 -0.339332
-0.210033 0.139842 -0.356810
-0.209632 0.137959 -0.368097
-0.209887 0.146592 -0.392202
-0.209778 0.132663 -0.362045
-0.209227 0.118058 -0.375780
-0.210153 0.143864 -0.349917
-0.209998 0.118432 -0.364643
-0.209971 0.121467 -0.347210
-0.210257 0.125818 -0.335620
-0.209324 0.137720 -0.387927
-0.209960 0.146608 -0.333255
-0.209441 0.129099 -0.392431
-0.210344 0.127999 -0.368345
-0.208989 0.135063 -0.402928
-0.209829 0.148802 -0.361065
-0.209760 0.142403 -0.376231
-0.210097 0.133300 -0.331219
-0.209884 0.150793 -0.371672
-0.209466 0.128264 -0.352141
-0.210093 0.134899 -0.348889
-0.209754 0.123385 -0.359790
-0.208455 0.115737 -0.341014
-0.208612 0.111267 -0.389397
-0.209204 0.120829 -0.391328
-0.208190 0.138461 -0.362755
-0.208548 0.118713 -0.357937
-0.208617 0.098502 -0.367733
-0.208471 0.106537 -0.399717
-0.207505 0.127162 -0.342347
-0.207890 0.106333 -0.345967
-0.207598 0.127804 -0.356296
-0.207973 0.099741 -0.355866
-0.207883 0.128950 -0.371653
-0.208011 0.125714 -0.381847
-0.208306 0.134805 -0.403748
-0.207640 0.121115 -0.375937
-0.207809 0.102807 -0.388421
-0.208155 0.132113 -0.365378
-0.208750 0.102342 -0.378336
-0.208482 0.107060 -0.363008
-0.208913 0.112539 -0.353307
-0.207599 0.126830 -0.399119
-0.208450 0.133762 -0.350519
-0.207917 0.116214 -0.403284
-0.208703 0.115838 -0.382066
-0.207271 0.123631 -0.412377
-0.208477 0.136670 -0.375309
-0.207872 0.130887 -0.389207
-0.208722 0.121084 -0.348587
-0.208241 0.138276 -0.385456
-0.208012 0.116485 -0.367702
-0.208690 0.123772 -0.365053
-0.208427 0.109355 -0.374833
-0.207665 0.069316 -0.366991
-0.208040 0.064188 -0.413640
-0.208532 0.078022 -0.415426
-0.207747 0.104202 -0.387706
-0.208278 0.073921 -0.382481
-0.207514 0.044510 -0.392590
-0.207553 0.058562 -0.424484
-0.207072 0.085939 -0.368452
-0.207310 0.057824 -0.371901
-0.207178 0.085675 -0.380206
-0.207161 0.050663 -0.380954
-0.207681 0.088851 -0.396437
-0.207658 0.083954 -0.406833
-0.207888 0.097790 -0.426278
-0.207255 0.077428 -0.400618
-0.207277 0.051135 -0.413139
-0.208070 0.094599 -0.388810
-0.208218 0.053298 -0.402407
-0.207854 0.059497 -0.388102
-0.208080 0.065701 -0.378564
-0.207446 0.085506 -0.421426
-0.207834 0.095511 -0.375327
-0.207327 0.070737 -0.426367
-0.208042 0.070700 -0.406783
-0.206795 0.080374 -0.433493
-0.207911 0.100142 -0.400637
-0.207636 0.092132 -0.412462
-0.207965 0.076980 -0.374242
-0.208085 0.103476 -0.409757
-0.207508 0.070231 -0.392821
-0.208165 0.081825 -0.390031
-0.207897 0.061712 -0.401345
0.179872 0.143618 0.006726
0.193536 0.142325 -0.089153
0.172139 0.145765 -0.064377
0.186594 0.144242 -0.029551
0.187562 0.141378 -0.051532
0.200257 0.144569 0.001182
0.197801 0.125145 -0.057982
0.159641 0.144378 0.005991
0.203509 0.140038 0.011583
0.158514 0.148293 -0.017216
0.200553 0.126093 -0.007219
0.201020 0.141668 -0.059263
0.162860 0.144112 -0.049049
0.187056 0.146828 -0.039798
0.201160 0.139109 -0.015208
0.151009 0.147161 -0.071174
0.201942 0.143285 -0.034364
0.180216 0.131860 -0.038264
0.203686 0.132505 -0.030567
0.197990 0.145811 -0.004006
0.174364 0.143009 -0.088687
0.179214 0.144796 -0.008938
0.203466 0.139115 -0.084024
0.203620 0.137955 -0.067902
0.146312 0.146549 -0.058306
0.176241 0.145345 -0.029195
0.184945 0.143538 -0.071487
0.182892 0.146762 0.020887
0.191432 0.143033 -0.061251
0.148818 0.147997 -0.026212
0.199523 0.140987 -0.047206
0.193712 0.141262 -0.020465
0.187677 0.118859 -0.032489
0.189562 0.118814 -0.107367
0.209862 0.119140 -0.119968
0.177377 0.120870 -0.088558
0.208134 0.119268 -0.067403
0.191195 0.119252 -0.089806
0.191614 0.119484 -0.129475
0.203138 0.118528 -0.040619
0.172132 0.118916 -0.046263
0.184762 0.118147 -0.080739
0.166153 0.119931 -0.068372
0.151831 0.118337 -0.087107
0.203052 0.119105 -0.107839
0.203597 0.118767 -0.137859
0.162128 0.118324 -0.101982
0.208216 0.119552 -0.104445
0.184691 0.119751 -0.096063
0.196080 0.119713 -0.099538
0.176725 0.118439 -0.073636
0.185377 0.119955 -0.059548
0.182122 0.118554 -0.138599
0.199116 0.119436 -0.065116
0.168441 0.118298 -0.125867
0.175811 0.117584 -0.105508
0.196231 0.118816 -0.153675
0.203832 0.118248 -0.091463
0.195476 0.118175 -0.118694
0.194876 0.118500 -0.053914
0.184689 0.119726 -0.115465
0.214541 0.119747 -0.081895
0.192176 0.118318 -0.073573
0.199123 0.118772 -0.080973
0.147313 0.118449 -0.094903
0.148442 0.118028 -0.135383
0.186311 0.118641 -0.142994
0.126956 0.118295 -0.124160
0.182616 0.118591 -0.109977
0.151070 0.119389 -0.123607
0.148933 0.118288 -0.149671
0.167770 0.118356 -0.098153
0.124677 0.118020 -0.099057
0.138738 0.118359 -0.118857
0.118108 0.118585 -0.109764
0.112435 0.118536 -0.120288
0.170688 0.118665 -0.137704
0.174635 0.118540 -0.151361
0.116095 0.118643 -0.132758
0.180899 0.118693 -0.130069
0.140640 0.118626 -0.128982
0.161070 0.118386 -0.129726
0.129185 0.118468 -0.112639
0.138613 0.118747 -0.104741
0.134121 0.118780 -0.155428
0.170606 0.118397 -0.109532
0.123099 0.118332 -0.145786
0.130805 0.118001 -0.134148
0.162032 0.118470 -0.159822
0.170822 0.118546 -0.122627
0.158583 0.117549 -0.142795
0.155349 0.118331 -0.104348
0.138764 0.118268 -0.142367
0.191495 0.118818 -0.120843
0.146923 0.118459 -0.112705
0.160430 0.118146 -0.116802
-0.132489 -0.005146 -0.430840
-0.162703 -0.006152 -0.429161
-0.059114 0.016709 -0.428182
-0.198616 0.051503 -0.426540
-0.079579 0.001018 -0.429016
-0.157883 -0.045276 -0.428420
-0.173568 -0.023382 -0.428410
-0.142403 0.027904 -0.429694
-0.208142 -0.018874 -0.428462
-0.192429 0.008303 -0.427603
-0.197426 -0.034046 -0.428205
-0.207928 0.032595 -0.426223
-0.124078 0.016429 -0.429497
-0.078601 0.041656 -0.426692
-0.210017 0.003675 -0.428025
-0.088920 -0.031769 -0.428372
-0.181855 0.040445 -0.427822
-0.124040 -0.027419 -0.428928
-0.202211 -0.007598 -0.427888
-0.187840 -0.009431 -0.427201
-0.190726 0.024118 -0.428148
-0.094774 0.023874 -0.429427
-0.203665 0.015252 -0.428216
-0.182773 0.002099 -0.427689
-0.110814 0.006316 -0.427938
-0.114612 0.037519 -0.427965
-0.160051 0.027539 -0.428619
-0.151634 0.009087 -0.429537
-0.162647 0.048799 -0.427564
-0.048204 -0.006462 -0.429000
-0.174089 0.016324 -0.428601
-0.148267 -0.017320 -0.428367
-0.148334 0.105961 -0.332906
-0.154146 0.105859 -0.331055
-0.127093 0.110416 -0.330727
-0.173343 0.124558 -0.331559
-0.133591 0.106594 -0.332205
-0.154216 0.082099 -0.332860
-0.159222 0.097879 -0.331590
-0.148794 0.113462 -0.332558
-0.182193 0.100909 -0.333981
-0.166653 0.107643 -0.331768
-0.173018 0.090363 -0.333661
-0.197091 0.114256 -0.331029
-0.144407 0.108653 -0.331305
-0.133660 0.117693 -0.331710
-0.189397 0.105922 -0.332136
-0.135295 0.092217 -0.332544
-0.163281 0.116968 -0.331730
-0.144184 0.096852 -0.332554
-0.174073 0.105461 -0.332166
-0.164408 0.104208 -0.331954
-0.166795 0.111926 -0.332909
-0.137602 0.110148 -0.332015
-0.178950 0.111873 -0.330465
-0.161433 0.107345 -0.330853
-0.141465 0.106286 -0.333959
-0.143281 0.115900 -0.331244
-0.154801 0.112467 -0.331479
-0.150867 0.109507 -0.332710
-0.153075 0.120373 -0.331326
-0.119850 0.105008 -0.332513
-0.158257 0.109903 -0.331649
-0.150764 0.101158 -0.331194
-0.133003 0.080060 -0.333507
-0.136484 0.083017 -0.330879
-0.123640 0.094894 -0.331021
-0.153586 0.123102 -0.331968
-0.128919 0.085562 -0.332496
-0.138268 0.042811 -0.332398
-0.141039 0.068458 -0.331593
-0.136913 0.102083 -0.333034
-0.164802 0.071196 -0.334245
-0.150303 0.091260 -0.332464
-0.153772 0.056447 -0.332902
-0.175606 0.104697 -0.330831
-0.133321 0.095257 -0.331446
-0.125393 0.113675 -0.333108
-0.169824 0.086483 -0.332098
-0.126882 0.057352 -0.331925
-0.147748 0.111152 -0.332128
-0.132013 0.064904 -0.332171
-0.157398 0.080690 -0.331892
-0.146472 0.079451 -0.331979
-0.146668 0.100960 -0.332928
-0.128579 0.100032 -0.332989
-0.158438 0.096367 -0.330906
-0.143187 0.086601 -0.330515
-0.128866 0.090109 -0.335980
-0.132901 0.109887 -0.331895
-0.139989 0.104114 -0.332080
-0.136410 0.091516 -0.332994
-0.135846 0.118606 -0.331490
-0.122629 0.081139 -0.333571
-0.141119 0.095429 -0.332054
-0.136843 0.073413 -0.331220
-0.122294 0.040468 -0.331910
-0.121188 0.033286 -0.396401
-0.119789 0.062198 -0.391126
-0.123795 0.112586 -0.350439
-0.119873 0.054799 -0.349519
-0.121624 -0.017730 -0.359755
-0.120545 0.012325 -0.410197
-0.122924 0.079998 -0.330742
-0.121963 0.015510 -0.337983
-0.121411 0.076383 -0.340324
-0.121440 -0.007354 -0.344203
-0.120625 0.080931 -0.362543
-0.120084 0.079757 -0.378366
-0.122108 0.097141 -0.412595
-0.120523 0.059704 -0.368344
-0.119213 -0.006143 -0.394792
-0.122235 0.093820 -0.352112
-0.120925 0.002046 -0.373900
-0.120510 0.021049 -0.352965
-0.121878 0.040178 -0.341235
-0.120961 0.076017 -0.406379
-0.122645 0.092782 -0.337710
-0.119496 0.048945 -0.409329
-0.120962 0.043836 -0.381080
-0.120183 0.069066 -0.426369
-0.120743 0.097910 -0.367852
-0.120253 0.087980 -0.392185
-0.122862 0.062171 -0.334994
-0.122692 0.107737 -0.382256
-0.118198 0.044500 -0.359309
-0.121971 0.070083 -0.355086
-0.120847 0.022817 -0.372189
-0.105884 0.147219 -0.268360
-0.087431 0.147842 -0.350642
-0.097815 0.147201 -0.335955
-0.069349 0.146269 -0.303149
-0.092563 0.148284 -0.317404
-0.053498 0.148170 -0.274199
-0.072175 0.147268 -0.320167
-0.127527 0.146750 -0.275470
-0.071965 0.148523 -0.260976
-0.115784 0.147679 -0.290634
-0.086807 0.148055 -0.275809
-0.040661 0.147498 -0.320428
-0.108154 0.146544 -0.325197
-0.082560 0.147352 -0.308252
-0.036686 0.147849 -0.286983
-0.122058 0.147851 -0.334838
-0.043177 0.147404 -0.304315
-0.113111 0.146911 -0.308110
-0.057688 0.147177 -0.287936
-0.072259 0.147923 -0.279804
-0.107291 0.147165 -0.351730
-0.097438 0.146913 -0.284601
-0.067683 0.148470 -0.347389
-0.045326 0.148092 -0.338027
-0.131880 0.147400 -0.319702
-0.097869 0.146750 -0.300529
-0.076727 0.146577 -0.331599
-0.093678 0.146348 -0.258262
-0.062211 0.147517 -0.329698
-0.131098 0.148557 -0.297097
-0.056903 0.147969 -0.311925
-0.083312 0.147834 -0.292926
-0.121460 0.117828 -0.293812
-0.119550 0.117556 -0.330330
-0.081873 0.118018 -0.336957
-0.140684 0.117102 -0.320536
-0.087493 0.117978 -0.306602
-0.117473 0.118652 -0.319984
-0.119201 0.117693 -0.344357
-0.103739 0.117649 -0.296249
-0.142454 0.117600 -0.297695
-0.129163 0.117883 -0.315323
-0.147997 0.117833 -0.308228
-0.155418 0.118303 -0.316633
-0.099371 0.118246 -0.331960
-0.094563 0.117896 -0.345757
-0.150469 0.117869 -0.328409
-0.088176 0.118203 -0.325663
-0.127766 0.117880 -0.324722
-0.108745 0.117838 -0.324910
-0.137414 0.118039 -0.308662
-0.128640 0.118343 -0.302399
-0.133172 0.117898 -0.349887
-0.100407 0.117303 -0.307119
-0.144131 0.117794 -0.340037
-0.136628 0.117178 -0.329044
-0.106583 0.118155 -0.354450
-0.098492 0.118006 -0.318543
-0.110220 0.117532 -0.337321
-0.113696 0.117902 -0.302166
-0.128394 0.117608 -0.337031
-0.077376 0.118278 -0.316488
-0.121127 0.117758 -0.309381
-0.109067 0.117429 -0.313674
-0.077759 0.118200 -0.264461
-0.076234 0.118011 -0.300330
-0.039819 0.118440 -0.306675
-0.095783 0.117886 -0.290456
-0.044498 0.118364 -0.276804
-0.074557 0.119054 -0.289967
-0.076150 0.118157 -0.313578
-0.060299 0.118133 -0.266964
-0.096926 0.117854 -0.268118
-0.085006 0.118253 -0.285738
-0.103136 0.118216 -0.277941
-0.108535 0.118465 -0.286712
-0.056567 0.118510 -0.302028
-0.052028 0.118499 -0.314682
-0.104897 0.118459 -0.298523
-0.045706 0.118556 -0.295194
-0.083898 0.118433 -0.295036
-0.065458 0.118242 -0.295107
-0.093134 0.118403 -0.279605
-0.085062 0.118607 -0.272719
-0.089054 0.118599 -0.318869
-0.056824 0.118038 -0.277290
-0.099051 0.118215 -0.309604
-0.092668 0.117831 -0.299456
-0.064186 0.118501 -0.322581
-0.055883 0.118404 -0.288640
-0.067253 0.117832 -0.307177
-0.070536 0.118217 -0.272710
-0.084893 0.118167 -0.306882
-0.034906 0.118664 -0.286734
-0.077739 0.118251 -0.279682
-0.066253 0.117841 -0.283834
0.095012 0.118220 -0.144182
0.096057 0.117933 -0.183184
0.134105 0.118452 -0.190414
0.075587 0.118056 -0.172006
0.129924 0.118382 -0.158390
0.098505 0.119214 -0.171375
0.096576 0.118185 -0.196870
0.114059 0.118072 -0.147072
0.073726 0.117873 -0.148000
0.086726 0.118301 -0.166933
0.067175 0.118441 -0.158082
0.062037 0.118449 -0.168576
0.117424 0.118513 -0.185316
0.121903 0.118403 -0.198415
0.065712 0.118593 -0.180484
0.128189 0.118523 -0.177806
0.088667 0.118515 -0.176929
0.108043 0.118246 -0.177375
0.078016 0.118380 -0.160730
0.086794 0.118602 -0.153254
0.082407 0.118684 -0.202729
0.117667 0.118103 -0.158061
0.072111 0.118207 -0.193098
0.079207 0.117979 -0.181948
0.109147 0.118316 -0.206663
0.118014 0.118407 -0.170618
0.105937 0.117372 -0.190218
0.102472 0.118104 -0.153166
0.086870 0.118140 -0.190030
0.139261 0.118645 -0.168764
0.094606 0.118267 -0.161079
0.107377 0.117957 -0.165056
-0.117930 0.147241 -0.349525
-0.124327 0.146630 -0.393026
-0.002564 0.148769 -0.400764
-0.181626 0.147318 -0.384307
-0.015045 0.147879 -0.365514
-0.112480 0.149329 -0.378194
-0.124543 0.147384 -0.411374
-0.072801 0.147536 -0.352894
-0.191302 0.146936 -0.350237
-0.157396 0.147787 -0.374433
-0.199900 0.147943 -0.364783
-0.207543 0.147115 -0.375512
-0.059074 0.147819 -0.400135
-0.035640 0.146846 -0.407303
-0.199015 0.147118 -0.392207
-0.031786 0.147929 -0.386594
-0.144208 0.148048 -0.385353
-0.084926 0.147774 -0.388103
-0.179212 0.147427 -0.366368
-0.154575 0.148281 -0.357245
-0.168327 0.147811 -0.416883
-0.047166 0.147650 -0.363121
-0.185932 0.147165 -0.403132
-0.165682 0.146255 -0.393430
-0.072948 0.147145 -0.414228
-0.057442 0.148181 -0.378392
-0.098430 0.146150 -0.402096
-0.104980 0.147109 -0.362620
-0.147140 0.147034 -0.404883
0.014971 0.149277 -0.379670
-0.131970 0.147878 -0.367251
-0.087767 0.147891 -0.370354
0.056324 0.118293 -0.181666
0.057096 0.117669 -0.221099
0.100353 0.118436 -0.228230
0.034537 0.118075 -0.210099
0.095691 0.118326 -0.195897
0.060048 0.119363 -0.209124
0.057611 0.118104 -0.235183
0.077584 0.118109 -0.184792
0.032216 0.117843 -0.185227
0.046686 0.118268 -0.204983
0.025473 0.118390 -0.195741
0.020583 0.118516 -0.205831
0.081129 0.118424 -0.223381
0.086890 0.118402 -0.235975
0.024393 0.118608 -0.218545
0.093189 0.118452 -0.215374
0.048771 0.118449 -0.214742
0.070760 0.118074 -0.215453
0.037069 0.118490 -0.198399
0.046814 0.118629 -0.190404
0.041715 0.118859 -0.240985
0.082225 0.118035 -0.195350
0.031019 0.118312 -0.231028
0.038805 0.117834 -0.220040
0.072250 0.118335 -0.244225
0.081622 0.118454 -0.208037
0.068075 0.117371 -0.228311
0.064387 0.118039 -0.190844
0.046983 0.118223 -0.228319
0.106690 0.118638 -0.206929
0.055280 0.118273 -0.198468
0.070142 0.117929 -0.202459
0.004442 0.118301 -0.207723
0.006020 0.117659 -0.247974
0.047331 0.118354 -0.254503
-0.015860 0.117934 -0.236873
0.042790 0.118282 -0.221983
0.008256 0.119150 -0.235957
0.006205 0.118115 -0.261831
0.025113 0.118039 -0.210867
-0.017731 0.117779 -0.211737
-0.003987 0.118240 -0.231838
-0.024798 0.118280 -0.222557
-0.029743 0.118442 -0.232621
0.028695 0.118394 -0.249613
0.033875 0.118355 -0.262382
-0.025942 0.118581 -0.245453
0.040688 0.118495 -0.241882
-0.002278 0.118383 -0.241778
0.018657 0.118071 -0.242033
-0.012999 0.118448 -0.224965
-0.003960 0.118601 -0.216867
-0.008691 0.118744 -0.267658
0.029251 0.117990 -0.221996
-0.019500 0.118232 -0.257753
-0.012235 0.117821 -0.247020
0.019730 0.118312 -0.270636
0.029330 0.118327 -0.234547
0.016433 0.117494 -0.255070
0.012666 0.118101 -0.216947
-0.003805 0.118189 -0.254939
0.053158 0.118638 -0.232916
0.004332 0.118237 -0.224985
0.017948 0.117845 -0.229088
-0.125401 0.036323 -0.430193
-0.157801 0.035401 -0.428751
-0.045208 0.057121 -0.427515
-0.198208 0.088019 -0.426009
-0.066992 0.041914 -0.428608
-0.152264 -0.003581 -0.428123
-0.169609 0.018410 -0.427915
-0.133462 0.067434 -0.429260
-0.209227 0.022695 -0.428069
-0.190950 0.048279 -0.427493
-0.197485 0.007851 -0.427887
-0.210219 0.071617 -0.426038
-0.114382 0.055585 -0.429135
-0.066432 0.079474 -0.426259
-0.212043 0.044438 -0.427673
-0.077803 0.010243 -0.428043
-0.178747 0.078011 -0.427449
-0.114731 0.014287 -0.428362
-0.202252 0.034266 -0.427521
-0.185772 0.031723 -0.426918
-0.189188 0.063589 -0.427330
-0.083841 0.062626 -0.429089
-0.204162 0.055251 -0.427901
-0.180163 0.043383 -0.427494
-0.100639 0.046025 -0.427590
-0.104265 0.075678 -0.427316
-0.153718 0.065591 -0.428254
-0.144638 0.049938 -0.429314
-0.158379 0.085335 -0.426984
-0.033469 0.034747 -0.428460
-0.170085 0.056148 -0.428271
-0.141248 0.024449 -0.427965
-0.031155 0.118167 -0.235546
-0.029654 0.117640 -0.275472
0.011627 0.118342 -0.281641
-0.051419 0.117877 -0.265014
0.007039 0.118210 -0.250472
-0.027120 0.119107 -0.264071
-0.029390 0.117984 -0.288678
-0.010584 0.117998 -0.238889
-0.053375 0.117735 -0.239783
-0.039606 0.118121 -0.260052
-0.060236 0.118286 -0.250804
-0.065129 0.118386 -0.260884
-0.006946 0.118373 -0.277220
-0.001928 0.118272 -0.289264
-0.061475 0.118457 -0.273343
0.004905 0.118335 -0.269571
-0.037927 0.118315 -0.269803
-0.017035 0.117972 -0.269852
-0.048752 0.118325 -0.253428
-0.039654 0.118508 -0.245243
-0.044444 0.118743 -0.294159
-0.006305 0.117920 -0.250335
-0.054920 0.118209 -0.284739
-0.047585 0.117694 -0.274670
-0.015840 0.118257 -0.296869
-0.006433 0.118365 -0.262762
-0.019275 0.117520 -0.282334
-0.023016 0.118014 -0.245390
-0.039358 0.118152 -0.282272
0.017488 0.118546 -0.261241
-0.031457 0.118177 -0.253387
-0.017736 0.117769 -0.257379
-0.209860 0.128489 -0.360197
-0.210128 0.125282 -0.413641
-0.210573 0.132041 -0.416253
-0.209919 0.151711 -0.387533
-0.210120 0.129949 -0.381412
-0.209878 0.117632 -0.392516
-0.209772 0.122467 -0.423831
-0.209412 0.138207 -0.363501
-0.209603 0.122097 -0.366896
-0.209194 0.138685 -0.380302
-0.209880 0.119024 -0.378821
-0.210094 0.138489 -0.396826
-0.209563 0.137172 -0.407220
-0.209707 0.146013 -0.425892
-0.209509 0.131844 -0.402008
-0.209558 0.118959 -0.414114
-0.210227 0.143086 -0.390086
-0.210037 0.119496 -0.403756
-0.210240 0.121791 -0.387240
-0.210394 0.125869 -0.375284
-0.209293 0.136683 -0.422703
-0.209811 0.145872 -0.373211
-0.209454 0.129205 -0.427443
-0.210197 0.128048 -0.407660
-0.209092 0.133983 -0.434087
-0.209784 0.148136 -0.400994
-0.209520 0.141512 -0.413288
-0.210140 0.132641 -0.370655
-0.210101 0.150587 -0.410404
-0.209620 0.128008 -0.392386
-0.210265 0.133846 -0.389130
-0.209639 0.123645 -0.399780
-0.138079 -0.077444 -0.414464
-0.147575 -0.063186 -0.421554
-0.154138 -0.050922 -0.424642
-0.138439 0.083954 -0.414341
-0.138133 -0.035506 -0.422675
-0.128412 -0.025485 -0.403917
-0.139109 -0.107887 -0.421638
-0.133185 0.025630 -0.405820
-0.129549 -0.094940 -0.409878
-0.160273 -0.026673 -0.421836
-0.134249 -0.135347 -0.421891
-0.129976 -0.011084 -0.414661
-0.160624 0.050907 -0.424554
-0.132028 0.041309 -0.419566
-0.127268 -0.064849 -0.419202
-0.162633 -0.092098 -0.422022
-0.128382 0.015350 -0.413211
-0.152762 -0.119490 -0.425677
-0.129772 -0.098684 -0.419347
-0.130218 -0.049008 -0.414961
-0.164403 -0.018865 -0.421404
-0.128936 0.016973 -0.416696
-0.139249 -0.003305 -0.419438
-0.131517 -0.076710 -0.420436
-0.172523 0.008308 -0.422609
-0.142206 0.001070 -0.424444
-0.148507 0.026357 -0.420252
-0.133629 -0.038863 -0.404829
-0.134127 0.068459 -0.419209
-0.170375 -0.061247 -0.427763
-0.128999 -0.032190 -0.420184
-0.143344 -0.094821 -0.422052
-0.208337 0.107688 -0.377732
-0.208059 0.102748 -0.424082
-0.208729 0.116073 -0.424366
-0.208145 0.138881 -0.403227
-0.208355 0.112304 -0.398866
-0.208116 0.082144 -0.407544
-0.207812 0.096136 -0.431071
-0.207734 0.123748 -0.379871
-0.207698 0.095329 -0.385292
-0.207789 0.123235 -0.396129
-0.207844 0.087368 -0.396556
-0.208000 0.126336 -0.410565
-0.207984 0.122075 -0.418588
-0.208050 0.133410 -0.432107
-0.207544 0.115778 -0.414024
-0.208095 0.088757 -0.423709
-0.208234 0.130501 -0.404522
-0.208412 0.090545 -0.415144
-0.208285 0.097278 -0.403629
-0.208734 0.104659 -0.393376
-0.207539 0.123109 -0.428509
-0.208503 0.131275 -0.390431
-0.207416 0.109908 -0.432384
-0.208316 0.109128 -0.418783
-0.206960 0.119251 -0.436446
-0.208291 0.134740 -0.413821
-0.207908 0.128764 -0.422821
-0.208462 0.115625 -0.387073
-0.208246 0.137834 -0.421177
-0.207852 0.108150 -0.407871
-0.208548 0.119521 -0.405531
-0.208274 0.099265 -0.414601
-0.166332 0.025144 -0.428252
-0.155667 0.034564 -0.423574
-0.180332 0.046245 -0.424159
-0.154450 0.130452 -0.426092
-0.153674 0.064211 -0.424322
-0.140100 0.064930 -0.428769
-0.134336 -0.000895 -0.421965
-0.174730 0.093795 -0.430865
-0.137565 0.021672 -0.428468
-0.187686 0.066178 -0.425712
-0.159386 -0.010881 -0.423408
-0.104354 0.073453 -0.421615
-0.174508 0.117056 -0.427209
-0.138666 0.109143 -0.421977
-0.103484 0.041811 -0.425422
-0.187158 0.020689 -0.423677
-0.112467 0.099658 -0.424571
-0.175997 0.002605 -0.423140
-0.111349 0.010781 -0.423199
-0.140463 0.048967 -0.425332
-0.171415 0.066530 -0.424610
-0.143469 0.085690 -0.427017
-0.126649 0.084343 -0.423798
-0.123908 0.036596 -0.421344
-0.192009 0.088465 -0.423586
-0.162533 0.083178 -0.424369
-0.161255 0.104160 -0.423280
-0.164646 0.049246 -0.430329
-0.122950 0.126086 -0.423069
-0.195575 0.044915 -0.425248
-0.120479 0.060661 -0.423617
-0.156554 0.009468 -0.425268
-0.151827 0.148472 -0.341501
-0.139186 0.148142 -0.421625
-0.148532 0.147464 -0.404758
-0.119071 0.145629 -0.373659
-0.143907 0.147518 -0.386426
-0.104996 0.146810 -0.348281
-0.127096 0.139651 -0.390968
-0.176580 0.145799 -0.346822
-0.121347 0.150842 -0.332266
-0.164148 0.147511 -0.363844
-0.137701 0.136634 -0.350066
-0.087848 0.148427 -0.392108
-0.160046 0.145650 -0.392753
-0.131769 0.145836 -0.380070
-0.086142 0.149862 -0.358023
-0.168514 0.149509 -0.406822
-0.094864 0.146398 -0.377657
-0.162670 0.140314 -0.380699
-0.106628 0.141762 -0.361983
-0.125825 0.148323 -0.350017
-0.157460 0.145231 -0.422836
-0.146569 0.145242 -0.357062
-0.120430 0.147968 -0.416750
-0.099098 0.149355 -0.408072
-0.179209 0.146738 -0.391906
-0.147360 0.145456 -0.372116
-0.129874 0.145520 -0.402217
-0.142110 0.145369 -0.332119
-0.117152 0.145858 -0.399267
-0.177361 0.149155 -0.369815
-0.108989 0.147845 -0.382399
-0.132518 0.150044 -0.363659
-0.114960 0.072573 -0.430014
-0.150133 0.072423 -0.428936
-0.031777 0.094632 -0.427297
-0.195701 0.122178 -0.426271
-0.054706 0.079350 -0.428714
-0.144114 0.030569 -0.428126
-0.162874 0.053941 -0.427845
-0.123820 0.105692 -0.429717
-0.207542 0.057986 -0.428076
-0.187323 0.085759 -0.427948
-0.194080 0.042053 -0.428018
-0.208980 0.109183 -0.426280
-0.104294 0.093940 -0.429370
-0.053766 0.115538 -0.426675
-0.210572 0.081614 -0.427621
-0.065405 0.043583 -0.428026
-0.173420 0.113971 -0.427548
-0.103588 0.048910 -0.428290
-0.199084 0.070815 -0.427501
-0.180890 0.068557 -0.427042
-0.185168 0.100938 -0.427611
-0.071686 0.100084 -0.429272
-0.202027 0.093292 -0.428473
-0.174665 0.080736 -0.427675
-0.089722 0.084443 -0.428111
-0.093151 0.113031 -0.427471
-0.146005 0.102315 -0.428768
-0.135513 0.087991 -0.429778
-0.152296 0.120746 -0.427573
-0.019657 0.071135 -0.428424
-0.163756 0.094108 -0.428443
-0.132400 0.060496 -0.427868
0.091244 0.118227 -0.172259
0.092441 0.117799 -0.211282
0.128291 0.118322 -0.218058
0.073519 0.117934 -0.199949
0.124345 0.118328 -0.186479
0.094719 0.119153 -0.199267
0.093101 0.118112 -0.224313
0.109496 0.118014 -0.175115
0.071917 0.117934 -0.176044
0.083804 0.118322 -0.195036
0.065450 0.118314 -0.186088
0.061130 0.118445 -0.196584
0.112510 0.118400 -0.212987
0.116623 0.118332 -0.225635
0.064484 0.118610 -0.208095
0.122843 0.118474 -0.205668
0.085679 0.118388 -0.204836
0.103535 0.118164 -0.205332
0.075992 0.118378 -0.188740
0.084072 0.118572 -0.181181
0.079844 0.118619 -0.230254
0.112527 0.118000 -0.185989
0.070218 0.118205 -0.220774
0.076649 0.117959 -0.209805
0.104322 0.118324 -0.233957
0.113007 0.118257 -0.198348
0.102002 0.117362 -0.217863
0.098337 0.118118 -0.180893
0.083915 0.118136 -0.217716
0.133268 0.118520 -0.196658
0.091343 0.118252 -0.189170
0.103098 0.117871 -0.193074
-0.114802 0.148291 -0.374851
-0.124258 0.147087 -0.415286
0.010562 0.149530 -0.422374
-0.183417 0.147676 -0.409000
-0.004509 0.148766 -0.390862
-0.111873 0.150375 -0.403402
-0.125091 0.147657 -0.431365
-0.070205 0.148318 -0.378535
-0.193931 0.148102 -0.376161
-0.159886 0.148278 -0.399627
-0.201697 0.148610 -0.391366
-0.209900 0.147133 -0.400255
-0.054498 0.148401 -0.423413
-0.025293 0.147370 -0.427670
-0.201747 0.147684 -0.415803
-0.024090 0.148867 -0.409883
-0.144523 0.148376 -0.409815
-0.080380 0.148029 -0.412359
-0.181064 0.147958 -0.392427
-0.156027 0.148988 -0.382528
-0.170759 0.147671 -0.435340
-0.039332 0.148655 -0.388579
-0.188119 0.147332 -0.424087
-0.166273 0.146680 -0.416936
-0.067346 0.147114 -0.431993
-0.051439 0.148498 -0.403486
-0.097208 0.146227 -0.424054
-0.103232 0.148188 -0.388923
-0.145719 0.147218 -0.426996
0.029149 0.150422 -0.404337
-0.132643 0.148555 -0.393170
-0.085987 0.148589 -0.396105
-0.092110 0.117893 -0.314064
-0.090230 0.117823 -0.353121
-0.053950 0.118331 -0.360088
-0.111830 0.117520 -0.342043
-0.059212 0.118308 -0.327053
-0.088397 0.118876 -0.341281
-0.090202 0.118202 -0.367751
-0.073949 0.117885 -0.316477
-0.112380 0.117896 -0.318289
-0.099595 0.118196 -0.336248
-0.118921 0.118168 -0.328570
-0.126142 0.118310 -0.338475
-0.070594 0.118489 -0.354392
-0.066523 0.118364 -0.369088
-0.121392 0.118106 -0.350907
-0.059089 0.118521 -0.347843
-0.098459 0.118036 -0.346654
-0.079688 0.118229 -0.346936
-0.107902 0.118214 -0.329183
-0.098966 0.118565 -0.322716
-0.104168 0.117902 -0.374171
-0.072280 0.117583 -0.327853
-0.115269 0.117899 -0.363388
-0.108091 0.117522 -0.351519
-0.078204 0.118580 -0.378377
-0.069529 0.118153 -0.340104
-0.081001 0.117729 -0.360439
-0.084054 0.117983 -0.322145
-0.099929 0.117912 -0.359947
-0.049936 0.118391 -0.337166
-0.091317 0.117989 -0.329964
-0.079521 0.117781 -0.334244
0.150545 0.118502 -0.145993
0.151067 0.118006 -0.186103
0.190418 0.118682 -0.193605
0.129709 0.118292 -0.174914
0.186356 0.118604 -0.161133
0.154367 0.119551 -0.174238
0.151946 0.118269 -0.200158
0.171077 0.118350 -0.149320
0.126886 0.118143 -0.149750
0.141490 0.118417 -0.169709
0.120735 0.118661 -0.160538
0.115197 0.118607 -0.170861
0.174012 0.118686 -0.188625
0.178509 0.118538 -0.201611
0.119034 0.118777 -0.183248
0.184774 0.118690 -0.180781
0.143394 0.118687 -0.179449
0.164228 0.118426 -0.180543
0.131786 0.118606 -0.163470
0.141499 0.118902 -0.155561
0.136591 0.118891 -0.206022
0.174319 0.118394 -0.160370
0.125987 0.118413 -0.196261
0.133694 0.118048 -0.184744
0.165340 0.118545 -0.210180
0.174103 0.118605 -0.173335
0.161473 0.117491 -0.193342
0.158268 0.118367 -0.155457
0.141574 0.118327 -0.192999
0.196071 0.118818 -0.172018
0.149625 0.118510 -0.163652
0.163849 0.118222 -0.167509
0.118735 0.151491 -0.114438
0.134372 0.152608 -0.205504
0.120718 0.150972 -0.186812
0.153684 0.150745 -0.152704
0.126171 0.151347 -0.168220
0.171734 0.149789 -0.119807
0.148179 0.150530 -0.170175
0.091604 0.149927 -0.122711
0.154277 0.152565 -0.104745
0.105870 0.150941 -0.138360
0.139827 0.149511 -0.121374
0.186398 0.151005 -0.171225
0.109231 0.150078 -0.174297
0.138350 0.149706 -0.156134
0.188572 0.151048 -0.134016
0.097782 0.152024 -0.188100
0.181189 0.150585 -0.154070
0.107341 0.151755 -0.157148
0.165965 0.150649 -0.137589
0.151339 0.150932 -0.126379
0.113042 0.150514 -0.206776
0.124205 0.150209 -0.132769
0.155816 0.152159 -0.201778
0.177451 0.151792 -0.189893
0.085843 0.150659 -0.169353
0.122217 0.150823 -0.149494
0.141754 0.150031 -0.184990
0.130841 0.149672 -0.101151
0.157437 0.150107 -0.180177
0.085925 0.151551 -0.144248
0.166698 0.151268 -0.163330
0.139404 0.152133 -0.138756
0.009842 0.147913 -0.216871
0.029216 0.149075 -0.305869
0.017150 0.148556 -0.288433
0.047461 0.147595 -0.253084
0.022310 0.149631 -0.270166
0.062496 0.149265 -0.222137
0.043132 0.147725 -0.272070
-0.011745 0.147493 -0.225441
0.044907 0.149135 -0.209269
0.000591 0.148748 -0.240259
0.031122 0.148356 -0.223773
0.074599 0.148392 -0.272210
0.007144 0.147419 -0.276492
0.032783 0.148280 -0.258074
0.079016 0.148385 -0.236622
-0.006447 0.148863 -0.288207
0.072931 0.148696 -0.254452
0.003254 0.147882 -0.258778
0.058976 0.147634 -0.238723
0.045038 0.148563 -0.229627
0.008696 0.147979 -0.306757
0.017922 0.147937 -0.234654
0.049620 0.149523 -0.302083
0.070559 0.149256 -0.291322
-0.017449 0.148243 -0.271416
0.017695 0.147898 -0.251191
0.038514 0.147623 -0.285040
0.022790 0.147034 -0.205280
0.053730 0.148864 -0.282056
-0.016463 0.149181 -0.247769
0.059097 0.148633 -0.264059
0.032388 0.149034 -0.241948
0.069797 0.146180 -0.176656
0.090764 0.146694 -0.264288
0.078293 0.146198 -0.248040
0.108108 0.144951 -0.213236
0.083709 0.147931 -0.229558
0.122493 0.147730 -0.182099
0.104405 0.145929 -0.231213
0.048534 0.145372 -0.183982
0.105996 0.147278 -0.169250
0.061366 0.146887 -0.199710
0.090972 0.147462 -0.183032
0.133963 0.146477 -0.232404
0.068827 0.145328 -0.236469
0.093415 0.146634 -0.218714
0.138289 0.147317 -0.195861
0.054368 0.146971 -0.247877
0.133375 0.146866 -0.214352
0.064178 0.146003 -0.217961
0.119873 0.145612 -0.198215
0.105477 0.146941 -0.189386
0.069646 0.145854 -0.264724
0.078571 0.145862 -0.194156
0.110691 0.146948 -0.260672
0.131286 0.147617 -0.250584
0.042644 0.146245 -0.231019
0.078532 0.146001 -0.211092
0.099040 0.145189 -0.243813
0.083522 0.145436 -0.164720
0.114758 0.146473 -0.241585
0.043900 0.147895 -0.207486
0.119467 0.146723 -0.223194
0.093365 0.147341 -0.202123
-0.114103 0.129084 -0.428066
-0.146813 0.125845 -0.428314
-0.013366 0.138483 -0.427090
-0.196552 0.154306 -0.426157
-0.036598 0.128629 -0.428020
-0.139471 0.112192 -0.427319
-0.157937 0.118701 -0.427699
-0.114945 0.144199 -0.428986
-0.211359 0.120391 -0.426735
-0.188231 0.132156 -0.427830
-0.198225 0.114602 -0.427079
-0.213686 0.146219 -0.425987
-0.093033 0.135188 -0.428963
-0.037505 0.149589 -0.426699
-0.214194 0.129648 -0.427164
-0.053676 0.117223 -0.428121
-0.169592 0.148247 -0.427237
-0.094515 0.116123 -0.428077
-0.199124 0.126570 -0.426539
-0.180460 0.122097 -0.426578
-0.185884 0.141827 -0.427294
-0.059378 0.138798 -0.429080
-0.203310 0.136395 -0.427731
-0.173414 0.130488 -0.427096
-0.078032 0.128704 -0.428070
-0.080446 0.147474 -0.427187
-0.137699 0.140293 -0.428106
-0.129771 0.133325 -0.429242
-0.149240 0.153155 -0.426716
0.002728 0.125033 -0.428502
-0.159198 0.136181 -0.427467
-0.123470 0.120634 -0.427742
0.185385 0.119205 -0.101482
0.187437 0.118926 -0.167048
0.210780 0.119171 -0.179177
0.173264 0.119223 -0.150578
0.208463 0.119254 -0.130765
0.189260 0.119785 -0.151735
0.188943 0.119238 -0.187590
0.202114 0.118707 -0.108162
0.169918 0.118741 -0.112826
0.181703 0.118509 -0.143594
0.163813 0.119515 -0.131754
0.152883 0.118614 -0.148111
0.201916 0.119358 -0.168678
0.203307 0.118913 -0.194590
0.160514 0.118810 -0.163132
0.209433 0.119499 -0.163025
0.181864 0.119500 -0.157751
0.194986 0.119525 -0.159957
0.173562 0.118938 -0.136211
0.181815 0.119947 -0.124211
0.178426 0.118731 -0.196185
0.198470 0.119366 -0.129326
0.166346 0.118734 -0.183620
0.173078 0.118028 -0.165783
0.194629 0.119252 -0.208265
0.202853 0.118562 -0.152223
0.193890 0.118540 -0.177860
0.192774 0.118856 -0.119850
0.180928 0.118903 -0.175531
0.215344 0.119652 -0.144658
0.189192 0.118646 -0.135843
0.197014 0.118944 -0.142778
-0.050946 0.118203 -0.285215
-0.048463 0.117789 -0.324597
-0.013432 0.118151 -0.330670
-0.068480 0.117719 -0.313278
-0.017850 0.118277 -0.298529
-0.047046 0.118931 -0.312278
-0.048408 0.118232 -0.338131
-0.032439 0.118041 -0.287753
-0.069052 0.118002 -0.288981
-0.057331 0.118223 -0.308046
-0.076547 0.118196 -0.299546
-0.081114 0.118307 -0.309494
-0.029146 0.118374 -0.325406
-0.025496 0.118458 -0.338697
-0.077351 0.118439 -0.321919
-0.018508 0.118477 -0.318571
-0.056184 0.118213 -0.318217
-0.038375 0.118155 -0.318106
-0.065230 0.118412 -0.301095
-0.057083 0.118578 -0.293813
-0.061670 0.118372 -0.344121
-0.030363 0.117757 -0.298856
-0.071554 0.118027 -0.333946
-0.065501 0.117814 -0.323073
-0.037632 0.118471 -0.347222
-0.028554 0.118090 -0.310916
-0.039211 0.117658 -0.331207
-0.042952 0.118101 -0.293255
-0.057757 0.118090 -0.331079
-0.009293 0.118461 -0.308885
-0.049623 0.118056 -0.301586
-0.038432 0.117800 -0.305732
0.011641 0.117961 -0.249573
0.012193 0.117462 -0.287483
0.057377 0.118221 -0.293748
-0.011425 0.117759 -0.277799
0.052437 0.117941 -0.263577
0.015398 0.119026 -0.276756
0.012389 0.117782 -0.300979
0.032867 0.117762 -0.252762
-0.013820 0.117424 -0.253403
0.001274 0.117948 -0.272848
-0.020519 0.118035 -0.264213
-0.026074 0.118230 -0.273422
0.036865 0.118204 -0.289802
0.043023 0.118112 -0.301293
-0.021987 0.118213 -0.285930
0.049512 0.118173 -0.281867
0.003277 0.118197 -0.282088
0.026334 0.117755 -0.282399
-0.008749 0.118108 -0.266532
0.001208 0.118318 -0.258615
-0.004088 0.118681 -0.306086
0.038560 0.117722 -0.263505
-0.015066 0.118013 -0.296864
-0.006809 0.117476 -0.287086
0.028011 0.118046 -0.308607
0.037571 0.118285 -0.275586
0.023181 0.117223 -0.294541
0.019771 0.117780 -0.259398
0.001826 0.117951 -0.294694
0.063990 0.118400 -0.274368
0.009992 0.117927 -0.266382
0.025416 0.117591 -0.270339
0.182643 0.142600 -0.061924
0.195954 0.141174 -0.160603
0.174688 0.145777 -0.133705
0.184377 0.144117 -0.099902
0.190328 0.140250 -0.123390
0.199431 0.144700 -0.067881
0.197662 0.121317 -0.130695
0.163207 0.144402 -0.063061
0.203314 0.137365 -0.058300
0.159949 0.149373 -0.087152
0.200681 0.121907 -0.077549
0.200674 0.141948 -0.130883
0.164516 0.143868 -0.118551
0.187664 0.147105 -0.109408
0.200360 0.138835 -0.085421
0.153966 0.147672 -0.141671
0.200973 0.143661 -0.104064
0.183195 0.127561 -0.109216
0.202758 0.129938 -0.102506
0.198515 0.145684 -0.072845
0.177354 0.143261 -0.160345
0.180789 0.144680 -0.078876
0.203894 0.138158 -0.154769
0.202665 0.136088 -0.138371
0.149302 0.146841 -0.129990
0.177864 0.145685 -0.100131
0.186195 0.144158 -0.143766
0.184014 0.147502 -0.048193
0.190901 0.142557 -0.131433
0.152757 0.147917 -0.096469
0.199864 0.140560 -0.118009
0.194775 0.139035 -0.090158
-0.036868 0.147067 -0.263901
-0.017763 0.147846 -0.347132
-0.029458 0.147292 -0.331527
0.000519 0.146266 -0.298118
-0.024274 0.148161 -0.313718
0.015110 0.148258 -0.268206
-0.003603 0.146445 -0.315209
-0.058530 0.146567 -0.270620
-0.001651 0.148344 -0.256070
-0.046274 0.147755 -0.285524
-0.015785 0.146996 -0.270374
0.027085 0.147393 -0.316262
-0.039601 0.146348 -0.320193
-0.014034 0.147271 -0.302937
0.031087 0.147563 -0.281804
-0.053959 0.147718 -0.331008
0.025445 0.147628 -0.299047
-0.043709 0.146691 -0.303323
0.011856 0.146707 -0.283903
-0.002282 0.147585 -0.275356
-0.038194 0.146870 -0.347517
-0.028726 0.146819 -0.280094
0.002156 0.148196 -0.343593
0.022534 0.148088 -0.333715
-0.063824 0.147280 -0.314581
-0.029096 0.146619 -0.296107
-0.008429 0.146546 -0.327291
-0.023683 0.146206 -0.252253
0.006501 0.147712 -0.325250
-0.063186 0.148216 -0.292582
0.011743 0.147747 -0.308005
-0.014392 0.147879 -0.287808
-0.179565 0.142677 -0.395666
-0.154615 0.135521 -0.423296
-0.169687 0.139539 -0.423474
-0.133077 0.142674 -0.405137
-0.161516 0.141992 -0.418955
-0.120714 0.146179 -0.392601
-0.141855 0.116617 -0.419304
-0.198479 0.143231 -0.389674
-0.136580 0.142145 -0.392450
-0.190288 0.142822 -0.410825
-0.161949 0.114592 -0.406144
-0.088569 0.141744 -0.423553
-0.180827 0.141836 -0.417675
-0.146885 0.142203 -0.418255
-0.093029 0.144372 -0.403105
-0.195720 0.135457 -0.423294
-0.105506 0.143189 -0.416805
-0.184852 0.115115 -0.422717
-0.112765 0.118397 -0.417014
-0.147715 0.148456 -0.404886
-0.182732 0.138623 -0.421964
-0.162272 0.145459 -0.400844
-0.137431 0.138851 -0.423868
-0.117148 0.135347 -0.424248
-0.206201 0.142874 -0.421794
-0.173161 0.143912 -0.411831
-0.157327 0.140932 -0.420001
-0.162329 0.148691 -0.385670
-0.125142 0.141772 -0.419610
-0.209014 0.142580 -0.417641
-0.122688 0.142944 -0.419003
-0.162395 0.131934 -0.417761
0.095057 0.118136 -0.199258
0.095778 0.117654 -0.237872
0.135577 0.118268 -0.244523
0.075061 0.117820 -0.227665
0.131211 0.118150 -0.213771
0.098614 0.119160 -0.226963
0.096334 0.117938 -0.251112
0.114513 0.117894 -0.202364
0.072844 0.117687 -0.203344
0.086301 0.118145 -0.222700
0.066470 0.118204 -0.213913
0.061588 0.118378 -0.223773
0.117956 0.118272 -0.240160
0.122845 0.118189 -0.252235
0.065219 0.118470 -0.235602
0.129119 0.118365 -0.232435
0.088188 0.118319 -0.232179
0.108279 0.118028 -0.232586
0.077317 0.118282 -0.216482
0.086222 0.118453 -0.208712
0.081742 0.118659 -0.256487
0.118661 0.117886 -0.213480
0.071563 0.118110 -0.247372
0.078761 0.117733 -0.236953
0.109519 0.118173 -0.259983
0.118466 0.118271 -0.225827
0.105941 0.117298 -0.244707
0.102463 0.117962 -0.208889
0.086591 0.117956 -0.244711
0.141290 0.118476 -0.224333
0.094262 0.118116 -0.216585
0.107589 0.117722 -0.220565
0.152400 0.118413 -0.170507
0.152282 0.117999 -0.210616
0.193143 0.118600 -0.218008
0.130805 0.118116 -0.200113
0.188873 0.118478 -0.186228
0.155900 0.119452 -0.199457
0.153087 0.118251 -0.224665
0.172885 0.118193 -0.174211
0.127648 0.118035 -0.174754
0.142653 0.118366 -0.194896
0.121758 0.118642 -0.185881
0.116072 0.118544 -0.196063
0.175642 0.118535 -0.213423
0.180729 0.118408 -0.226144
0.120113 0.118754 -0.208157
0.187150 0.118597 -0.205475
0.144416 0.118567 -0.204456
0.165858 0.118348 -0.205355
0.132629 0.118462 -0.188750
0.142414 0.118748 -0.180761
0.137319 0.118866 -0.230312
0.176566 0.118245 -0.185624
0.126962 0.118388 -0.220781
0.134769 0.117961 -0.209703
0.167056 0.118441 -0.234453
0.176175 0.118570 -0.198575
0.162610 0.117478 -0.217949
0.159822 0.118171 -0.180857
0.142651 0.118144 -0.217847
0.199455 0.118673 -0.197133
0.150790 0.118388 -0.188905
0.165499 0.118120 -0.192667
0.049566 0.118173 -0.231545
0.050346 0.117553 -0.269955
0.092334 0.118277 -0.275915
0.028910 0.117835 -0.260136
0.087748 0.118094 -0.245914
0.053188 0.119197 -0.259252
0.050715 0.117934 -0.282812
0.069805 0.117908 -0.234827
0.026562 0.117615 -0.235665
0.040486 0.118135 -0.255336
0.020141 0.118150 -0.246425
0.015465 0.118399 -0.255892
0.073355 0.118266 -0.272039
0.078866 0.118230 -0.283130
0.018995 0.118449 -0.268029
0.085341 0.118356 -0.264178
0.042200 0.118296 -0.264558
0.063370 0.117976 -0.264791
0.031322 0.118315 -0.248932
0.040353 0.118462 -0.240837
0.035596 0.118754 -0.288074
0.074493 0.117858 -0.245789
0.025322 0.118181 -0.279068
0.032677 0.117671 -0.269346
0.064617 0.118189 -0.290544
0.073950 0.118307 -0.257855
0.060756 0.117401 -0.276743
0.057306 0.117977 -0.241290
0.040860 0.118060 -0.276793
0.098664 0.118467 -0.256583
0.048620 0.118165 -0.248784
0.062657 0.117711 -0.252692
0.183447 0.119427 -0.135238
0.185023 0.119024 -0.193777
0.210067 0.119141 -0.205442
0.170677 0.118625 -0.178800
0.207190 0.119153 -0.160558
0.187015 0.120137 -0.180193
0.186222 0.119244 -0.212576
0.199759 0.119010 -0.140986
0.169017 0.118801 -0.144998
0.179354 0.118829 -0.172681
0.163120 0.119570 -0.161351
0.155230 0.119058 -0.176116
0.199851 0.119341 -0.196119
0.201858 0.119126 -0.218699
0.160403 0.119222 -0.190532
0.208628 0.119345 -0.189341
0.179436 0.119401 -0.185860
0.193366 0.119480 -0.187410
0.171581 0.119395 -0.165260
0.179067 0.119980 -0.154544
0.175795 0.119027 -0.220511
0.197135 0.119230 -0.159519
0.165350 0.119218 -0.208966
0.171265 0.118567 -0.192798
0.192698 0.119439 -0.230548
0.200748 0.118709 -0.180089
0.191615 0.118682 -0.203957
0.190194 0.119180 -0.151278
0.178008 0.118733 -0.202174
0.214635 0.119336 -0.173941
0.186322 0.119049 -0.164883
0.194281 0.119030 -0.171469
0.158493 -0.154154 -0.336921
0.146254 -0.157680 -0.334999
0.189963 -0.146249 -0.330468
0.131734 -0.104542 -0.328383
0.182352 -0.153924 -0.331666
0.149651 -0.163499 -0.336209
0.142811 -0.163359 -0.338584
0.151148 -0.132071 -0.332885
0.126926 -0.160211 -0.337028
0.131675 -0.146978 -0.331443
0.131483 -0.164808 -0.337687
0.124151 -0.134109 -0.329181
0.160348 -0.138835 -0.328892
0.181413 -0.121996 -0.329613
0.122801 -0.153502 -0.333447
0.176509 -0.164698 -0.334834
0.138334 -0.122505 -0.328786
0.160770 -0.162297 -0.335938
0.131720 -0.155578 -0.333595
0.139322 -0.156917 -0.332863
0.136170 -0.140464 -0.337049
0.176587 -0.137659 -0.331828
0.130071 -0.143545 -0.332142
0.139918 -0.153877 -0.330429
0.164684 -0.151555 -0.336789
0.162144 -0.126182 -0.328034
0.146261 -0.133547 -0.329609
0.150807 -0.149977 -0.333293
0.147896 -0.110352 -0.326789
0.200822 -0.158311 -0.334085
