-0.085154 -0.045761 0.327848
-0.085136 -0.026990 0.327788
-0.065437 -0.036667 0.327895
-0.340819 -0.009712 0.128344
-0.325531 -0.012667 0.120880
-0.337085 -0.012823 0.107359
-0.039684 -0.037881 0.312132
-0.054834 -0.040997 0.295769
-0.307202 -0.012915 0.109807
-0.316361 -0.016142 0.088042
-0.036932 -0.042046 0.282104
-0.296716 -0.016212 0.089913
-0.020433 -0.039780 0.281443
-0.326458 -0.016686 0.055948
-0.063308 -0.054906 0.236144
-0.020864 -0.016481 0.283747
-0.068578 -0.011313 0.245493
-0.285562 -0.016512 0.076965
-0.018152 -0.043564 0.260300
-0.291544 -0.019791 0.062713
-0.061726 0.009930 0.244797
-0.037690 0.039520 0.274891
-0.035663 -0.047248 0.237682
-0.306732 -0.020163 0.041435
-0.319983 -0.036652 0.015997
-0.282912 -0.013792 0.054749
-0.341480 -0.017593 0.002967
-0.284910 -0.045933 0.033334
-0.338797 0.092549 0.053773
-0.270998 -0.020082 0.055329
-0.072446 0.047718 0.235902
-0.310507 -0.020641 0.018634
-0.240460 -0.063400 0.048059
-0.226442 -0.049591 0.064788
-0.000553 -0.045203 0.235996
-0.320026 -0.011209 0.007982
-0.302163 -0.010409 0.020117
-0.279187 -0.065912 0.011583
-0.310246 0.021882 0.027849
-0.314182 -0.027443 0.001917
-0.235850 -0.021818 0.061207
-0.295492 -0.027326 0.011334
-0.027197 -0.029089 0.213136
-0.008543 -0.048886 0.217784
-0.280024 -0.023931 0.022853
-0.261671 -0.023872 0.030420
-0.286231 -0.014470 0.013762
-0.273866 -0.033916 0.013017
-0.110073 -0.023247 0.142473
-0.311176 0.004856 0.000185
-0.048319 -0.042666 0.178468
-0.283245 -0.037520 0.000725
-0.323445 0.033872 0.000084
-0.261366 -0.040624 0.010738
-0.329539 0.053124 0.000186
-0.311153 0.024265 0.000803
0.013667 -0.046644 0.214255
-0.191759 0.005827 0.082507
-0.264578 -0.014511 0.017241
-0.274533 -0.043296 -0.004525
-0.260286 0.027144 0.037945
-0.289473 -0.001627 0.001789
-0.307418 -0.010900 -0.017806
-0.239661 -0.037225 0.020746
-0.353719 0.113479 0.000085
-0.295684 0.017857 0.001889
-0.341648 0.094603 0.000492
0.007624 -0.050325 0.198109
-0.029571 -0.063635 0.162665
-0.329487 0.085239 0.001114
-0.248543 -0.047706 0.002540
-0.285604 0.012585 -0.000013
-0.343298 0.110059 -0.000553
-0.317259 0.069375 0.001599
-0.304955 0.050177 0.002026
-0.254761 0.075082 0.051420
-0.001418 -0.000191 0.207897
-0.245815 -0.014597 0.016980
-0.294977 -0.023740 -0.027277
-0.264431 -0.004898 0.005212
-0.203187 -0.069777 0.019125
0.022540 -0.047626 0.199216
-0.220888 -0.024329 0.024067
-0.276977 0.024456 0.003047
-0.324366 0.062625 -0.017606
-0.213876 -0.054204 0.013907
-0.320318 0.098326 0.001593
-0.286350 0.043924 0.002496
-0.205224 -0.037350 0.027400
-0.083070 0.016320 0.144463
-0.226054 -0.054688 0.001768
-0.295631 0.072851 0.004502
-0.048469 -0.004344 0.157430
-0.323361 0.117536 0.001795
-0.195394 -0.050636 0.024576
-0.285347 0.053205 0.001545
-0.245468 -0.004921 0.006110
-0.210361 -0.055839 0.006973
-0.251841 0.014722 0.007057
-0.216184 -0.070743 -0.005977
-0.261299 0.034279 0.006383
-0.193165 -0.015799 0.035233
-0.040871 -0.036579 0.140668
0.051621 0.002237 0.226155
0.020644 -0.013216 0.195944
-0.191314 -0.061116 0.014904
-0.226553 -0.008203 0.011379
-0.065427 -0.007230 0.133005
-0.295680 0.092514 0.002044
-0.301873 0.105322 0.001885
0.008141 -0.058455 0.162238
-0.203211 -0.061790 0.000742
-0.335571 0.116401 -0.020906
0.031889 -0.048665 0.183291
-0.198075 -0.002605 0.030344
-0.264423 0.053922 0.004506
-0.186157 -0.024453 0.029104
-0.267101 0.000620 -0.023007
-0.239547 -0.028356 -0.015315
-0.166734 -0.054111 0.029052
-0.268727 0.051655 -0.001376
-0.276977 0.073437 0.002151
-0.204478 -0.011487 0.017514
-0.171974 -0.064607 0.017594
-0.167172 -0.034296 0.032802
-0.113460 0.035521 0.104601
-0.241475 -0.046519 -0.035213
-0.242152 0.037914 0.002350
-0.307462 0.071450 -0.035012
-0.176840 -0.068960 0.001220
-0.144548 -0.050884 0.034385
-0.219650 0.008291 0.002960
0.033801 -0.052908 0.162006
-0.133414 -0.061436 0.032233
-0.136701 -0.068050 0.025798
-0.160489 -0.072446 0.004207
0.029306 -0.032697 0.164608
-0.277452 0.084924 -0.014960
-0.144557 -0.031185 0.034449
-0.156955 -0.021375 0.029163
-0.211667 0.027503 0.008647
-0.222592 -0.006963 -0.018392
-0.263393 0.042405 -0.028176
-0.121191 -0.061240 0.032954
-0.141189 -0.075749 0.010599
-0.032021 -0.071721 0.094670
-0.125289 -0.041128 0.037698
-0.004818 -0.070830 0.114143
-0.162365 -0.011602 0.019811
-0.196606 0.005022 0.000290
0.011684 -0.090151 0.114368
-0.124746 -0.038965 0.034407
-0.122182 -0.075555 0.018574
-0.184857 -0.034656 -0.010960
-0.034752 -0.057709 0.092292
-0.274322 0.036142 -0.048076
0.028097 -0.086472 0.124603
-0.110191 -0.071803 0.027414
-0.136305 -0.028985 0.026499
-0.063420 -0.049771 0.071230
-0.084979 0.012921 0.083242
0.045201 -0.092468 0.132421
-0.101631 -0.061410 0.035830
0.030871 -0.099952 0.116928
-0.003913 -0.101760 0.090036
0.033627 -0.022593 0.153118
-0.176965 -0.005039 0.002435
-0.060237 -0.035290 0.076804
0.014449 -0.071105 0.116036
-0.127335 -0.056655 0.014933
0.009255 -0.114987 0.091264
-0.105573 -0.041311 0.039018
-0.274466 0.094308 -0.029766
0.001655 -0.018917 0.128350
-0.276332 0.109953 -0.025781
-0.162386 -0.048935 -0.010336
0.051866 -0.050885 0.149260
-0.240602 0.045852 -0.028242
-0.126171 -0.080230 0.000882
-0.101778 -0.079392 0.018386
-0.090267 -0.072066 0.029500
-0.139288 -0.011670 0.020730
-0.005505 -0.106812 0.073033
-0.069944 -0.030750 0.058880
0.065149 -0.106533 0.124653
-0.143414 0.011969 0.021668
-0.082100 -0.051558 0.039386
-0.156993 -0.005065 0.003034
-0.116686 -0.015021 0.026046
0.033978 -0.061887 0.117636
0.078704 -0.099691 0.133051
-0.221841 0.091582 -0.007821
0.048389 -0.104846 0.106295
-0.102138 -0.084166 0.001462
0.049416 -0.071451 0.121483
0.030428 0.038741 0.156985
0.074759 -0.080494 0.134329
0.008606 -0.086584 0.082734
-0.192139 0.023695 -0.020871
-0.191908 0.002735 -0.030390
-0.069242 -0.076046 0.027268
-0.144707 -0.006403 0.001630
0.009141 0.050372 0.143200
-0.021157 -0.051838 0.072958
-0.061385 -0.061983 0.038186
-0.094145 -0.021709 0.031962
-0.100304 -0.091338 -0.006985
0.017022 -0.050897 0.099004
-0.079676 -0.083894 0.011155
-0.075046 -0.031705 0.038144
-0.136758 -0.005094 0.003249
-0.079820 -0.044186 0.024279
0.095482 -0.107355 0.126081
-0.053845 -0.004493 0.061626
-0.082095 -0.023986 0.031415
-0.052305 -0.076286 0.028951
-0.094266 -0.057546 0.004986
0.094936 -0.080927 0.135080
-0.051866 -0.045204 0.041501
-0.176054 0.064404 -0.003490
-0.059920 -0.083903 0.016698
-0.227947 0.089984 -0.032102
-0.095536 -0.011808 0.021538
-0.041242 -0.055479 0.040414
0.063726 -0.049529 0.119717
0.026693 -0.024773 0.102904
-0.045636 -0.067523 0.029120
0.005083 -0.078425 0.061079
-0.038661 0.052792 0.085056
-0.004190 -0.065164 0.055646
0.119885 -0.094483 0.133584
-0.031565 -0.076662 0.029938
0.114848 -0.108457 0.121892
-0.039269 -0.084228 0.018678
0.088363 -0.004596 0.147238
-0.105819 -0.005142 0.002677
-0.074971 -0.011874 0.021826
-0.114165 0.082477 0.034736
0.088430 -0.066090 0.118369
-0.067927 -0.001036 0.030841
-0.046882 -0.025308 0.035243
-0.020162 -0.059236 0.039787
-0.086543 -0.046818 -0.008068
0.034751 -0.050866 0.080779
-0.020581 -0.042242 0.041305
-0.084667 -0.017497 0.003862
0.011337 -0.073961 0.049102
-0.006457 -0.062784 0.041104
-0.004841 -0.095230 0.027070
-0.024093 -0.079101 0.017766
-0.049415 -0.041888 0.013993
-0.084943 -0.005172 0.002667
0.114792 -0.069597 0.122013
0.008527 -0.049097 0.049823
-0.010440 -0.085000 0.017612
-0.066375 0.050781 0.037622
-0.056500 -0.008567 0.017073
0.076927 -0.050993 0.095606
-0.090113 -0.004362 -0.008293
-0.048078 -0.053745 -0.000399
-0.034408 -0.015360 0.027337
-0.073324 -0.083741 -0.036959
0.064868 -0.036410 0.087943
-0.077725 -0.031960 -0.016768
-0.110640 0.044952 -0.006489
0.000936 -0.035747 0.040044
-0.067373 -0.005197 0.002732
-0.059444 -0.005970 0.007134
-0.022999 -0.069541 0.004271
0.009720 -0.081578 0.022779
-0.080779 -0.001008 -0.010038
0.074163 -0.062052 0.075826
0.042480 -0.067155 0.049634
-0.124911 0.054913 -0.022419
-0.016750 -0.015435 0.027439
0.025282 -0.046183 0.042123
-0.044076 -0.030540 -0.003433
0.027585 0.011206 0.069331
-0.080923 0.002842 -0.017817
-0.031283 -0.057858 -0.008899
0.002926 -0.022288 0.033391
-0.079241 -0.007033 -0.023046
0.086591 -0.051924 0.080627
-0.001185 0.009658 0.038183
0.082383 -0.062929 0.064169
0.046833 -0.068964 0.034473
-0.035309 -0.005243 0.002835
0.043317 -0.046416 0.042173
-0.055327 -0.038290 -0.030023
-0.031604 -0.052856 -0.018860
-0.014781 -0.049031 -0.007607
0.015482 -0.015573 0.027604
0.066332 -0.002381 0.067713
0.019834 -0.058213 0.007050
0.061729 -0.050136 0.041693
0.038232 -0.025912 0.035785
-0.036802 0.004772 -0.007258
-0.094096 0.081251 -0.015884
0.078558 -0.068223 0.044098
-0.068684 0.050213 -0.013082
-0.117979 0.104538 -0.025908
0.090838 -0.063831 0.052178
0.052869 -0.073203 0.018149
-0.071085 0.044445 -0.024161
-0.026514 -0.012739 -0.018491
0.116855 -0.030416 0.080434
-0.029175 0.037977 0.002242
0.080176 -0.050397 0.041658
0.063689 -0.056909 0.023945
-0.008613 -0.066307 -0.035162
0.023261 -0.057157 -0.006897
0.025980 -0.008763 0.017412
0.069628 0.003041 0.052946
0.070386 -0.029562 0.038192
0.005654 -0.055920 -0.024945
0.020796 -0.070125 -0.020972
0.062910 -0.043090 0.022412
0.099778 -0.064801 0.039251
0.020391 -0.087793 -0.031160
0.037618 -0.008858 0.017905
-0.037982 0.026001 -0.024517
-0.005157 0.004510 -0.008954
-0.006392 -0.110857 -0.066437
-0.090542 0.121828 -0.022211
0.077356 -0.048634 0.024173
0.053780 -0.012301 0.022633
-0.052817 0.036889 -0.035132
0.064328 -0.009465 0.029591
0.052992 -0.054358 -0.000903
0.056560 -0.059755 -0.000600
0.110094 -0.050819 0.041603
-0.044431 0.087538 -0.010254
-0.002114 -0.030371 -0.035498
0.080404 -0.019309 0.031353
0.034345 -0.005344 0.002864
-0.005772 -0.037439 -0.043067
0.100152 -0.029803 0.038329
-0.053007 0.086660 -0.023264
0.124133 -0.069023 0.035325
-0.005709 -0.112645 -0.084143
0.024251 -0.082743 -0.047580
0.013187 -0.103892 -0.066749
0.025521 0.001850 -0.008456
0.058930 0.061863 0.042577
0.129356 -0.054652 0.040866
0.068048 -0.017498 0.011696
-0.015376 0.051193 -0.019306
0.074339 -0.008880 0.017493
0.014211 0.085329 0.015185
0.013842 -0.017760 -0.033940
0.068496 -0.014408 0.008909
0.053137 -0.011615 -0.001479
-0.011898 0.035859 -0.027512
0.125788 -0.037005 0.040316
-0.056460 0.100912 -0.032208
0.103912 0.049944 0.063160
0.042456 -0.022570 -0.016768
0.140659 -0.073075 0.032655
-0.001859 0.070774 -0.007523
-0.010108 0.008815 -0.043238
0.102076 -0.078444 -0.000271
0.095040 -0.012439 0.022753
0.064479 -0.005388 0.002885
-0.031066 0.071223 -0.034242
0.148528 -0.054941 0.040827
0.096245 -0.051825 0.003472
0.003399 -0.097993 -0.088735
0.036562 -0.042259 -0.040842
0.078781 -0.052916 -0.013601
-0.016532 0.095430 -0.017142
0.160173 -0.073479 0.032421
0.119585 -0.016019 0.028042
0.139081 -0.026634 0.036189
0.083566 -0.005415 0.002891
0.159992 -0.040880 0.041092
0.070166 -0.014530 -0.014600
0.159415 -0.042568 0.037221
0.058122 -0.030617 -0.032982
0.023474 0.048868 -0.022387
0.176058 -0.058968 0.040061
0.013939 0.055060 -0.028300
0.038149 0.023845 -0.025411
0.018444 0.093251 -0.010829
-0.009846 0.102137 -0.027589
0.179435 -0.041094 0.041156
0.131712 -0.045478 0.003195
0.175328 -0.085803 0.017000
0.190587 -0.070327 0.034557
0.134685 -0.075550 -0.009701
0.105644 -0.092979 -0.041014
0.064785 0.048556 -0.006235
0.135650 -0.009027 0.017596
0.114518 -0.005460 0.002900
0.198970 -0.052074 0.041438
0.059660 0.058541 -0.009962
-0.021308 0.132387 -0.037594
0.183442 -0.053043 0.027316
0.170345 0.026625 0.054350
0.168384 -0.019773 0.031601
0.033824 -0.100682 -0.111186
0.210843 -0.070754 0.033887
0.196153 -0.086405 0.015386
0.196453 -0.062970 0.024699
0.155229 -0.009074 0.017628
0.046077 -0.108874 -0.110865
0.134124 -0.005489 0.002906
0.238367 -0.022765 0.068403
0.188058 -0.019876 0.031685
0.213486 -0.082673 0.021059
0.107067 0.008186 -0.016798
0.219130 -0.045157 0.040925
0.205510 -0.027109 0.036459
0.052318 0.072786 -0.032715
0.245534 -0.055906 0.047941
0.049353 0.104257 -0.022202
0.191800 -0.029427 0.021039
0.144891 -0.002359 -0.001547
0.175006 -0.009121 0.017676
0.153942 -0.005517 0.002900
0.241737 -0.063868 0.036443
0.121236 0.022919 -0.013304
0.173556 -0.063405 -0.015143
0.239883 -0.045457 0.039772
0.053436 0.099174 -0.030453
0.079181 -0.109702 -0.110296
0.264825 -0.055398 0.048093
0.250317 -0.075545 0.028404
0.243888 -0.083589 0.017727
0.194987 -0.009169 0.017733
0.158643 -0.007777 -0.010423
0.227401 -0.088166 0.002183
0.203993 -0.056289 -0.001242
0.234986 -0.027386 0.033965
0.258455 -0.060524 0.035757
0.253288 -0.110815 0.008192
0.212753 -0.012841 0.022474
0.158641 -0.027696 -0.027047
0.186103 -0.005564 0.002853
0.118283 0.085638 -0.005177
0.170858 0.041250 0.012680
0.258249 -0.042167 0.036115
0.252133 -0.119701 -0.005014
0.271825 -0.072363 0.026930
0.260864 -0.092095 0.009614
0.275720 -0.049806 0.034428
0.245508 -0.093222 -0.008361
0.232365 0.002219 0.025443
0.257726 -0.011927 0.037200
0.224653 -0.009262 0.015274
0.209549 0.018438 0.015452
0.100599 0.110175 -0.022364
0.206687 -0.005596 0.002416
0.217247 -0.039167 -0.009586
0.277646 -0.092485 0.009698
0.242760 -0.012975 0.019785
0.269825 -0.031428 0.030360
0.287984 -0.065161 0.027841
0.197180 -0.011152 -0.015734
0.304255 -0.050907 0.040891
0.146943 0.094623 -0.014399
0.297940 -0.073424 0.018328
0.287877 -0.035366 0.028019
0.176296 0.021552 -0.027100
0.182950 0.081180 0.003484
0.260852 -0.013068 0.017049
0.275097 -0.086239 -0.008133
0.240728 -0.005655 0.000570
0.163825 0.072114 -0.020688
0.279083 0.024347 0.040582
0.318272 -0.064336 0.027203
0.319483 -0.017761 0.044919
0.220047 0.008414 -0.014543
0.297653 -0.062358 0.008460
0.299507 -0.014027 0.031723
0.248080 0.042677 0.020868
0.286554 -0.058827 0.000030
0.276626 -0.064358 -0.009970
0.286086 -0.016914 0.016924
0.317961 -0.070316 0.013554
0.308648 0.004889 0.039670
0.321376 -0.050980 0.021784
0.231723 -0.020866 -0.029281
0.313960 -0.049898 0.016079
0.258769 -0.049015 -0.024471
0.309996 -0.032071 0.019480
0.202088 0.083094 -0.008466
0.329937 -0.062820 0.015077
0.216631 0.046443 -0.016605
0.255742 -0.012372 -0.016303
0.302393 -0.017184 0.003869
0.334881 -0.040061 0.014117
0.302105 0.048860 0.026792
0.350369 -0.051879 0.010401
0.282966 -0.010510 -0.019732
0.259905 0.032340 -0.024794
0.231496 0.087571 -0.022371
0.308067 -0.031135 -0.021083
0.292109 0.080036 0.017212
0.318052 0.063468 0.024216
0.324005 -0.008273 -0.006809
0.329831 -0.005130 -0.002412
0.330157 0.055498 0.023133
0.245134 0.074283 -0.032449
0.338672 -0.024826 -0.012085
0.265283 0.058359 -0.027598
0.271116 0.076123 -0.017732
0.273004 0.072438 -0.020920
0.261662 0.102310 -0.019852
0.319835 0.027818 -0.013626
0.304864 0.039186 -0.018699
0.318211 0.021291 -0.022798
0.353086 0.092570 0.033409
