-0.108026 -0.032583 0.314771
-0.348163 -0.022508 0.126263
-0.081857 -0.032208 0.311946
-0.087765 -0.035928 0.296797
-0.323115 -0.026713 0.106866
-0.070660 -0.035886 0.288556
-0.311711 -0.026808 0.095868
-0.054076 -0.036211 0.270273
-0.309454 -0.031386 0.075008
-0.050371 -0.039860 0.255265
-0.382829 0.093642 0.057039
-0.351369 -0.034897 0.020816
-0.315238 -0.011743 0.060090
-0.321721 -0.043184 0.040894
-0.270390 -0.045136 0.074788
-0.284058 -0.056073 0.055472
-0.102366 -0.010261 0.214167
-0.288011 -0.031406 0.062328
-0.077343 -0.048843 0.211861
-0.279789 -0.018865 0.070475
-0.352857 -0.038066 0.003753
-0.055730 -0.044292 0.228363
-0.340668 0.022535 0.035501
-0.331392 -0.010836 0.025468
-0.314905 -0.059754 0.015808
-0.326438 -0.041830 0.013563
-0.032473 -0.040174 0.237255
-0.334281 -0.028753 0.011284
-0.288598 -0.036103 0.043239
-0.055032 -0.048222 0.213463
-0.306965 -0.045802 0.016167
-0.089478 0.016676 0.207137
-0.296780 0.026553 0.052442
-0.315154 -0.024116 0.013348
-0.291674 -0.045381 0.020758
-0.296036 -0.032437 0.022180
-0.270521 -0.035959 0.038767
-0.026565 -0.044030 0.218590
-0.312535 -0.044778 -0.000446
-0.228842 0.008672 0.088694
-0.320688 -0.019950 0.000615
-0.335729 -0.012837 -0.008283
-0.282695 -0.032209 0.024686
-0.272029 -0.044917 0.024242
-0.326349 -0.002221 0.000747
-0.338143 0.020084 0.000565
-0.154136 -0.012353 0.126853
-0.042196 -0.048862 0.192081
-0.036266 -0.004546 0.215799
-0.115604 0.051451 0.181674
-0.272151 -0.058302 0.011075
-0.349767 0.051549 0.000687
-0.293574 -0.019583 0.012105
-0.308287 -0.015432 0.001675
-0.326798 -0.029974 -0.021343
-0.361634 0.078799 0.000657
-0.361045 0.063463 -0.006558
-0.368688 0.115015 0.010532
-0.252292 -0.044436 0.028239
-0.367608 0.092516 0.000642
-0.314973 0.010085 0.003554
-0.266365 -0.023472 0.024447
-0.331363 0.037811 0.001628
-0.242967 -0.061874 0.021861
-0.319381 0.024346 0.002097
-0.367561 0.106049 0.000693
-0.295875 0.073932 0.041759
-0.020513 -0.048257 0.193671
-0.245513 -0.061707 0.016830
-0.061925 0.040609 0.202430
-0.010126 -0.044319 0.202603
-0.317891 0.049806 0.011066
-0.301534 0.006591 0.002899
-0.336371 0.069038 0.002532
-0.071923 -0.032538 0.158437
-0.284165 -0.015269 0.003435
-0.257789 -0.064974 0.000143
-0.318572 0.046435 0.003013
-0.228108 -0.056710 0.025066
-0.236074 -0.011464 0.039680
-0.348035 0.100659 0.002584
-0.306805 0.033010 0.003378
-0.324171 0.064254 0.003198
-0.235370 -0.027302 0.029223
-0.230612 -0.065643 0.015331
-0.305196 0.056597 0.010713
-0.251764 -0.049502 0.003512
-0.236548 -0.000505 0.038517
-0.222824 -0.035458 0.031612
-0.053389 -0.058175 0.147675
-0.277686 0.006523 0.004497
-0.212181 -0.043606 0.031791
-0.300618 0.046084 0.003958
-0.331211 0.095623 0.001797
-0.243848 -0.014863 0.018864
-0.295761 -0.006883 -0.018814
-0.283315 0.023970 0.004439
-0.216061 -0.069559 0.013584
-0.312811 0.072806 0.003040
-0.260628 -0.010794 0.005059
-0.110805 0.019104 0.132651
-0.202888 -0.064512 0.023723
-0.319953 0.086376 0.001448
-0.367645 0.117479 -0.023609
-0.001364 -0.048369 0.180623
-0.301596 0.063715 0.002827
-0.340619 0.071165 -0.026020
-0.025644 -0.053470 0.157064
-0.277655 -0.023254 -0.021518
-0.290427 0.054695 0.002671
-0.188409 -0.059753 0.029077
-0.260694 0.010795 0.004978
-0.280157 -0.049930 -0.039188
-0.195751 -0.035034 0.032883
-0.194142 -0.073055 0.014849
-0.273823 0.041307 0.002470
-0.216386 -0.014689 0.019872
-0.006164 -0.052746 0.161494
-0.262323 0.028125 0.003002
-0.041291 -0.024493 0.146860
-0.248748 0.027713 0.011822
-0.086924 0.001098 0.121953
-0.174746 -0.046963 0.033624
-0.180303 -0.076919 0.012673
-0.166675 -0.059136 0.030927
-0.240708 0.010728 0.002734
-0.181749 -0.026672 0.031096
-0.148896 0.036411 0.083624
-0.295178 0.039156 -0.028187
-0.229259 -0.002134 0.003584
-0.072185 0.001170 0.124746
-0.061475 -0.025744 0.118895
-0.173196 -0.050702 0.020751
-0.194844 -0.014552 0.020701
-0.253909 -0.009823 -0.023260
-0.164735 -0.034570 0.033525
0.014328 -0.045449 0.162003
-0.302059 0.031572 -0.044910
-0.154647 -0.046569 0.033641
-0.302790 0.088992 -0.019226
-0.144561 -0.066871 0.027031
-0.172399 -0.021950 0.025867
-0.168648 -0.030046 0.024035
-0.223704 -0.035916 -0.022535
-0.209422 -0.006361 0.001728
-0.012101 0.007516 0.156555
-0.311479 0.096126 -0.033140
-0.185170 0.017494 0.028215
-0.173868 -0.014421 0.021291
-0.165538 -0.050671 0.009746
-0.275282 0.040232 -0.033234
-0.151528 -0.026338 0.031109
-0.310172 0.119627 -0.025583
-0.201493 -0.044087 -0.016906
-0.134884 -0.046183 0.033656
-0.148912 -0.080378 0.006996
-0.007550 -0.058223 0.121502
-0.130129 -0.074949 0.019573
-0.115647 0.016520 0.071986
0.028320 -0.049175 0.146272
-0.062466 -0.044070 0.076025
-0.098216 -0.037917 0.052129
-0.030597 -0.060361 0.092183
-0.002686 -0.062263 0.109349
-0.095483 -0.025642 0.056095
-0.225392 0.017065 -0.024990
0.011983 -0.002536 0.146104
-0.033671 -0.068436 0.080592
0.019224 -0.057303 0.124837
-0.115723 -0.033869 0.033271
-0.143912 -0.014246 0.021025
-0.227053 -0.001110 -0.037862
-0.102304 -0.069788 0.024807
0.024232 -0.085779 0.112910
-0.084709 -0.020551 0.060197
0.009506 -0.069003 0.108887
-0.101334 -0.049500 0.033301
-0.110404 -0.078755 0.012781
-0.123174 -0.050468 0.012343
-0.176206 -0.010221 -0.010207
-0.250218 0.095303 -0.018937
0.028445 -0.046594 0.126732
0.046525 -0.080614 0.123589
-0.015500 -0.067790 0.081901
-0.011340 -0.105492 0.067572
0.042784 -0.095652 0.110134
-0.113776 -0.018923 0.027069
-0.124343 -0.014131 0.020850
-0.112884 -0.036003 0.018873
0.039728 -0.053257 0.125539
0.058212 0.009936 0.167275
-0.259056 0.091279 -0.036560
-0.213610 0.065101 -0.013339
-0.097448 -0.029680 0.032018
-0.089983 -0.077969 0.014615
-0.082444 -0.049099 0.033307
-0.078267 -0.069043 0.025362
0.031536 -0.061128 0.111546
-0.128422 -0.081522 -0.020662
0.062762 -0.094090 0.117545
0.001617 -0.097495 0.067710
-0.083340 -0.029502 0.031947
0.060992 -0.066546 0.121389
-0.089683 -0.082858 0.000353
-0.105111 -0.014019 0.020640
-0.041343 -0.043557 0.053979
0.074809 -0.075978 0.125392
0.013851 -0.104335 0.066865
-0.012701 -0.005744 0.091617
-0.070226 -0.077231 0.016004
-0.006975 -0.095333 0.053152
0.031694 -0.027639 0.111966
-0.048089 -0.075701 0.029246
-0.063423 -0.040882 0.033994
0.074559 -0.097550 0.110615
0.031732 -0.011213 0.116967
0.049140 -0.050407 0.107259
0.092687 -0.085506 0.123213
0.009859 -0.105790 0.052506
-0.086186 -0.013909 0.020428
-0.118632 -0.043876 -0.019607
-0.146784 0.091669 0.020001
-0.073287 -0.048783 0.010363
0.067574 -0.056597 0.112085
-0.106793 -0.011778 0.000359
0.094182 -0.096528 0.111442
-0.041040 -0.048219 0.033323
-0.069041 -0.000722 0.033481
-0.062362 -0.021499 0.028416
0.008865 -0.040446 0.070244
-0.046530 -0.029038 0.031765
-0.089891 0.002193 0.012869
-0.049269 -0.067681 0.010084
-0.020358 -0.050939 0.038718
-0.107609 -0.073262 -0.037662
-0.068114 0.059712 0.053404
0.086436 -0.059514 0.111217
0.055435 -0.051035 0.089757
0.100187 -0.065584 0.115798
-0.018464 -0.051544 0.033684
-0.033025 -0.028867 0.031696
0.084333 -0.084843 0.092213
0.020395 -0.017266 0.075439
-0.139082 0.040415 -0.018371
-0.067899 -0.009920 0.012284
-0.069940 -0.055194 -0.013504
-0.038707 -0.058632 0.007177
0.006316 -0.038814 0.049921
-0.108284 -0.000906 -0.019695
-0.019022 -0.032487 0.032738
-0.102098 -0.034221 -0.032559
0.006926 0.052309 0.088866
-0.000914 -0.051143 0.033651
-0.090817 0.055693 0.014465
-0.019113 -0.077712 0.006495
-0.101954 -0.004194 -0.024733
-0.049483 -0.009844 0.012066
-0.002284 -0.038317 0.033935
-0.060830 -0.034033 -0.008432
0.042763 0.039255 0.103033
0.099074 -0.074007 0.090836
0.072900 -0.058202 0.077618
-0.099844 -0.009231 -0.033023
-0.147487 0.056887 -0.039993
-0.026692 -0.013563 0.019742
-0.067810 -0.003861 -0.012307
-0.045344 -0.052425 -0.017808
-0.086535 -0.000718 -0.025814
0.016482 -0.039462 0.033831
0.000166 -0.020924 0.027882
-0.079752 -0.042417 -0.043635
0.029122 -0.050459 0.033542
0.068035 -0.052038 0.060394
-0.057242 -0.030446 -0.026364
0.070373 -0.029614 0.067777
-0.042649 -0.050192 -0.030039
-0.121434 0.085506 -0.027564
-0.019235 0.018497 0.019230
0.106594 0.002342 0.101660
0.021689 -0.020726 0.027688
0.069497 -0.052585 0.047363
-0.136750 0.110065 -0.033262
-0.059070 0.000979 -0.024692
0.050089 -0.049982 0.033466
-0.090523 0.046159 -0.029910
0.073431 -0.071091 0.038988
-0.010486 -0.080795 -0.028772
0.041177 -0.031626 0.032407
-0.092739 0.052947 -0.030538
0.083817 -0.055617 0.051910
0.055642 -0.056105 0.029800
-0.017988 -0.047636 -0.023490
0.039882 -0.059169 0.014700
0.026105 0.018227 0.039001
0.069080 -0.079678 0.021849
0.066530 -0.034912 0.033308
0.078930 -0.052965 0.033662
-0.077623 0.033546 -0.044148
0.018777 -0.051447 -0.010579
0.058478 -0.057604 0.015621
-0.039078 -0.011411 -0.039032
-0.002694 -0.056004 -0.033105
0.029993 -0.009513 0.011128
0.072764 0.003432 0.048288
0.097812 -0.074386 0.031105
-0.053648 0.031936 -0.035025
-0.041431 0.043096 -0.021123
0.090913 -0.045414 0.033443
0.077705 -0.027470 0.031141
0.070083 -0.016641 0.023895
0.051133 -0.009426 0.010880
-0.060283 0.099248 -0.023213
0.038677 -0.052968 -0.019712
0.110264 -0.055856 0.032337
-0.105512 0.136241 -0.043125
0.025163 -0.061625 -0.036684
0.015144 -0.057320 -0.041764
0.102714 -0.034334 0.033108
0.061429 -0.030372 0.002131
0.000390 0.006669 -0.025936
0.079765 0.013983 0.036716
0.118697 -0.074058 0.024789
-0.007494 -0.039586 -0.054778
-0.066319 0.093267 -0.037915
0.109215 -0.078847 0.012272
0.037346 -0.000268 -0.005669
-0.077839 0.103671 -0.044708
0.125440 -0.059089 0.031282
0.068139 -0.063082 -0.013370
0.118744 -0.041226 0.033767
0.090331 -0.016489 0.023667
0.084001 -0.045841 0.002579
0.065034 -0.003060 0.008108
-0.049921 0.077547 -0.043347
-0.027361 0.054775 -0.036920
0.089160 -0.038408 0.006866
0.001053 -0.027499 -0.056053
0.080029 -0.009306 0.010430
0.133810 -0.081425 0.014428
0.144494 -0.011157 0.053838
0.143918 -0.062220 0.029433
0.138062 -0.040850 0.033727
0.069965 -0.048932 -0.022263
-0.011375 0.012112 -0.056673
0.119598 -0.019826 0.026842
0.113830 -0.050536 0.007314
0.037712 0.001379 -0.026322
0.065722 -0.075864 -0.043313
0.074270 -0.008368 -0.006200
0.021253 -0.012254 -0.048088
-0.000807 0.074252 -0.024577
-0.026588 0.100457 -0.031744
0.083559 -0.013558 -0.005040
-0.008387 0.040160 -0.048466
0.080164 -0.052822 -0.025462
0.162942 -0.061643 0.029661
0.051917 -0.026737 -0.037323
0.017502 0.052103 -0.027607
0.108162 -0.009191 0.009898
0.071610 -0.009069 -0.017187
0.160784 -0.040408 0.033680
0.042950 -0.045706 -0.056186
0.165429 -0.076498 0.016747
0.012807 0.094431 -0.018076
0.140463 -0.065237 -0.001363
0.150375 -0.019543 0.026583
0.160950 -0.081032 0.005152
0.072146 0.073615 0.010640
0.179160 -0.047036 0.033149
0.127833 -0.009110 0.009524
0.188312 -0.064456 0.028128
0.071323 -0.035029 -0.047537
0.036958 0.046787 -0.037255
0.174514 -0.026248 0.030652
-0.009238 0.110478 -0.042895
0.181456 -0.079952 0.009426
0.026661 0.095024 -0.024968
0.108947 -0.052412 -0.034381
0.059666 0.021725 -0.036195
0.125770 0.056240 0.026840
0.201038 -0.046533 0.033175
0.048794 -0.097004 -0.103745
0.135684 -0.045558 -0.015154
0.088903 -0.014898 -0.036332
0.150991 -0.009015 0.009092
0.200760 -0.079058 0.011681
0.214379 -0.060080 0.030286
0.192837 -0.026018 0.030518
-0.022223 0.147631 -0.051529
0.178915 -0.015826 0.022675
0.071738 -0.091196 -0.092171
0.070213 0.060242 -0.025689
0.080673 0.049785 -0.026516
0.219037 -0.039274 0.033556
0.230041 -0.070231 0.024013
0.219561 -0.078202 0.013657
0.195423 -0.035831 0.013020
0.235633 -0.059435 0.030540
0.162203 -0.062487 -0.025053
0.162759 -0.005422 -0.000094
0.213784 -0.022357 0.028534
0.200865 -0.015662 0.022429
0.165129 -0.044552 -0.017863
0.260510 -0.020065 0.059252
0.097651 -0.090236 -0.092602
0.240074 -0.042241 0.033594
0.196364 0.027841 0.033365
0.126367 0.006113 -0.028430
0.143820 -0.082585 -0.057582
0.068500 0.071776 -0.043692
0.250064 -0.052173 0.032409
0.212152 -0.040891 0.006647
0.059213 0.111571 -0.036261
0.248571 -0.076936 0.015923
0.259415 -0.062154 0.029308
0.221559 -0.022393 0.019094
0.234949 -0.022127 0.028383
0.199537 -0.008817 0.008161
0.163968 0.003327 -0.013435
0.238252 -0.061010 0.009673
0.063124 0.112330 -0.040352
0.093183 -0.091903 -0.114166
0.270285 -0.055005 0.031760
0.148577 0.015989 -0.024940
0.260258 -0.031819 0.032203
0.208770 -0.055367 -0.016516
0.285057 -0.052377 0.038105
0.217644 -0.008742 0.007817
0.179267 -0.011574 -0.022523
0.300814 -0.049552 0.046022
0.280729 -0.044705 0.033213
0.270874 -0.079942 0.009354
0.289162 -0.064642 0.027423
0.250349 -0.015291 0.021877
0.288296 -0.079121 0.011086
0.279813 -0.024926 0.029818
0.248497 -0.055386 -0.008220
0.235152 0.022115 0.016700
0.284920 -0.006681 0.037374
0.304599 -0.067681 0.023296
0.257752 0.002502 0.021703
0.300133 -0.041037 0.031756
0.194411 -0.036869 -0.043253
0.196821 0.045226 -0.004155
0.270847 -0.015138 0.021648
0.249482 -0.008612 0.007218
0.136131 0.094864 -0.030040
0.110392 0.118512 -0.042930
0.318320 -0.057199 0.026430
0.219027 -0.013820 -0.026945
0.337302 -0.050167 0.040778
0.298795 -0.021462 0.026371
0.287547 -0.015016 0.021190
0.319273 -0.070906 0.016360
0.306012 -0.079107 0.001519
0.270184 -0.008527 0.006829
0.162559 0.092936 -0.026536
0.321706 -0.037495 0.027197
0.199364 0.020110 -0.034968
0.320625 -0.102728 -0.007125
0.178921 0.072973 -0.030102
0.303677 0.025638 0.036371
0.317606 -0.024596 0.023296
0.257296 -0.042404 -0.029962
0.344150 -0.019225 0.042751
0.306452 -0.014925 0.017356
0.326839 -0.016057 0.030394
0.352536 -0.064858 0.025666
0.290196 -0.008454 0.005315
0.242745 0.004773 -0.023664
0.204949 0.083713 -0.014333
0.339764 -0.047047 0.022369
0.323783 -0.079071 -0.007767
0.279744 0.043945 0.014104
0.347728 -0.060206 0.014828
0.338949 -0.071100 0.002614
0.331522 0.009785 0.032843
0.253148 -0.022513 -0.038025
0.310571 -0.058247 -0.014397
0.310002 -0.011727 0.004410
0.327931 -0.018139 0.011592
0.349032 -0.051273 0.009593
0.323689 -0.060752 -0.013642
0.239257 0.047707 -0.025087
0.219325 0.084173 -0.022050
0.336613 -0.060068 -0.006618
0.350308 -0.034221 0.011858
0.357814 -0.063937 0.001347
0.298501 -0.052077 -0.036151
0.291530 -0.010800 -0.023365
0.368216 -0.047031 0.007078
0.304221 -0.017082 -0.028079
0.351254 -0.027997 0.000129
0.347916 -0.005841 0.002573
0.277664 0.033754 -0.029508
0.330120 0.049518 0.009462
0.348337 -0.008632 -0.007115
0.340489 -0.040787 -0.027996
0.268715 0.071784 -0.031745
0.286526 0.047835 -0.031358
0.365620 -0.028520 -0.011559
0.359743 0.057108 0.021436
0.292383 0.071456 -0.020014
0.331437 0.059745 0.001133
0.337751 0.022888 -0.012709
0.325112 0.035076 -0.016488
0.259665 0.095851 -0.037525
0.313718 0.085418 -0.004945
0.340503 0.014946 -0.020479
0.298865 0.074301 -0.027075
0.281367 0.104873 -0.027669
0.364290 0.091201 0.022677
