0.003448 -0.102989 0.060735
0.000620 -0.095672 0.053874
-0.011561 -0.092464 0.057005
-0.011065 -0.103848 0.063019
0.003612 -0.088715 0.055239
-0.000025 -0.097522 0.058498
-0.010951 -0.102060 0.049302
-0.011012 -0.095135 0.062510
0.000178 -0.105950 0.052241
-0.001914 -0.096608 0.049598
0.003906 -0.099133 0.048673
-0.002921 -0.101617 0.051414
-0.008549 -0.093804 0.052736
-0.016188 -0.100697 0.059233
-0.001692 -0.093241 0.053612
-0.005005 -0.093485 0.058660
0.010073 -0.099295 0.054529
-0.005064 -0.104716 0.047352
-0.005902 -0.105057 0.057782
-0.009892 -0.106652 0.051300
-0.017187 -0.102607 0.050242
-0.013848 -0.097693 0.050236
0.005426 -0.093496 0.060071
0.010981 -0.049162 0.108937
0.031349 -0.048583 0.092594
0.042076 -0.048803 0.091140
0.023889 -0.049137 0.096477
0.014726 -0.049240 0.101554
0.015765 -0.046701 0.128075
0.017107 -0.047509 0.117947
0.046559 -0.048562 0.095609
0.024654 -0.046599 0.123994
0.032449 -0.047620 0.119704
0.027681 -0.047287 0.111227
0.003088 -0.049133 0.115268
0.003454 -0.047883 0.126324
0.039417 -0.047840 0.101234
0.029527 -0.047225 0.115950
0.020883 -0.050348 0.089867
0.011443 -0.046825 0.123926
0.034980 -0.047677 0.108044
0.036120 -0.048534 0.096929
0.039513 -0.049387 0.084462
0.032112 -0.048210 0.103821
0.018201 -0.047860 0.110341
0.009637 -0.048390 0.117017
0.027129 -0.048290 0.101399
0.023358 -0.046837 0.118468
0.043740 -0.048833 0.105185
0.029480 -0.050196 0.084662
0.023213 -0.048061 0.108746
0.021016 -0.048675 0.103224
0.006142 -0.050596 0.104556
0.012797 -0.050737 0.095050
0.037948 -0.047644 0.112639
-0.045577 -0.078738 0.023249
-0.019409 -0.080527 0.016666
0.000655 -0.080415 0.016858
-0.031188 -0.080153 0.018482
-0.040522 -0.078694 0.026045
-0.025884 -0.071980 0.031463
-0.031955 -0.077234 0.029560
0.014916 -0.079521 0.022276
-0.015242 -0.072451 0.031802
0.000607 -0.075432 0.029702
-0.013022 -0.077302 0.029397
-0.051618 -0.076160 0.029282
-0.042986 -0.074021 0.030151
0.006089 -0.078255 0.027894
-0.006174 -0.076953 0.029444
-0.038617 -0.080190 0.013627
-0.035516 -0.072288 0.031084
-0.004204 -0.078702 0.023384
-0.011248 -0.079877 0.021455
-0.008431 -0.080817 0.010995
-0.017900 -0.079102 0.026033
-0.038523 -0.078241 0.027900
-0.045783 -0.077135 0.027275
-0.023551 -0.079403 0.022602
-0.022421 -0.076095 0.029500
0.025817 -0.078602 0.026872
-0.027098 -0.080547 0.008294
-0.027448 -0.078656 0.026694
-0.033510 -0.079114 0.023210
-0.054276 -0.078373 0.023620
-0.047974 -0.079704 0.018660
0.012139 -0.076682 0.029891
-0.064820 -0.045067 0.033523
-0.058474 -0.036153 0.033544
-0.049623 -0.051544 0.032553
-0.055842 -0.045280 0.033811
-0.063542 -0.034233 0.033504
-0.052067 -0.042617 0.034464
-0.060676 -0.047513 0.033676
-0.037884 -0.042659 0.033903
-0.053866 -0.033340 0.033536
-0.043631 -0.054135 0.032264
-0.047050 -0.040742 0.033983
-0.069568 -0.037804 0.033797
-0.065596 -0.049316 0.033515
-0.046976 -0.034663 0.033316
-0.045116 -0.048593 0.033490
-0.063430 -0.053360 0.032392
-0.059814 -0.043136 0.033845
-0.050583 -0.056819 0.031113
-0.049538 -0.045923 0.033507
-0.042970 -0.044217 0.033739
-0.053557 -0.048663 0.033412
-0.062535 -0.039033 0.033705
-0.070926 -0.044567 0.033592
-0.050938 -0.038231 0.033860
-0.056115 -0.040196 0.034090
-0.039253 -0.049100 0.033065
-0.058625 -0.050957 0.032785
-0.054554 -0.053613 0.032342
-0.058883 -0.056643 0.031183
-0.070040 -0.050995 0.032588
-0.066617 -0.041419 0.033923
-0.042179 -0.038308 0.033961
0.058228 -0.096046 0.103307
0.074393 -0.088812 0.091760
0.083396 -0.093448 0.096687
0.067948 -0.095354 0.097804
0.064048 -0.081929 0.096564
0.073781 -0.096729 0.115929
0.067150 -0.097954 0.110358
0.088233 -0.093782 0.097711
0.072632 -0.086288 0.108516
0.081584 -0.097459 0.113537
0.074393 -0.097856 0.106832
0.054456 -0.095705 0.108826
0.059899 -0.096163 0.114329
0.081814 -0.082535 0.097726
0.078574 -0.098073 0.109910
0.062057 -0.091788 0.093895
0.066989 -0.097075 0.115151
0.080754 -0.096732 0.103984
0.078016 -0.095620 0.097793
0.079849 -0.089134 0.090704
0.077225 -0.097551 0.102746
0.064042 -0.096448 0.105124
0.059998 -0.097214 0.109261
0.072498 -0.096190 0.100521
0.072294 -0.097488 0.110913
0.088776 -0.096576 0.104782
0.068735 -0.089442 0.091310
0.069295 -0.097794 0.104699
0.063858 -0.096301 0.100922
0.052198 -0.094170 0.101614
0.056031 -0.091258 0.095318
0.085180 -0.097441 0.109023
0.014999 -0.048303 0.113450
0.034355 -0.048405 0.091550
0.047672 -0.057235 0.096850
0.028465 -0.048739 0.100053
0.014158 -0.047752 0.106041
0.018699 -0.045683 0.132470
0.014911 -0.045430 0.123309
0.051869 -0.049412 0.095739
0.028999 -0.046043 0.128032
0.033151 -0.052204 0.121403
0.034575 -0.046107 0.111889
0.005176 -0.045437 0.118781
0.012885 -0.054745 0.129184
0.046098 -0.048097 0.104119
0.032903 -0.047349 0.120181
0.027536 -0.059183 0.094711
0.010554 -0.043297 0.128934
0.037360 -0.054005 0.110665
0.041723 -0.048313 0.097684
0.050441 -0.050740 0.084632
0.036328 -0.057615 0.103862
0.024134 -0.045439 0.113226
0.009990 -0.056259 0.121224
0.031337 -0.046150 0.107332
0.025775 -0.045118 0.121276
0.045217 -0.054588 0.108176
0.040064 -0.059567 0.087850
0.025698 -0.056873 0.115366
0.026915 -0.056683 0.106065
0.012293 -0.058665 0.107184
0.018517 -0.050227 0.095664
0.040900 -0.047688 0.115400
0.024640 -0.053192 0.108445
0.033925 -0.048650 0.104686
0.051014 -0.060126 0.104126
0.036480 -0.052521 0.107439
0.023598 -0.050258 0.110724
0.039599 -0.051799 0.113064
0.031906 -0.054508 0.111547
0.059482 -0.051448 0.105802
0.041541 -0.050577 0.110183
0.052796 -0.059997 0.107369
0.047353 -0.050836 0.107365
0.011556 -0.051408 0.110115
0.024149 -0.059194 0.112387
0.048723 -0.050465 0.106169
0.048467 -0.053664 0.109468
0.026365 -0.059327 0.105675
0.029764 -0.052034 0.113998
0.043648 -0.063222 0.104762
0.045100 -0.051754 0.104458
0.053406 -0.051576 0.102173
0.042122 -0.057889 0.106708
0.029128 -0.050569 0.108986
0.013426 -0.056694 0.111215
0.042011 -0.050133 0.108285
0.036309 -0.048843 0.111387
0.061979 -0.058065 0.105457
0.036448 -0.058319 0.101785
0.037509 -0.062247 0.110889
0.027672 -0.064930 0.107733
0.007998 -0.063199 0.107203
0.017549 -0.051803 0.105010
0.052637 -0.052466 0.108834
0.080009 -0.085585 0.121808
0.087560 -0.072055 0.114733
0.092973 -0.094425 0.115192
0.086587 -0.083870 0.122564
0.080351 -0.069884 0.120633
0.090658 -0.081780 0.123345
0.085340 -0.089667 0.121145
0.097483 -0.080262 0.120306
0.088326 -0.069884 0.119933
0.095190 -0.095050 0.115057
0.094580 -0.080315 0.122757
0.074979 -0.075354 0.122771
0.080872 -0.091853 0.119606
0.093437 -0.070619 0.119251
0.094291 -0.087765 0.120297
0.079774 -0.094554 0.114226
0.083163 -0.081217 0.123184
0.090405 -0.097112 0.109948
0.091027 -0.084786 0.120725
0.094521 -0.084093 0.113449
0.090113 -0.091049 0.119807
0.083191 -0.074356 0.123390
0.074133 -0.084960 0.121415
0.091766 -0.075058 0.123277
0.087213 -0.077581 0.124006
0.097080 -0.089545 0.117766
0.088591 -0.091887 0.107336
0.087028 -0.094458 0.116453
0.084319 -0.096961 0.111103
0.074593 -0.093362 0.116633
0.079324 -0.079900 0.116886
0.096110 -0.075709 0.122071
-0.006823 -0.104027 0.052061
0.001045 -0.093946 0.051172
0.013058 -0.106757 0.050758
0.000868 -0.103458 0.051050
-0.001187 -0.088583 0.055947
0.006046 -0.102872 0.065169
-0.001396 -0.104728 0.056597
0.014109 -0.100632 0.052698
0.006128 -0.094238 0.061477
0.012730 -0.106439 0.063544
0.008877 -0.102840 0.053206
-0.007902 -0.094952 0.054651
-0.003095 -0.107976 0.063332
0.009392 -0.095217 0.054381
0.008897 -0.104206 0.059719
-0.005476 -0.105950 0.049589
-0.002156 -0.099095 0.061950
0.008917 -0.107674 0.054566
0.005850 -0.102459 0.049061
0.011881 -0.104450 0.049086
0.005404 -0.106732 0.050889
-0.002389 -0.098311 0.051126
-0.011111 -0.105055 0.059124
0.005799 -0.098604 0.052733
0.003123 -0.099918 0.057197
0.017201 -0.104457 0.055133
0.002095 -0.107480 0.048079
0.002972 -0.108990 0.058249
-0.002884 -0.108540 0.053459
-0.013039 -0.105867 0.049864
-0.009062 -0.100907 0.049491
0.012418 -0.100517 0.060551
-0.095963 -0.010908 0.013341
-0.082483 -0.008791 0.002743
-0.074369 -0.008622 0.001134
-0.088162 -0.008927 0.004688
-0.093192 -0.009513 0.008731
-0.085467 -0.019293 0.027091
-0.087694 -0.013917 0.020132
-0.069678 -0.009188 0.006272
-0.079214 -0.018142 0.025901
-0.073376 -0.016770 0.024226
-0.081419 -0.012740 0.018050
-0.099966 -0.012727 0.017892
-0.096367 -0.016484 0.023790
-0.073546 -0.010061 0.010869
-0.077147 -0.014466 0.021214
-0.092304 -0.008426 -0.000033
-0.090057 -0.016979 0.023747
-0.075923 -0.011767 0.015783
-0.077802 -0.009241 0.006706
-0.079200 -0.008575 -0.003160
-0.079951 -0.010651 0.012628
-0.090935 -0.011812 0.015720
-0.093932 -0.013649 0.019346
-0.083791 -0.009724 0.009157
-0.083248 -0.015422 0.022515
-0.067774 -0.011178 0.013644
-0.086395 -0.008418 -0.003997
-0.085515 -0.011374 0.015209
-0.088885 -0.010003 0.010532
-0.100800 -0.010066 0.010111
-0.097295 -0.008771 0.003770
-0.070548 -0.013346 0.019213
-0.146030 -0.053692 -0.033768
-0.134372 -0.042260 -0.035197
-0.109663 -0.062732 -0.031505
-0.125433 -0.056641 -0.033812
-0.148336 -0.040018 -0.034809
-0.117951 -0.051957 -0.034530
-0.138958 -0.058422 -0.032765
-0.081233 -0.052225 -0.035232
-0.121106 -0.038958 -0.035274
-0.095650 -0.066742 -0.030579
-0.104098 -0.049126 -0.035278
-0.164046 -0.044425 -0.034579
-0.152851 -0.059521 -0.031940
-0.103948 -0.040745 -0.035857
-0.099576 -0.059914 -0.032852
-0.143107 -0.065419 -0.029785
-0.133386 -0.052064 -0.034628
-0.111550 -0.069290 -0.028734
-0.108869 -0.056181 -0.034258
-0.092947 -0.054091 -0.034383
-0.118030 -0.059105 -0.032701
-0.142811 -0.046787 -0.035145
-0.163072 -0.052493 -0.033325
-0.112821 -0.045636 -0.035396
-0.126227 -0.047315 -0.034921
-0.085415 -0.060801 -0.033035
-0.131083 -0.061611 -0.031319
-0.121165 -0.066072 -0.030248
-0.132594 -0.068778 -0.028420
-0.161731 -0.062141 -0.030881
-0.153563 -0.049381 -0.034150
-0.092742 -0.045739 -0.035596
-0.144564 -0.010035 0.003136
-0.107992 -0.009494 -0.008676
-0.086327 -0.008893 -0.010351
-0.122113 -0.009071 -0.007177
-0.137497 -0.009035 -0.002293
-0.117674 -0.017411 0.023464
-0.123593 -0.012000 0.012245
-0.075150 -0.008220 -0.005988
-0.101743 -0.016024 0.021228
-0.084506 -0.014603 0.019517
-0.103351 -0.011002 0.010288
-0.155340 -0.011682 0.010382
-0.146229 -0.014138 0.019520
-0.083227 -0.009097 0.001108
-0.093037 -0.012228 0.014708
-0.133953 -0.009660 -0.012067
-0.131622 -0.014429 0.017923
-0.090644 -0.009376 0.005328
-0.097229 -0.008857 -0.004320
-0.098024 -0.010680 -0.015000
-0.103845 -0.009386 0.002294
-0.132621 -0.010472 0.007209
-0.141938 -0.011619 0.011404
-0.112390 -0.009127 -0.001688
-0.110631 -0.012985 0.015852
-0.067883 -0.009464 0.004246
-0.116381 -0.010399 -0.015658
-0.116977 -0.009498 0.006443
-0.125109 -0.008500 -0.000394
-0.156595 -0.009006 -0.000077
-0.147749 -0.009318 -0.007413
-0.077701 -0.011458 0.011516
-0.098867 -0.079879 -0.009957
-0.067547 -0.062217 -0.024538
-0.037975 -0.079175 -0.013789
-0.077993 -0.078687 -0.014609
-0.097177 -0.041853 -0.018681
-0.065261 -0.078979 0.010444
-0.081612 -0.081406 0.000115
-0.020794 -0.078407 -0.015361
-0.065475 -0.044748 0.004357
-0.037279 -0.081806 0.004206
-0.057464 -0.080708 -0.002657
-0.113831 -0.073039 -0.001974
-0.093680 -0.080205 0.007471
-0.033780 -0.046774 -0.018108
-0.049892 -0.081444 0.003442
-0.091179 -0.075907 -0.017466
-0.083317 -0.075125 0.009421
-0.045926 -0.081342 -0.007790
-0.056379 -0.078541 -0.016485
-0.045916 -0.073512 -0.021281
-0.060070 -0.081686 -0.009103
-0.089921 -0.076315 -0.008522
-0.102505 -0.080508 0.000716
-0.065267 -0.074581 -0.012430
-0.070144 -0.079404 0.001905
-0.013225 -0.082274 -0.005287
-0.073940 -0.074525 -0.019881
-0.073038 -0.081649 -0.005428
-0.086330 -0.080002 -0.010666
-0.116352 -0.079150 -0.009538
-0.105964 -0.075384 -0.017459
-0.029685 -0.076866 -0.000178
0.039552 -0.062849 0.103866
0.060046 -0.064729 0.095181
0.075674 -0.066181 0.092607
0.052168 -0.065380 0.096456
0.044934 -0.063548 0.100968
0.057346 -0.062701 0.115944
0.051501 -0.060209 0.109485
0.079857 -0.061732 0.096878
0.064628 -0.060483 0.113515
0.074625 -0.059481 0.111262
0.062834 -0.058256 0.106467
0.033983 -0.064756 0.108547
0.041347 -0.064412 0.114016
0.073462 -0.058958 0.101301
0.068366 -0.058489 0.108595
0.045217 -0.072132 0.094182
0.048786 -0.062715 0.113545
0.067490 -0.064026 0.101511
0.068700 -0.061226 0.096754
0.066796 -0.070137 0.092186
0.063243 -0.059557 0.101055
0.047874 -0.060622 0.104720
0.041879 -0.061803 0.108295
0.057928 -0.060401 0.100482
0.058754 -0.059159 0.110240
0.085537 -0.060228 0.101460
0.056727 -0.074290 0.092228
0.055277 -0.060006 0.104299
0.049951 -0.066860 0.100161
0.031556 -0.067759 0.102227
0.037858 -0.069690 0.098394
0.078310 -0.059080 0.106295
-0.151157 -0.016083 -0.027059
-0.122044 -0.024724 -0.034474
-0.102920 -0.025024 -0.034906
-0.133443 -0.023727 -0.033053
-0.145702 -0.019940 -0.030113
-0.128277 -0.009846 -0.012597
-0.134122 -0.012418 -0.020504
-0.095535 -0.020770 -0.031395
-0.116772 -0.010096 -0.014730
-0.104382 -0.011029 -0.016392
-0.118392 -0.013115 -0.022905
-0.159981 -0.013671 -0.021892
-0.149684 -0.010755 -0.015352
-0.102076 -0.016834 -0.028670
-0.111406 -0.011931 -0.019835
-0.142805 -0.027224 -0.035460
-0.138318 -0.010594 -0.015763
-0.108939 -0.015046 -0.025955
-0.112933 -0.021364 -0.031946
-0.112633 -0.028738 -0.037220
-0.118600 -0.016493 -0.027504
-0.140873 -0.014534 -0.024757
-0.149502 -0.012643 -0.021501
-0.125132 -0.019329 -0.029793
-0.124509 -0.011465 -0.018519
-0.090238 -0.015627 -0.026552
-0.128900 -0.029860 -0.037255
-0.129134 -0.015096 -0.025124
-0.137117 -0.017903 -0.028895
-0.164191 -0.018404 -0.028248
-0.155395 -0.024120 -0.032559
-0.097499 -0.012555 -0.021889
0.080910 -0.097038 0.106088
0.091007 -0.087642 0.094729
0.096667 -0.094913 0.099197
0.088176 -0.095980 0.101203
0.085218 -0.082052 0.101358
0.091939 -0.094483 0.119445
0.086552 -0.096869 0.113152
0.098723 -0.092810 0.100597
0.090563 -0.082685 0.113432
0.095659 -0.095726 0.116496
0.092346 -0.096109 0.109413
0.076729 -0.093708 0.110657
0.082467 -0.096267 0.117550
0.094782 -0.083035 0.101722
0.093718 -0.096594 0.113423
0.083973 -0.094514 0.096898
0.086878 -0.093851 0.117613
0.095120 -0.096959 0.108169
0.093173 -0.095324 0.099901
0.095213 -0.091199 0.094025
0.093414 -0.097222 0.105327
0.085259 -0.094431 0.106944
0.080254 -0.097474 0.112045
0.091653 -0.094018 0.104198
0.090375 -0.095305 0.113354
0.099065 -0.095485 0.107911
0.088131 -0.092871 0.094043
0.088476 -0.097848 0.108303
0.084698 -0.097715 0.103611
0.075184 -0.096741 0.103439
0.079327 -0.093177 0.097170
0.097554 -0.093046 0.112446
-0.043781 -0.060460 0.031951
-0.036036 -0.050419 0.033434
-0.022065 -0.067944 0.029894
-0.031813 -0.061197 0.032232
-0.043590 -0.048361 0.033617
-0.026770 -0.057723 0.033342
-0.038788 -0.063926 0.031619
-0.004858 -0.057730 0.032786
-0.028961 -0.047230 0.033944
-0.012909 -0.070526 0.029324
-0.018973 -0.055654 0.033231
-0.052293 -0.052388 0.033283
-0.046463 -0.065397 0.030966
-0.018924 -0.048629 0.033525
-0.015925 -0.064377 0.031510
-0.042674 -0.070163 0.029234
-0.036937 -0.058464 0.032672
-0.023618 -0.073156 0.027064
-0.022218 -0.061478 0.031854
-0.012215 -0.059725 0.032256
-0.027652 -0.064822 0.031324
-0.041198 -0.053731 0.033267
-0.053432 -0.060198 0.031885
-0.024365 -0.052732 0.033590
-0.031972 -0.054705 0.033524
-0.005965 -0.065441 0.030926
-0.035027 -0.067432 0.029757
-0.029612 -0.070182 0.029370
-0.036066 -0.072991 0.027283
-0.052696 -0.067641 0.029842
-0.047118 -0.056425 0.032900
-0.011810 -0.052811 0.033705
-0.060838 -0.020018 0.027257
-0.050297 -0.013841 0.021253
-0.033407 -0.025877 0.031241
-0.047089 -0.020168 0.027596
-0.060202 -0.013133 0.019869
-0.041541 -0.018641 0.026446
-0.054238 -0.022260 0.029132
-0.015125 -0.017997 0.025892
-0.041853 -0.012375 0.019162
-0.023744 -0.028237 0.032521
-0.032022 -0.016712 0.024848
-0.070816 -0.015300 0.022359
-0.064331 -0.024107 0.030312
-0.029240 -0.013060 0.020035
-0.027506 -0.022367 0.029244
-0.059167 -0.027517 0.032404
-0.052518 -0.017902 0.025330
-0.036793 -0.030575 0.033370
-0.035221 -0.020672 0.028023
-0.024817 -0.018839 0.026726
-0.040286 -0.023670 0.030013
-0.057081 -0.015617 0.022890
-0.070010 -0.019582 0.026505
-0.037696 -0.014922 0.022395
-0.045494 -0.015794 0.023985
-0.014935 -0.023572 0.029604
-0.049716 -0.024390 0.030403
-0.045049 -0.027382 0.032355
-0.052362 -0.030394 0.033118
-0.071898 -0.025184 0.030451
-0.064077 -0.017141 0.024885
-0.021738 -0.014682 0.022450
-0.064993 -0.020821 0.027687
-0.057556 -0.013713 0.020882
-0.047901 -0.026781 0.031203
-0.055340 -0.020801 0.027863
-0.063316 -0.012238 0.018746
-0.051371 -0.018650 0.026810
-0.060121 -0.022687 0.029321
-0.036870 -0.018735 0.026506
-0.052801 -0.011598 0.017969
-0.042251 -0.028851 0.032553
-0.046146 -0.017198 0.025433
-0.069854 -0.015019 0.022402
-0.065737 -0.024564 0.030490
-0.045559 -0.012582 0.019457
-0.044051 -0.023646 0.030012
-0.063715 -0.028409 0.031943
-0.059160 -0.018773 0.026241
-0.049729 -0.031583 0.033375
-0.048561 -0.021728 0.028376
-0.042247 -0.020174 0.027748
-0.052282 -0.024139 0.030004
-0.062181 -0.015867 0.023238
-0.070836 -0.020262 0.027111
-0.049966 -0.015191 0.022901
-0.055190 -0.016511 0.024542
-0.037436 -0.024021 0.029871
-0.058007 -0.025868 0.030969
-0.054150 -0.028195 0.032265
-0.058668 -0.031440 0.033064
-0.071285 -0.025728 0.030529
-0.066607 -0.017861 0.025314
-0.040921 -0.015240 0.023118
-0.006439 -0.066097 0.058269
0.014435 -0.066548 0.040981
0.028179 -0.069514 0.040104
0.006659 -0.068575 0.044939
-0.002171 -0.064243 0.050362
0.008087 -0.062966 0.082604
0.003866 -0.064819 0.069293
0.035276 -0.068250 0.046868
0.015867 -0.060662 0.078017
0.026408 -0.064169 0.075736
0.014813 -0.065574 0.064436
-0.012870 -0.063124 0.065811
-0.007833 -0.062858 0.077417
0.027863 -0.064686 0.053573
0.020672 -0.064714 0.070381
0.000190 -0.068661 0.037975
0.001138 -0.062319 0.076559
0.024148 -0.065879 0.061016
0.020662 -0.068486 0.046900
0.022212 -0.070463 0.031741
0.017963 -0.067183 0.056212
0.001340 -0.064691 0.062515
-0.005772 -0.064444 0.068752
0.012155 -0.066505 0.051333
0.011099 -0.064106 0.072573
0.036237 -0.066780 0.058860
0.008515 -0.070322 0.031040
0.008831 -0.066101 0.059329
0.002802 -0.066922 0.052554
-0.012926 -0.066415 0.053311
-0.008879 -0.068020 0.043317
0.031023 -0.064170 0.067997
-0.053687 -0.028482 0.031441
-0.046829 -0.020269 0.027217
-0.037659 -0.034451 0.033274
-0.044034 -0.028544 0.031746
-0.052189 -0.018698 0.026117
-0.040125 -0.026284 0.031367
-0.049328 -0.030333 0.032617
-0.026328 -0.026176 0.030793
-0.042131 -0.017961 0.025711
-0.031913 -0.036629 0.034158
-0.035100 -0.024574 0.030193
-0.058647 -0.021962 0.028400
-0.054516 -0.032422 0.033342
-0.035122 -0.019085 0.026330
-0.033231 -0.031627 0.033066
-0.052425 -0.036083 0.033726
-0.047974 -0.026514 0.030875
-0.039041 -0.039221 0.034310
-0.037667 -0.029401 0.031773
-0.031238 -0.027714 0.031486
-0.041792 -0.031830 0.032788
-0.051124 -0.023017 0.028736
-0.059849 -0.027851 0.031262
-0.038998 -0.022339 0.028671
-0.044359 -0.024036 0.029777
-0.027472 -0.031837 0.032767
-0.047243 -0.033726 0.033203
-0.042942 -0.036075 0.034043
-0.047370 -0.039225 0.034140
-0.059569 -0.033471 0.032975
-0.055361 -0.025157 0.030101
-0.030392 -0.022354 0.028928
-0.108128 -0.008511 -0.002540
-0.088009 -0.009799 -0.012455
-0.075168 -0.010366 -0.013784
-0.095948 -0.009580 -0.010837
-0.104391 -0.008853 -0.007513
-0.092809 -0.010932 0.014148
-0.096266 -0.008808 0.004995
-0.068955 -0.008893 -0.009241
-0.083900 -0.010145 0.012113
-0.074557 -0.009833 0.010056
-0.086098 -0.008324 0.002538
-0.114762 -0.008531 0.002502
-0.108650 -0.009855 0.010376
-0.074779 -0.008220 -0.004850
-0.080326 -0.008835 0.006283
-0.102619 -0.011063 -0.015044
-0.100026 -0.009802 0.010124
-0.078457 -0.008381 0.000019
-0.081239 -0.009026 -0.009009
-0.082264 -0.011798 -0.017080
-0.084585 -0.008579 -0.003305
-0.100545 -0.008260 0.000167
-0.106228 -0.008843 0.003969
-0.089976 -0.008754 -0.006602
-0.089681 -0.009100 0.007608
-0.066118 -0.008343 -0.001883
-0.093051 -0.012043 -0.017474
-0.092399 -0.008372 -0.000582
-0.098129 -0.008663 -0.005144
-0.116455 -0.008815 -0.005568
-0.110740 -0.009907 -0.011494
-0.070961 -0.008389 0.003786
-0.040557 -0.081408 -0.010399
-0.011588 -0.078188 -0.020613
0.006810 -0.079241 -0.018124
-0.024264 -0.079929 -0.016490
-0.033313 -0.064795 -0.016423
-0.018094 -0.080623 0.006914
-0.025793 -0.082140 -0.001771
0.019129 -0.079917 -0.016490
-0.012295 -0.067048 0.001622
0.004478 -0.082494 0.002876
-0.009768 -0.082141 -0.004417
-0.048496 -0.081518 -0.002209
-0.040141 -0.081177 0.004874
0.011529 -0.063605 -0.014800
-0.002345 -0.082312 -0.001384
-0.033446 -0.077889 -0.020761
-0.029298 -0.081287 0.004801
0.002260 -0.081596 -0.010138
-0.004053 -0.080501 -0.015593
-0.002541 -0.076728 -0.022755
-0.009271 -0.082258 -0.010391
-0.032890 -0.081661 -0.005981
-0.038868 -0.081867 -0.002459
-0.016747 -0.081126 -0.013173
-0.015971 -0.081486 0.000168
0.024045 -0.081979 -0.008912
-0.020545 -0.076157 -0.023008
-0.021402 -0.081936 -0.008261
-0.029462 -0.081109 -0.012895
-0.051094 -0.080445 -0.012134
-0.043730 -0.078447 -0.018214
0.013926 -0.082193 -0.003591
-0.016058 -0.069378 0.032842
-0.006069 -0.058757 0.033725
0.015389 -0.075130 0.031522
0.000011 -0.069848 0.033553
-0.016394 -0.057501 0.033542
0.007078 -0.067273 0.034606
-0.010350 -0.072774 0.032675
0.038305 -0.065555 0.033605
0.004059 -0.055878 0.033953
0.028656 -0.076430 0.030988
0.018682 -0.064225 0.033848
-0.028185 -0.061518 0.033072
-0.022022 -0.074019 0.032255
0.018087 -0.057011 0.033676
0.023334 -0.072205 0.033079
-0.016120 -0.077016 0.029905
-0.006564 -0.067101 0.033476
0.011617 -0.077150 0.027956
0.014101 -0.069701 0.033101
0.028833 -0.068700 0.033647
0.006980 -0.073328 0.032622
-0.012731 -0.062906 0.033460
-0.029825 -0.069114 0.032378
0.011015 -0.061428 0.033982
0.000705 -0.063237 0.034049
0.039314 -0.072942 0.032234
-0.004045 -0.075433 0.031251
0.003021 -0.076405 0.031270
-0.006116 -0.077342 0.028384
-0.031166 -0.074580 0.030945
-0.020856 -0.065443 0.033562
0.028179 -0.060984 0.034132
-0.060579 -0.061411 -0.032212
-0.044105 -0.050533 -0.034831
-0.004473 -0.071569 -0.029330
-0.033079 -0.064111 -0.032345
-0.064089 -0.047914 -0.034072
-0.022291 -0.059836 -0.033875
-0.051275 -0.066504 -0.031850
0.036453 -0.059506 -0.034935
-0.024544 -0.048006 -0.035132
0.017816 -0.074944 -0.028567
0.000640 -0.058003 -0.034300
-0.085937 -0.052286 -0.033987
-0.072764 -0.067324 -0.030210
0.003234 -0.049351 -0.035284
0.008503 -0.067147 -0.032252
-0.059356 -0.072124 -0.026866
-0.043707 -0.058355 -0.034260
-0.011324 -0.075912 -0.025784
-0.007796 -0.063668 -0.033218
0.019041 -0.062507 -0.033834
-0.018737 -0.068299 -0.030665
-0.056627 -0.054550 -0.034476
-0.082963 -0.061205 -0.032016
-0.012528 -0.053648 -0.034884
-0.031572 -0.054013 -0.034353
0.035726 -0.069219 -0.032276
-0.039628 -0.069142 -0.029708
-0.027815 -0.073311 -0.028381
-0.045473 -0.074813 -0.024974
-0.086141 -0.069236 -0.028199
-0.071162 -0.056743 -0.032998
0.019404 -0.053767 -0.034926
-0.018211 -0.065923 0.028254
-0.004814 -0.052256 0.028934
0.022769 -0.072467 0.027205
0.001582 -0.066083 0.028946
-0.018926 -0.048489 0.029076
0.009761 -0.063382 0.029417
-0.010518 -0.070011 0.027274
0.047416 -0.061376 0.028265
0.007719 -0.048573 0.029067
0.039090 -0.074768 0.027037
0.024345 -0.061125 0.029870
-0.034654 -0.055715 0.028128
-0.026849 -0.069942 0.027265
0.025016 -0.050629 0.029909
0.031628 -0.068751 0.028505
-0.019062 -0.075050 0.025774
-0.006957 -0.061880 0.027344
0.018792 -0.075737 0.023546
0.019346 -0.066077 0.028428
0.037574 -0.065838 0.028015
0.012212 -0.070144 0.028441
-0.014219 -0.057761 0.028943
-0.035856 -0.065911 0.027994
0.016107 -0.056484 0.029637
0.004262 -0.058237 0.029857
0.051709 -0.070557 0.027484
-0.002199 -0.072516 0.025864
0.004531 -0.074220 0.026928
-0.006567 -0.075854 0.023627
-0.039398 -0.072399 0.027053
-0.024891 -0.060881 0.029010
0.036256 -0.056139 0.030063
0.062533 -0.059449 0.104692
0.082305 -0.062429 0.095733
0.093206 -0.064422 0.094923
0.075021 -0.061918 0.096861
0.067307 -0.060369 0.100426
0.078918 -0.062669 0.119744
0.075139 -0.059175 0.111588
0.097058 -0.061981 0.099375
0.086299 -0.061557 0.117542
0.093844 -0.061767 0.115682
0.084218 -0.058500 0.109240
0.055984 -0.060148 0.109713
0.063833 -0.061732 0.116747
0.092941 -0.059431 0.103114
0.089025 -0.059526 0.112499
0.068438 -0.065787 0.093076
0.072289 -0.060932 0.116354
0.089576 -0.059913 0.106904
0.088401 -0.060657 0.098906
0.087217 -0.067149 0.092577
0.085190 -0.059209 0.103734
0.070589 -0.058603 0.106728
0.064824 -0.059447 0.110653
0.080565 -0.059591 0.100984
0.081182 -0.059505 0.113682
0.099291 -0.061321 0.105381
0.077568 -0.068095 0.091522
0.078552 -0.058743 0.106703
0.073533 -0.060263 0.101769
0.053199 -0.061231 0.101612
0.060207 -0.063243 0.096423
0.095671 -0.060285 0.110208
0.033049 -0.050004 0.090164
0.053425 -0.050488 0.075624
0.062937 -0.051182 0.074461
0.046280 -0.050458 0.078840
0.037457 -0.050263 0.083940
0.039011 -0.049002 0.106762
0.040382 -0.049193 0.097421
0.066151 -0.052074 0.078358
0.046312 -0.049785 0.102542
0.052718 -0.051512 0.097985
0.049670 -0.049525 0.091384
0.024295 -0.049874 0.096929
0.027788 -0.048923 0.106704
0.060064 -0.050745 0.082389
0.051044 -0.050032 0.094670
0.042899 -0.051169 0.073140
0.035807 -0.048645 0.102942
0.055844 -0.050403 0.088201
0.057465 -0.050721 0.079295
0.060559 -0.051182 0.069362
0.053773 -0.050172 0.084839
0.040840 -0.049409 0.091171
0.031957 -0.049511 0.097825
0.049935 -0.050149 0.082763
0.045548 -0.049261 0.097832
0.062947 -0.052869 0.085650
0.051063 -0.051274 0.068182
0.046425 -0.049653 0.089145
0.043912 -0.049850 0.085296
0.025038 -0.050952 0.086229
0.033551 -0.051260 0.077744
0.057499 -0.051619 0.091547
0.079721 -0.061630 0.110264
0.092808 -0.062979 0.099536
0.097271 -0.070174 0.099867
0.087852 -0.062294 0.101992
0.083560 -0.060280 0.105705
0.091467 -0.073318 0.125827
0.087241 -0.064153 0.117337
0.100119 -0.063790 0.102633
0.096249 -0.070670 0.123051
0.099468 -0.072285 0.122260
0.094955 -0.063238 0.114542
0.074874 -0.062852 0.115427
0.081256 -0.071322 0.122610
0.098892 -0.062973 0.108574
0.097327 -0.066849 0.118613
0.084171 -0.064176 0.096853
0.086616 -0.068212 0.122452
0.094590 -0.076411 0.113829
0.096786 -0.062748 0.103390
0.095814 -0.066762 0.095879
0.094554 -0.063658 0.109614
0.085723 -0.061966 0.112154
0.080447 -0.063623 0.118183
0.091398 -0.061463 0.107221
0.092335 -0.065866 0.119815
0.101974 -0.066157 0.110987
0.089847 -0.067498 0.093782
0.089733 -0.064429 0.113582
0.086448 -0.075289 0.106432
0.072554 -0.061886 0.105892
0.078883 -0.061616 0.099891
0.100318 -0.066099 0.116084
-0.019557 -0.064729 0.033322
-0.011350 -0.053749 0.033459
0.005487 -0.073061 0.031919
-0.006230 -0.065555 0.033586
-0.019799 -0.052243 0.033520
-0.000539 -0.061644 0.034320
-0.014539 -0.068687 0.033230
0.026088 -0.061405 0.033478
-0.003179 -0.050833 0.033839
0.016918 -0.075228 0.031426
0.009028 -0.059334 0.033877
-0.028911 -0.056013 0.033612
-0.023022 -0.070646 0.032798
0.008671 -0.052127 0.033422
0.012800 -0.068924 0.033175
-0.018759 -0.075590 0.031146
-0.011966 -0.062362 0.033621
0.003280 -0.077333 0.028914
0.005096 -0.065656 0.033208
0.017728 -0.063977 0.033537
-0.001247 -0.070017 0.032978
-0.016786 -0.057292 0.033697
-0.030541 -0.065295 0.033199
0.002412 -0.056137 0.033980
-0.006460 -0.058238 0.034078
0.025290 -0.070460 0.032547
-0.009903 -0.073053 0.031972
-0.003630 -0.075267 0.031625
-0.011050 -0.077547 0.029157
-0.029775 -0.073210 0.031826
-0.023245 -0.060115 0.033753
0.017304 -0.056140 0.033979
-0.037628 -0.028874 0.031567
-0.030646 -0.020793 0.027699
-0.020768 -0.034697 0.033213
-0.027653 -0.029012 0.031881
-0.036334 -0.019266 0.026766
-0.023615 -0.026832 0.031562
-0.033243 -0.030746 0.032667
-0.008515 -0.026583 0.030958
-0.025554 -0.018603 0.026395
-0.014631 -0.036814 0.034035
-0.018117 -0.025107 0.030447
-0.043129 -0.022530 0.028827
-0.038737 -0.032754 0.033350
-0.018007 -0.019673 0.026889
-0.016126 -0.031946 0.033060
-0.036293 -0.036244 0.033643
-0.031721 -0.026956 0.031061
-0.022334 -0.039282 0.034123
-0.020823 -0.029740 0.031837
-0.013782 -0.028116 0.031566
-0.025119 -0.032189 0.032817
-0.035080 -0.023570 0.029082
-0.044059 -0.028292 0.031425
-0.022225 -0.022916 0.029049
-0.027904 -0.024530 0.030085
-0.009776 -0.032218 0.032771
-0.030867 -0.033957 0.033124
-0.026503 -0.036299 0.033944
-0.031193 -0.039317 0.033979
-0.043871 -0.033797 0.032973
-0.039518 -0.025626 0.030347
-0.012980 -0.022908 0.029300
0.056268 -0.083422 0.089474
0.068375 -0.071367 0.088933
0.081230 -0.090851 0.093000
0.071678 -0.082991 0.089041
0.057442 -0.069649 0.090305
0.077698 -0.078895 0.088887
0.063605 -0.086130 0.090192
0.094063 -0.079225 0.090210
0.075478 -0.067995 0.090133
0.088177 -0.092505 0.095108
0.084971 -0.077244 0.088548
0.044906 -0.073357 0.090140
0.053623 -0.089117 0.091818
0.084323 -0.069696 0.089523
0.085926 -0.087171 0.091215
0.058385 -0.092768 0.094685
0.065403 -0.079716 0.088861
0.079480 -0.094784 0.097476
0.080769 -0.084104 0.089019
0.089195 -0.082369 0.089949
0.075587 -0.087989 0.090694
0.061328 -0.074286 0.088166
0.046125 -0.082300 0.090457
0.079988 -0.073406 0.088501
0.071593 -0.076158 0.088246
0.092611 -0.087027 0.092501
0.067161 -0.091194 0.092449
0.073706 -0.093080 0.094334
0.067034 -0.094965 0.097216
0.043810 -0.089153 0.093633
0.052633 -0.077926 0.089300
0.090363 -0.073416 0.089713
0.006855 -0.055151 0.061727
0.027340 -0.054154 0.044655
0.040177 -0.053939 0.043455
0.019599 -0.054874 0.048560
0.010415 -0.055149 0.053209
0.017174 -0.051429 0.086135
0.016428 -0.052686 0.073015
0.047154 -0.052778 0.049358
0.027496 -0.050727 0.082925
0.037610 -0.051163 0.079017
0.026992 -0.052245 0.067773
-0.000320 -0.055586 0.068745
0.001949 -0.053776 0.080913
0.040116 -0.052417 0.056635
0.032064 -0.051492 0.073453
0.014262 -0.056238 0.041114
0.010989 -0.052125 0.079990
0.036217 -0.051899 0.064428
0.034008 -0.053547 0.050533
0.034685 -0.054891 0.035371
0.030502 -0.053032 0.059265
0.014209 -0.053451 0.065394
0.007355 -0.053965 0.071867
0.024508 -0.053633 0.054674
0.023627 -0.051518 0.076291
0.047864 -0.052423 0.061389
0.022665 -0.055938 0.034453
0.021328 -0.053075 0.063294
0.016872 -0.054015 0.056689
0.000684 -0.056808 0.056680
0.005613 -0.056963 0.046150
0.042572 -0.051202 0.070491
-0.164183 -0.024440 -0.032564
-0.150195 -0.013764 -0.023649
-0.125499 -0.034161 -0.035917
-0.143317 -0.025649 -0.032392
-0.165220 -0.012453 -0.021322
-0.135115 -0.022151 -0.030505
-0.155332 -0.028164 -0.033365
-0.099845 -0.021137 -0.031125
-0.136735 -0.011566 -0.020938
-0.112263 -0.038892 -0.036601
-0.121576 -0.019752 -0.029393
-0.181426 -0.016087 -0.025763
-0.170262 -0.030423 -0.034533
-0.119088 -0.012859 -0.022413
-0.116943 -0.029093 -0.033920
-0.161826 -0.037050 -0.035435
-0.151676 -0.021588 -0.030891
-0.128655 -0.042627 -0.037290
-0.126538 -0.025959 -0.033189
-0.110540 -0.024120 -0.032557
-0.135312 -0.029462 -0.034240
-0.159963 -0.017319 -0.027046
-0.180988 -0.023488 -0.031465
-0.129217 -0.016729 -0.026441
-0.142418 -0.017780 -0.027811
-0.101977 -0.030882 -0.035200
-0.148655 -0.032821 -0.035171
-0.139732 -0.037363 -0.035660
-0.151107 -0.041382 -0.036791
-0.180957 -0.033199 -0.034420
-0.171343 -0.020576 -0.028727
-0.108869 -0.015998 -0.026472
-0.075652 -0.008524 -0.003505
-0.058966 -0.010597 -0.014484
-0.048562 -0.011281 -0.016074
-0.066081 -0.010081 -0.012720
-0.072623 -0.009284 -0.008883
-0.063687 -0.010707 0.014047
-0.065998 -0.008695 0.004402
-0.043291 -0.009371 -0.011332
-0.056107 -0.010000 0.012030
-0.048698 -0.009694 0.009670
-0.058397 -0.008348 0.001670
-0.080788 -0.008443 0.001774
-0.076317 -0.009627 0.010099
-0.048435 -0.008503 -0.006397
-0.053447 -0.008736 0.005536
-0.071395 -0.012001 -0.017063
-0.068850 -0.009567 0.009630
-0.051676 -0.008423 -0.000776
-0.053402 -0.009415 -0.010782
-0.054550 -0.013147 -0.019735
-0.056414 -0.008710 -0.004539
-0.069275 -0.008262 -0.000777
-0.073533 -0.008752 0.003590
-0.061032 -0.009069 -0.008232
-0.060760 -0.009000 0.007352
-0.041361 -0.008537 -0.003342
-0.063614 -0.013424 -0.020002
-0.063101 -0.008440 -0.001769
-0.067526 -0.008836 -0.006511
-0.082171 -0.008927 -0.006963
-0.077796 -0.010340 -0.013343
-0.045353 -0.008464 0.003181
-0.076574 -0.064625 -0.032313
-0.063558 -0.054007 -0.034232
-0.035097 -0.072912 -0.030212
-0.055878 -0.067071 -0.032396
-0.078369 -0.051546 -0.033694
-0.047860 -0.063384 -0.033153
-0.069062 -0.068863 -0.031319
-0.004933 -0.063209 -0.034282
-0.049913 -0.050757 -0.034283
-0.018432 -0.075674 -0.029097
-0.031801 -0.060687 -0.033922
-0.094295 -0.056278 -0.033275
-0.084447 -0.069961 -0.030102
-0.029961 -0.052541 -0.035085
-0.025385 -0.069892 -0.031569
-0.074440 -0.074363 -0.028309
-0.063959 -0.062676 -0.033379
-0.039165 -0.077184 -0.026730
-0.037003 -0.066823 -0.033115
-0.018422 -0.065240 -0.033293
-0.045779 -0.070015 -0.031341
-0.073002 -0.058160 -0.034056
-0.092989 -0.064269 -0.031995
-0.041855 -0.057539 -0.034266
-0.055384 -0.058927 -0.033667
-0.005893 -0.071035 -0.031865
-0.060606 -0.071716 -0.030018
-0.051115 -0.074886 -0.028704
-0.063612 -0.076626 -0.026321
-0.094573 -0.071796 -0.029487
-0.083720 -0.060463 -0.032844
-0.017581 -0.057523 -0.034376
-0.034005 -0.080915 -0.021826
-0.003771 -0.069184 -0.032244
0.019650 -0.079020 -0.026764
-0.015472 -0.079514 -0.027560
-0.028087 -0.052387 -0.028655
-0.004627 -0.081951 -0.001615
-0.018158 -0.082901 -0.013755
0.034522 -0.077346 -0.028130
-0.002135 -0.056570 -0.016380
0.021659 -0.082891 -0.008129
0.003549 -0.082774 -0.017023
-0.045747 -0.080557 -0.015989
-0.031069 -0.081715 -0.002997
0.023967 -0.053715 -0.028806
0.011568 -0.082601 -0.008989
-0.026530 -0.077381 -0.029814
-0.017080 -0.083387 -0.004355
0.013959 -0.081456 -0.021513
0.005219 -0.080311 -0.028103
0.011504 -0.074313 -0.032821
0.001313 -0.082191 -0.021544
-0.024125 -0.080723 -0.020937
-0.035434 -0.082512 -0.011638
-0.003810 -0.079763 -0.025967
-0.005811 -0.083444 -0.012333
0.040282 -0.081316 -0.019813
-0.011023 -0.075982 -0.032633
-0.012226 -0.082242 -0.019337
-0.024518 -0.080844 -0.023999
-0.049463 -0.079797 -0.023035
-0.038707 -0.075951 -0.029325
0.027764 -0.082426 -0.016449
0.013328 -0.061254 0.032909
0.020890 -0.052260 0.032667
0.039695 -0.066945 0.032771
0.027800 -0.061879 0.033306
0.011155 -0.050545 0.032823
0.033672 -0.060201 0.034680
0.017778 -0.064395 0.033086
0.063413 -0.057855 0.032494
0.031019 -0.050069 0.032668
0.052213 -0.068865 0.033343
0.044519 -0.056734 0.033061
-0.000832 -0.054536 0.032638
0.007261 -0.065875 0.033784
0.044737 -0.051001 0.032424
0.048520 -0.064432 0.032991
0.014224 -0.069679 0.032876
0.022304 -0.059293 0.033061
0.036916 -0.070336 0.034847
0.040142 -0.061758 0.032763
0.053977 -0.060375 0.032938
0.033500 -0.065113 0.033140
0.015827 -0.055706 0.032927
-0.000972 -0.061410 0.032655
0.038191 -0.054862 0.033104
0.028273 -0.056134 0.033367
0.062183 -0.064930 0.032481
0.023377 -0.066874 0.032819
0.030123 -0.068809 0.033402
0.021887 -0.070578 0.034763
-0.000686 -0.067326 0.032367
0.007926 -0.057426 0.032949
0.054023 -0.053974 0.032867
-0.136223 -0.028942 -0.035335
-0.123455 -0.017221 -0.027818
-0.099897 -0.039196 -0.037236
-0.115720 -0.030681 -0.035117
-0.137403 -0.015914 -0.025700
-0.107923 -0.026355 -0.033601
-0.128306 -0.033281 -0.035587
-0.073844 -0.025956 -0.033987
-0.110379 -0.014631 -0.025160
-0.086798 -0.044173 -0.037516
-0.094793 -0.023693 -0.032705
-0.153341 -0.019754 -0.029626
-0.142863 -0.035595 -0.036412
-0.093785 -0.016074 -0.026779
-0.090669 -0.034399 -0.036078
-0.134124 -0.042630 -0.036896
-0.123663 -0.026343 -0.033809
-0.102563 -0.048074 -0.037487
-0.099880 -0.030875 -0.035892
-0.084272 -0.028437 -0.035025
-0.108810 -0.034445 -0.036311
-0.132290 -0.021264 -0.030892
-0.153454 -0.027924 -0.034339
-0.102559 -0.020452 -0.030163
-0.115881 -0.021925 -0.031526
-0.076727 -0.035814 -0.036840
-0.121716 -0.038014 -0.036778
-0.112155 -0.042885 -0.036920
-0.123506 -0.047119 -0.037294
-0.153124 -0.038551 -0.036526
-0.143404 -0.024724 -0.032436
-0.083413 -0.019762 -0.030214
-0.019173 -0.032339 0.032694
-0.012539 -0.024520 0.029757
-0.003106 -0.037735 0.033633
-0.009703 -0.032488 0.032987
-0.018086 -0.023015 0.029128
-0.005830 -0.030439 0.032940
-0.015007 -0.034208 0.033540
0.009088 -0.029998 0.032226
-0.007576 -0.022362 0.028899
0.002921 -0.039744 0.034306
-0.000437 -0.028676 0.031931
-0.024537 -0.026255 0.030758
-0.020221 -0.036017 0.034103
-0.000257 -0.023355 0.029082
0.001455 -0.035207 0.033762
-0.017810 -0.039267 0.033978
-0.013634 -0.030517 0.032428
-0.004604 -0.042045 0.034118
-0.003066 -0.033057 0.032790
0.003932 -0.031531 0.032654
-0.007232 -0.035443 0.033564
-0.016817 -0.027228 0.030833
-0.025243 -0.031831 0.032626
-0.004370 -0.026606 0.030848
-0.009868 -0.028187 0.031721
0.007599 -0.035444 0.033409
-0.012675 -0.037091 0.033614
-0.008594 -0.039331 0.034231
-0.013033 -0.042130 0.034048
-0.024872 -0.037060 0.033559
-0.021022 -0.029189 0.031851
0.004635 -0.026586 0.031099
-0.030335 -0.058560 -0.111454
-0.018150 -0.055270 -0.145060
-0.007373 -0.054171 -0.145000
-0.020480 -0.055381 -0.134676
-0.025932 -0.056655 -0.128352
-0.019972 -0.066945 -0.050989
-0.021441 -0.063086 -0.091892
0.005901 -0.056304 -0.134087
-0.011837 -0.067398 -0.067562
0.002845 -0.065936 -0.072965
-0.013210 -0.062476 -0.097448
-0.032643 -0.060155 -0.095804
-0.030977 -0.062799 -0.065956
-0.000506 -0.059669 -0.119409
-0.006631 -0.064065 -0.086646
-0.026266 -0.051475 -0.151304
-0.021093 -0.064617 -0.075496
-0.004623 -0.060406 -0.102487
-0.010827 -0.056855 -0.131213
-0.011887 -0.051785 -0.161393
-0.010897 -0.059981 -0.112479
-0.026034 -0.060909 -0.101595
-0.026874 -0.061094 -0.085297
-0.015785 -0.057827 -0.122269
-0.015646 -0.064076 -0.082345
0.008518 -0.060369 -0.107522
-0.027151 -0.050038 -0.168148
-0.018514 -0.059926 -0.107525
-0.022980 -0.057468 -0.117070
-0.034763 -0.055117 -0.126070
-0.033812 -0.052805 -0.147060
0.004652 -0.063593 -0.091199
-0.008070 -0.062011 0.072733
0.009751 -0.063410 0.052474
0.021715 -0.065034 0.051531
0.003481 -0.064466 0.057893
-0.004122 -0.060934 0.063686
-0.000618 -0.057841 0.103244
-0.001151 -0.059897 0.086131
0.026934 -0.063293 0.059664
0.007104 -0.056392 0.097231
0.017900 -0.058555 0.094143
0.008443 -0.060907 0.080155
-0.013259 -0.058998 0.080072
-0.011959 -0.057550 0.096613
0.020948 -0.061087 0.068097
0.013183 -0.059551 0.087657
0.000078 -0.065375 0.047328
-0.005625 -0.057184 0.094468
0.017530 -0.060415 0.077542
0.014997 -0.064169 0.059793
0.016878 -0.067175 0.041208
0.012659 -0.062355 0.070488
-0.002173 -0.060518 0.077724
-0.009251 -0.059779 0.086493
0.007427 -0.062484 0.065463
0.005732 -0.058869 0.090132
0.028492 -0.061601 0.073883
0.006446 -0.066975 0.037328
0.003287 -0.061282 0.075539
0.001342 -0.062044 0.066631
-0.010261 -0.061735 0.065480
-0.006501 -0.064154 0.053251
0.022600 -0.059457 0.084860
0.000425 -0.065679 0.033458
0.009299 -0.054640 0.033589
0.026674 -0.073638 0.032090
0.014231 -0.066394 0.033721
0.000194 -0.053098 0.033726
0.020208 -0.062612 0.034369
0.005798 -0.069599 0.033337
0.047246 -0.062195 0.033464
0.017715 -0.051698 0.033994
0.038109 -0.075615 0.031563
0.030003 -0.060207 0.033913
-0.009478 -0.056975 0.033772
-0.003199 -0.071555 0.032950
0.029783 -0.053065 0.033553
0.033847 -0.069585 0.033210
0.001180 -0.076333 0.031459
0.008201 -0.063193 0.033723
0.024208 -0.077708 0.029186
0.026008 -0.066443 0.033264
0.038702 -0.064774 0.033593
0.019636 -0.070821 0.033115
0.003451 -0.058201 0.033840
-0.010820 -0.066367 0.033346
0.023224 -0.057021 0.034068
0.014295 -0.059160 0.034178
0.046642 -0.071059 0.032570
0.010656 -0.073837 0.032203
0.016871 -0.075874 0.031836
0.009129 -0.078037 0.029569
-0.010480 -0.074074 0.032110
-0.003401 -0.061028 0.033907
0.038561 -0.057081 0.034028
-0.085109 -0.009374 -0.007104
-0.058820 -0.012132 -0.017115
-0.041540 -0.012353 -0.018316
-0.069052 -0.011341 -0.015746
-0.080358 -0.010184 -0.012129
-0.065484 -0.011146 0.011815
-0.070134 -0.009268 0.000935
-0.033211 -0.010275 -0.014544
-0.053663 -0.010465 0.008822
-0.040655 -0.010184 0.007106
-0.055556 -0.008938 -0.001417
-0.093775 -0.009169 -0.001633
-0.086447 -0.009443 0.007655
-0.039876 -0.009594 -0.009169
-0.047771 -0.009121 0.002530
-0.078001 -0.013290 -0.019729
-0.075618 -0.009830 0.006658
-0.045351 -0.008762 -0.004620
-0.050037 -0.010508 -0.013603
-0.050527 -0.014726 -0.021930
-0.054656 -0.009419 -0.007727
-0.076081 -0.009095 -0.003787
-0.083299 -0.008939 0.000134
-0.061401 -0.010099 -0.011323
-0.060606 -0.009316 0.003960
-0.028419 -0.009289 -0.006476
-0.065055 -0.014763 -0.022277
-0.065145 -0.008766 -0.004643
-0.071732 -0.009245 -0.009844
-0.094958 -0.009489 -0.009949
-0.088036 -0.011607 -0.015858
-0.035579 -0.008979 -0.000100
-0.016714 -0.082137 -0.010410
0.012424 -0.079747 -0.019888
0.029865 -0.079347 -0.021200
0.000086 -0.080416 -0.018280
-0.011131 -0.081201 -0.014568
0.002215 -0.082421 0.005596
-0.001433 -0.083326 -0.002667
0.042938 -0.079890 -0.018487
0.015284 -0.082578 0.004789
0.030135 -0.083365 0.001463
0.015072 -0.082759 -0.005382
-0.023896 -0.082278 -0.003529
-0.017138 -0.082855 0.003303
0.034027 -0.081380 -0.013405
0.022383 -0.083043 -0.002047
-0.008158 -0.078867 -0.022194
-0.006709 -0.082743 0.002176
0.025920 -0.082216 -0.010484
0.020327 -0.080856 -0.016653
0.021278 -0.078089 -0.024628
0.013960 -0.082485 -0.011513
-0.008356 -0.082658 -0.006957
-0.014355 -0.082986 -0.003316
0.007398 -0.081337 -0.014713
0.008040 -0.082834 -0.000717
0.046850 -0.081865 -0.010558
0.004328 -0.077706 -0.024689
0.004061 -0.082646 -0.008556
-0.002708 -0.081905 -0.012793
-0.025585 -0.081410 -0.013138
-0.018867 -0.079532 -0.019032
0.037826 -0.082510 -0.005025
-0.111762 -0.037972 -0.036700
-0.098695 -0.025934 -0.033602
-0.072322 -0.047751 -0.036360
-0.090186 -0.040490 -0.036483
-0.113694 -0.024297 -0.032471
-0.082141 -0.035544 -0.035938
-0.103795 -0.042902 -0.036493
-0.042633 -0.035423 -0.036495
-0.084786 -0.023010 -0.032115
-0.057276 -0.052408 -0.035789
-0.067260 -0.032715 -0.035743
-0.129933 -0.028512 -0.034477
-0.118795 -0.044328 -0.036479
-0.066529 -0.024538 -0.033040
-0.062014 -0.043806 -0.036459
-0.109173 -0.051489 -0.035531
-0.098799 -0.035752 -0.036520
-0.075025 -0.055534 -0.035041
-0.072407 -0.040044 -0.036905
-0.055003 -0.037569 -0.036787
-0.081978 -0.043564 -0.036419
-0.108072 -0.030408 -0.035022
-0.129215 -0.036884 -0.036215
-0.076313 -0.029203 -0.034696
-0.090333 -0.030798 -0.035230
-0.045764 -0.045120 -0.036760
-0.095999 -0.046781 -0.036362
-0.086083 -0.051499 -0.035740
-0.098127 -0.055058 -0.034927
-0.128331 -0.047707 -0.036089
-0.119370 -0.033576 -0.035533
-0.054514 -0.028823 -0.034710
-0.045362 -0.008487 -0.005407
-0.026653 -0.010967 -0.016526
-0.014648 -0.011491 -0.018057
-0.034556 -0.010291 -0.014729
-0.041907 -0.009486 -0.010826
-0.032188 -0.010031 0.012344
-0.034846 -0.008510 0.002598
-0.008083 -0.009517 -0.013732
-0.023601 -0.009514 0.010215
-0.014918 -0.009225 0.007906
-0.025761 -0.008169 -0.000176
-0.051210 -0.008274 0.000061
-0.046370 -0.009077 0.008580
-0.014204 -0.008621 -0.008639
-0.020333 -0.008419 0.003640
-0.040515 -0.012248 -0.018867
-0.038149 -0.009092 0.007989
-0.018267 -0.008171 -0.002920
-0.020450 -0.009510 -0.012925
-0.021199 -0.013540 -0.021640
-0.023947 -0.008717 -0.006541
-0.038595 -0.008261 -0.002609
-0.043326 -0.008439 0.001793
-0.029050 -0.009218 -0.010333
-0.028822 -0.008595 0.005499
-0.005624 -0.008483 -0.005522
-0.031621 -0.013744 -0.021678
-0.031546 -0.008290 -0.003618
-0.036350 -0.008753 -0.008335
-0.052582 -0.008828 -0.008784
-0.047526 -0.010504 -0.015130
-0.010905 -0.008287 0.001130
0.004497 -0.042150 0.033754
0.011258 -0.034716 0.033238
0.021444 -0.047351 0.033540
0.013972 -0.042396 0.033916
0.005230 -0.033115 0.033284
0.017876 -0.040270 0.034401
0.008698 -0.044246 0.034062
0.034658 -0.039819 0.033701
0.016606 -0.032386 0.033409
0.028003 -0.049464 0.033901
0.023849 -0.038481 0.033818
-0.001503 -0.036326 0.033632
0.003054 -0.045781 0.034318
0.024478 -0.033347 0.033012
0.026006 -0.044872 0.033976
0.005900 -0.049042 0.033798
0.009921 -0.040473 0.033854
0.019874 -0.051876 0.033396
0.021210 -0.042741 0.033649
0.028889 -0.041303 0.033644
0.017004 -0.045188 0.034012
0.006726 -0.037260 0.033459
-0.001696 -0.041789 0.033800
0.019736 -0.036547 0.033502
0.014071 -0.038003 0.033965
0.033234 -0.045340 0.033623
0.011326 -0.046900 0.033621
0.015291 -0.049145 0.033820
0.010569 -0.051915 0.033455
-0.001423 -0.047242 0.033707
0.002286 -0.039240 0.033802
0.029726 -0.036496 0.033662
-0.076505 -0.044921 -0.037102
-0.064107 -0.033062 -0.036181
-0.040156 -0.054105 -0.035602
-0.056985 -0.046841 -0.036920
-0.077996 -0.030718 -0.035434
-0.049374 -0.042317 -0.036946
-0.069002 -0.049448 -0.036265
-0.013653 -0.041976 -0.037182
-0.051652 -0.029048 -0.035215
-0.026973 -0.058315 -0.034825
-0.035814 -0.039198 -0.036986
-0.092995 -0.035683 -0.036409
-0.082744 -0.051302 -0.035995
-0.034809 -0.030835 -0.036056
-0.031437 -0.050203 -0.036162
-0.074467 -0.057440 -0.034668
-0.064966 -0.042685 -0.037208
-0.043043 -0.061627 -0.033598
-0.040788 -0.046725 -0.037181
-0.025216 -0.044511 -0.037013
-0.049162 -0.050254 -0.036274
-0.072898 -0.037191 -0.036876
-0.092152 -0.044190 -0.036739
-0.044348 -0.035902 -0.036701
-0.056847 -0.037947 -0.036717
-0.016518 -0.051120 -0.036238
-0.061908 -0.053435 -0.035546
-0.053024 -0.057643 -0.034829
-0.064157 -0.061262 -0.033486
-0.092221 -0.054346 -0.035521
-0.083240 -0.040561 -0.036728
-0.024065 -0.035581 -0.036566
0.019197 -0.060461 0.092435
0.048011 -0.062090 0.069896
0.059669 -0.060809 0.068306
0.036931 -0.062454 0.074936
0.025789 -0.061256 0.082358
0.024326 -0.056212 0.119083
0.026332 -0.058541 0.105725
0.061682 -0.059025 0.074579
0.034344 -0.055956 0.114537
0.043179 -0.055054 0.108878
0.038557 -0.059093 0.097588
0.010987 -0.059967 0.099436
0.010198 -0.056499 0.115489
0.055297 -0.059022 0.083864
0.042304 -0.056835 0.103709
0.034710 -0.063224 0.066107
0.019932 -0.057971 0.112625
0.048551 -0.057048 0.092560
0.051367 -0.061449 0.077152
0.060344 -0.063547 0.057436
0.046275 -0.059740 0.086455
0.027009 -0.060695 0.096831
0.016150 -0.059030 0.104226
0.039994 -0.061687 0.082198
0.034605 -0.058016 0.106900
0.055995 -0.057144 0.089208
0.045701 -0.064032 0.059545
0.034125 -0.059340 0.092755
0.032260 -0.059733 0.084750
0.016672 -0.060667 0.085749
0.024615 -0.063199 0.073449
0.049973 -0.056980 0.099475
0.070510 -0.080054 0.087330
0.082088 -0.067131 0.092047
0.093070 -0.087355 0.090149
0.084300 -0.078619 0.087561
0.071877 -0.065862 0.095219
0.089805 -0.074530 0.090354
0.078147 -0.082378 0.087756
0.101946 -0.075061 0.090518
0.088299 -0.064181 0.096639
0.098711 -0.089299 0.092627
0.095990 -0.073423 0.088975
0.060871 -0.069190 0.091458
0.069016 -0.086023 0.088614
0.095295 -0.065825 0.094410
0.096385 -0.083246 0.089232
0.071561 -0.090702 0.090864
0.078877 -0.074479 0.088128
0.091431 -0.092272 0.093937
0.092035 -0.079823 0.087488
0.099171 -0.078399 0.088975
0.087779 -0.084070 0.088286
0.075279 -0.070071 0.089200
0.060917 -0.079014 0.088305
0.091674 -0.069093 0.090338
0.085313 -0.071981 0.088816
0.101494 -0.083384 0.091092
0.080118 -0.087807 0.088479
0.086072 -0.090250 0.090989
0.079555 -0.093207 0.093105
0.058913 -0.086849 0.089701
0.067264 -0.074168 0.088539
0.099828 -0.069420 0.092187
0.038064 -0.066120 0.068454
0.068906 -0.066747 0.051497
0.081527 -0.065911 0.050632
0.058253 -0.067400 0.055537
0.045841 -0.067202 0.060576
0.053691 -0.061242 0.089552
0.052918 -0.063707 0.078374
0.084964 -0.063029 0.055639
0.063931 -0.060412 0.086598
0.072007 -0.059948 0.082099
0.065136 -0.063386 0.073057
0.030371 -0.064749 0.076583
0.036161 -0.063239 0.088184
0.079168 -0.063203 0.061523
0.069551 -0.061787 0.077680
0.052834 -0.068508 0.049363
0.047002 -0.062424 0.084783
0.073449 -0.062748 0.068955
0.073916 -0.065583 0.057235
0.080059 -0.067470 0.043439
0.069354 -0.064862 0.064288
0.048356 -0.064847 0.071518
0.040394 -0.064806 0.078224
0.063595 -0.065838 0.060538
0.060375 -0.062344 0.080144
0.081319 -0.061541 0.066685
0.064175 -0.068718 0.044330
0.059735 -0.064819 0.069600
0.053640 -0.066320 0.064117
0.029790 -0.066880 0.064064
0.038644 -0.068067 0.053387
0.077058 -0.060132 0.073890
-0.025403 -0.061666 -0.077833
-0.005783 -0.059933 -0.111073
0.004773 -0.058977 -0.110556
-0.010908 -0.059529 -0.101641
-0.017959 -0.060199 -0.092602
-0.021330 -0.067980 -0.039165
-0.018558 -0.065476 -0.062867
0.016441 -0.060803 -0.100668
