-0.085239 -0.028761 0.036182
-0.091617 -0.020101 0.029331
-0.042944 -0.009347 0.017469
-0.070181 -0.027253 0.035133
-0.052043 -0.025178 0.034109
-0.069498 -0.018416 0.028793
-0.121775 -0.019013 0.027676
-0.111819 -0.024253 0.032626
-0.049860 -0.012661 0.022443
-0.060057 -0.021356 0.031669
-0.101445 -0.007077 0.010193
-0.099264 -0.024695 0.032251
-0.058793 -0.015163 0.024220
-0.067355 -0.010169 0.018124
-0.066512 -0.006708 0.007566
-0.074207 -0.013477 0.023280
-0.102298 -0.016416 0.025846
-0.110341 -0.019217 0.028214
-0.081424 -0.011484 0.019746
-0.078449 -0.022317 0.031809
-0.033417 -0.014637 0.024853
-0.085504 -0.006250 0.005871
-0.086035 -0.015130 0.025775
-0.093629 -0.011949 0.021017
-0.124598 -0.012316 0.020477
-0.115137 -0.009000 0.013953
-0.043890 -0.019035 0.029542
0.062085 -0.081767 0.100234
0.076593 -0.076339 0.100885
0.102744 -0.090008 0.092831
0.074963 -0.081238 0.097833
0.063443 -0.071184 0.110284
0.082472 -0.069165 0.112314
0.071458 -0.073882 0.104024
0.107142 -0.076500 0.102956
0.088671 -0.065725 0.112705
0.103737 -0.076030 0.102384
0.092046 -0.070201 0.104964
0.050663 -0.073017 0.111586
0.057256 -0.074388 0.108593
0.097563 -0.069606 0.108420
0.095762 -0.074524 0.100549
0.060242 -0.091295 0.096634
0.070488 -0.069853 0.112960
0.088572 -0.094718 0.092309
0.093574 -0.077044 0.099091
0.098773 -0.083462 0.096258
0.085404 -0.080182 0.097846
0.065999 -0.074965 0.103835
0.052525 -0.074159 0.106912
0.084004 -0.071586 0.104268
0.080087 -0.067955 0.109915
0.115268 -0.080823 0.098692
0.075834 -0.093151 0.093550
0.078950 -0.084994 0.097035
0.069054 -0.094641 0.095225
0.046263 -0.085137 0.101986
0.056547 -0.082380 0.101019
0.107222 -0.069804 0.107933
-0.072578 -0.012188 0.022974
-0.049415 -0.007805 0.015568
-0.035316 -0.007759 0.015577
-0.058638 -0.008519 0.017073
-0.067372 -0.009573 0.019504
-0.055107 -0.022290 0.033823
-0.059226 -0.016601 0.028880
-0.025199 -0.009149 0.018787
-0.044630 -0.021324 0.032873
-0.032741 -0.020209 0.032063
-0.045143 -0.014910 0.027493
-0.078872 -0.015010 0.027218
-0.072708 -0.019563 0.031580
-0.031598 -0.010836 0.021662
-0.039019 -0.017534 0.030099
-0.065538 -0.007123 0.013917
-0.064047 -0.020067 0.031602
-0.037550 -0.013649 0.024749
-0.042759 -0.009331 0.018960
-0.042713 -0.006581 0.012194
-0.047096 -0.011943 0.023282
-0.065592 -0.013510 0.025224
-0.070846 -0.016023 0.027757
-0.052448 -0.010046 0.020226
-0.051114 -0.018175 0.030297
-0.018698 -0.012863 0.024486
-0.054998 -0.006468 0.011700
-0.055275 -0.013215 0.025480
-0.060832 -0.011191 0.021880
-0.080772 -0.011055 0.021500
-0.074207 -0.008251 0.016615
-0.026691 -0.015568 0.027907
-0.050327 -0.026632 0.035687
-0.042957 -0.018519 0.030133
-0.033072 -0.032947 0.038642
-0.040387 -0.026562 0.035997
-0.048552 -0.016842 0.028785
-0.036219 -0.024235 0.035205
-0.045553 -0.028437 0.037257
-0.021248 -0.024278 0.034807
-0.038068 -0.016027 0.028296
-0.026848 -0.035225 0.039814
-0.030851 -0.022613 0.033845
-0.055371 -0.020146 0.031387
-0.051165 -0.030631 0.038190
-0.030633 -0.017227 0.029226
-0.028725 -0.029733 0.037962
-0.049249 -0.034713 0.039244
-0.044464 -0.024457 0.034691
-0.034789 -0.038030 0.040281
-0.033559 -0.027540 0.036270
-0.026716 -0.025794 0.035671
-0.037613 -0.030115 0.037679
-0.047554 -0.021138 0.032038
-0.056742 -0.026089 0.035283
-0.035123 -0.020381 0.031839
-0.040426 -0.022081 0.033198
-0.021794 -0.030180 0.037771
-0.043470 -0.032058 0.038309
-0.039152 -0.034585 0.039623
-0.043996 -0.038006 0.040029
-0.057120 -0.031860 0.037978
-0.052056 -0.023400 0.033634
-0.025674 -0.020424 0.032116
-0.012496 -0.062348 0.038842
-0.004916 -0.055446 0.040899
0.009828 -0.067761 0.036820
-0.001254 -0.062971 0.039225
-0.011808 -0.054020 0.041453
0.003456 -0.060671 0.040448
-0.007978 -0.064662 0.038391
0.029058 -0.060214 0.039814
0.002168 -0.053252 0.041838
0.020092 -0.069739 0.036307
0.012279 -0.058915 0.040252
-0.019364 -0.057037 0.040721
-0.015157 -0.066045 0.038024
0.013517 -0.054086 0.041142
0.015847 -0.065064 0.038253
-0.011198 -0.069111 0.036239
-0.006055 -0.061001 0.039630
0.007092 -0.071736 0.034678
0.008812 -0.062942 0.038684
0.020509 -0.061844 0.039287
0.003490 -0.065654 0.038083
-0.010114 -0.057920 0.040268
-0.019983 -0.062341 0.038857
0.006534 -0.057285 0.040821
-0.001079 -0.058479 0.040536
0.028805 -0.065922 0.037743
-0.004347 -0.067162 0.037050
0.000868 -0.069447 0.036168
-0.005514 -0.071700 0.034700
-0.020255 -0.067155 0.036699
-0.015257 -0.059729 0.039906
0.021212 -0.056986 0.040994
-0.107651 -0.059443 -0.041044
-0.095222 -0.046198 -0.045738
-0.069655 -0.070190 -0.038928
-0.088020 -0.062068 -0.042342
-0.108612 -0.042327 -0.044545
-0.080700 -0.057522 -0.044846
-0.099724 -0.064272 -0.040092
-0.043961 -0.058864 -0.046966
-0.083065 -0.041300 -0.046832
-0.055164 -0.073937 -0.038645
-0.067095 -0.054703 -0.046437
-0.123161 -0.048366 -0.042604
-0.113533 -0.065455 -0.037738
-0.066336 -0.044345 -0.048353
-0.061336 -0.066567 -0.042123
-0.105145 -0.071563 -0.034224
-0.096476 -0.056838 -0.043666
-0.071574 -0.076158 -0.034603
-0.071423 -0.062605 -0.043819
-0.056335 -0.060806 -0.045074
-0.079158 -0.065942 -0.040795
-0.104355 -0.050964 -0.044654
-0.123045 -0.058206 -0.039374
-0.076437 -0.050462 -0.046711
-0.088203 -0.052727 -0.045007
-0.044618 -0.067984 -0.042825
-0.092275 -0.068344 -0.037761
-0.082740 -0.072617 -0.036435
-0.093848 -0.075006 -0.032635
-0.123721 -0.067242 -0.034847
-0.114234 -0.054160 -0.041840
-0.055502 -0.051038 -0.048014
0.021581 -0.062833 0.070579
0.042889 -0.066052 0.048789
0.054534 -0.066567 0.047816
0.034523 -0.065365 0.053652
0.026058 -0.064220 0.059299
0.032506 -0.060019 0.098921
0.032334 -0.061689 0.083659
0.060911 -0.065162 0.055840
0.042104 -0.060387 0.095545
0.051238 -0.061299 0.091076
0.040848 -0.062638 0.078043
0.013903 -0.061269 0.079347
0.017289 -0.059880 0.092831
0.054546 -0.064044 0.064516
0.046712 -0.061878 0.084079
0.028561 -0.065741 0.045310
0.027591 -0.060304 0.091654
0.050367 -0.063104 0.075196
0.048842 -0.065392 0.057630
0.049789 -0.067282 0.037142
0.045430 -0.064097 0.068898
0.029313 -0.062386 0.075793
0.022848 -0.061359 0.083239
0.039897 -0.064715 0.060849
0.038656 -0.061118 0.088477
0.060467 -0.063810 0.070385
0.036301 -0.067070 0.036463
0.036507 -0.063083 0.071551
0.032214 -0.063721 0.065652
0.013894 -0.063048 0.065010
0.018621 -0.064594 0.051651
0.056795 -0.062129 0.081271
-0.022404 -0.041256 0.040992
-0.015953 -0.033189 0.039375
-0.006757 -0.046494 0.041253
-0.013507 -0.041350 0.041302
-0.021356 -0.031391 0.039165
-0.009623 -0.039301 0.041644
-0.018421 -0.043079 0.041660
0.004937 -0.038725 0.040859
-0.011162 -0.030572 0.039130
-0.000778 -0.048472 0.041689
-0.004375 -0.037468 0.040757
-0.027674 -0.035054 0.040043
-0.023563 -0.044951 0.041980
-0.004133 -0.031680 0.038964
-0.002567 -0.043884 0.041767
-0.021197 -0.048002 0.041372
-0.017218 -0.039325 0.041047
-0.008233 -0.050919 0.041181
-0.006978 -0.041739 0.041003
-0.000105 -0.040315 0.041018
-0.010889 -0.044238 0.041473
-0.020139 -0.035975 0.039943
-0.028477 -0.040932 0.041020
-0.008229 -0.035344 0.040139
-0.013453 -0.037064 0.040673
0.003868 -0.044216 0.041347
-0.016075 -0.045858 0.041236
-0.012194 -0.048131 0.041689
-0.016594 -0.050944 0.041079
-0.028272 -0.046003 0.041183
-0.024257 -0.038124 0.040578
0.000551 -0.035236 0.040363
-0.119689 -0.038501 -0.044115
-0.105263 -0.025075 -0.041493
-0.076726 -0.051598 -0.045050
-0.096176 -0.040860 -0.044939
-0.121434 -0.023356 -0.038624
-0.087982 -0.035697 -0.045484
-0.110839 -0.043965 -0.044275
-0.044425 -0.035710 -0.047570
-0.090406 -0.021904 -0.039509
-0.060857 -0.056508 -0.045655
-0.071380 -0.032646 -0.045797
-0.139180 -0.027991 -0.040300
-0.126256 -0.046635 -0.043330
-0.068910 -0.023412 -0.042089
-0.066142 -0.045689 -0.046489
-0.117281 -0.054539 -0.041944
-0.105464 -0.035689 -0.044422
-0.080248 -0.060516 -0.042814
-0.077411 -0.041360 -0.046627
-0.058805 -0.038891 -0.047216
-0.087303 -0.046157 -0.045402
-0.115355 -0.029694 -0.042631
-0.138136 -0.038085 -0.042072
-0.081523 -0.028568 -0.043581
-0.096499 -0.030390 -0.043722
-0.047892 -0.047659 -0.047382
-0.103078 -0.050156 -0.044035
-0.091735 -0.055333 -0.043536
-0.104906 -0.059855 -0.041284
-0.137839 -0.050324 -0.041241
-0.127518 -0.033285 -0.042536
-0.056300 -0.028193 -0.044901
0.010272 -0.067544 0.046989
0.034663 -0.067089 0.033826
0.051064 -0.066872 0.033708
0.023936 -0.067817 0.037640
0.015117 -0.067371 0.041634
0.026889 -0.065951 0.064906
0.023576 -0.067359 0.054200
0.063636 -0.065472 0.037555
0.037655 -0.065685 0.062012
0.051632 -0.066040 0.060168
0.036785 -0.066874 0.051980
0.004842 -0.066641 0.053126
0.011794 -0.066605 0.061509
0.054558 -0.065909 0.044176
0.043969 -0.066545 0.055681
0.017881 -0.067509 0.030834
0.020173 -0.066396 0.059574
0.046602 -0.066824 0.047627
0.041524 -0.067075 0.039801
0.043514 -0.066657 0.023233
0.036064 -0.067630 0.045919
0.017417 -0.067204 0.050589
0.012285 -0.067100 0.054676
0.029968 -0.067154 0.042065
0.031425 -0.066403 0.056189
0.069357 -0.065909 0.047657
0.026367 -0.066850 0.018631
0.027531 -0.067722 0.048655
0.021671 -0.068026 0.045226
0.002563 -0.067089 0.043840
0.007376 -0.066933 0.035437
0.058333 -0.065363 0.052704
-0.000533 -0.065683 0.039760
0.008218 -0.058783 0.041966
0.027517 -0.070758 0.037581
0.012955 -0.066476 0.040147
-0.000290 -0.057578 0.042615
0.018592 -0.063987 0.041361
0.004328 -0.067997 0.039250
0.051645 -0.063249 0.040470
0.017405 -0.056722 0.042973
0.040667 -0.072333 0.036820
0.030126 -0.062352 0.041201
-0.009613 -0.060621 0.041710
-0.004951 -0.069328 0.038757
0.032565 -0.057488 0.042162
0.034848 -0.067992 0.039074
0.000416 -0.072140 0.036880
0.007547 -0.064336 0.040609
0.023469 -0.074073 0.035250
0.025809 -0.066189 0.039518
0.040538 -0.065160 0.040106
0.019397 -0.068938 0.038871
0.002136 -0.061438 0.041290
-0.010143 -0.065915 0.039731
0.022911 -0.060747 0.041865
0.013480 -0.061750 0.041601
0.052692 -0.068920 0.038318
0.009122 -0.070388 0.037923
0.015616 -0.072257 0.036843
0.007501 -0.074200 0.035295
-0.011351 -0.070402 0.037395
-0.004205 -0.063173 0.040879
0.042208 -0.060134 0.041923
-0.002508 -0.083752 0.011712
0.021525 -0.084823 0.000580
0.037039 -0.085062 -0.000159
0.010904 -0.084892 0.002695
0.003188 -0.084591 0.007325
0.013219 -0.077168 0.024288
0.009800 -0.081896 0.019036
0.048450 -0.084639 0.005369
0.024236 -0.078058 0.023992
0.035745 -0.079677 0.021539
0.024370 -0.082419 0.016551
-0.008255 -0.082234 0.017967
-0.002146 -0.079598 0.022160
0.041668 -0.083889 0.009626
0.030012 -0.081362 0.019138
0.004929 -0.084889 -0.001601
0.005332 -0.079147 0.022755
0.033657 -0.083302 0.012900
0.027963 -0.084679 0.005489
0.028550 -0.084855 -0.005190
0.022361 -0.083968 0.011510
0.004465 -0.083303 0.015215
-0.001092 -0.082194 0.017527
0.016674 -0.084466 0.007380
0.018654 -0.080789 0.019779
0.055382 -0.083572 0.012785
0.014680 -0.084511 -0.005939
0.013640 -0.083618 0.014043
0.009329 -0.084360 0.009825
-0.008966 -0.084354 0.009380
-0.003530 -0.084867 0.002812
0.045919 -0.081817 0.018077
-0.016921 -0.086442 -0.003857
0.009317 -0.084586 -0.017935
0.026569 -0.085182 -0.017416
-0.002181 -0.085636 -0.013680
-0.011796 -0.083673 -0.010710
0.000734 -0.083678 0.015604
-0.003617 -0.086248 0.005696
0.038529 -0.085375 -0.014340
0.011972 -0.082195 0.013930
0.026350 -0.085740 0.011103
0.011264 -0.086643 0.002366
-0.023749 -0.086263 0.003712
-0.017308 -0.085064 0.012392
0.030382 -0.083806 -0.008597
0.018791 -0.086150 0.006485
-0.009782 -0.083882 -0.019342
-0.008002 -0.084951 0.012096
0.022667 -0.086231 -0.002838
0.017156 -0.085928 -0.012082
0.017759 -0.082995 -0.023437
0.011766 -0.086948 -0.004932
-0.009359 -0.086663 0.000070
-0.014898 -0.086146 0.004827
0.004671 -0.086457 -0.008955
0.005584 -0.085547 0.008105
0.042615 -0.086613 -0.003854
0.001371 -0.082743 -0.022998
0.001548 -0.086656 -0.001269
-0.004612 -0.086359 -0.006698
-0.025258 -0.085703 -0.007271
-0.019155 -0.084377 -0.015048
0.033785 -0.086433 0.003314
-0.049427 -0.084913 -0.003835
-0.013946 -0.069109 -0.024214
0.016291 -0.085019 -0.014492
-0.026468 -0.084387 -0.012607
-0.046966 -0.042953 -0.012797
-0.014296 -0.081997 0.022870
-0.031692 -0.084864 0.008801
0.032621 -0.084593 -0.012412
-0.013325 -0.044419 0.016606
0.016248 -0.084812 0.015665
-0.006453 -0.085253 0.005964
-0.066376 -0.078225 0.008263
-0.046001 -0.083328 0.018468
0.020036 -0.048533 -0.011675
0.002741 -0.085078 0.011616
-0.040900 -0.081737 -0.019019
-0.034239 -0.079195 0.020835
0.008692 -0.085435 -0.001954
-0.002908 -0.084665 -0.014396
0.006314 -0.080776 -0.024699
-0.006123 -0.086350 -0.004385
-0.039514 -0.082367 0.000106
-0.053222 -0.084507 0.009129
-0.014005 -0.080871 -0.006960
-0.018492 -0.084002 0.012375
0.039957 -0.086397 0.000709
-0.022837 -0.081630 -0.024192
-0.022400 -0.085901 0.000251
-0.035836 -0.084588 -0.007982
-0.067949 -0.083952 -0.005666
-0.057039 -0.081912 -0.016146
0.024754 -0.081474 0.009455
-0.101121 -0.005904 -0.011843
-0.082566 -0.009137 -0.022899
-0.071001 -0.009994 -0.024199
-0.090124 -0.008718 -0.021018
-0.097513 -0.007447 -0.017359
-0.087755 -0.004676 0.005096
-0.090379 -0.004761 -0.004118
-0.065295 -0.007709 -0.019234
-0.079406 -0.004362 0.003136
-0.071118 -0.004744 0.000981
-0.081670 -0.004770 -0.006860
-0.107031 -0.004942 -0.006522
-0.101858 -0.004656 0.001535
-0.070915 -0.006160 -0.014695
-0.076410 -0.004544 -0.002942
-0.095946 -0.010979 -0.025465
-0.093826 -0.004422 0.001123
-0.074367 -0.005446 -0.009211
-0.076557 -0.007828 -0.019183
-0.077426 -0.011873 -0.027866
-0.079780 -0.006263 -0.012910
-0.094095 -0.005099 -0.009189
-0.099263 -0.004874 -0.004952
-0.084838 -0.007132 -0.016504
-0.084522 -0.004401 -0.001370
-0.063188 -0.005855 -0.011470
-0.087432 -0.012327 -0.028286
-0.087044 -0.005632 -0.010010
-0.092006 -0.006794 -0.014795
-0.108366 -0.006972 -0.015100
-0.103396 -0.009074 -0.021567
-0.067508 -0.004647 -0.005217
0.091208 -0.073364 0.104727
0.107106 -0.081177 0.096915
0.121541 -0.091884 0.096591
0.099120 -0.079885 0.097696
0.095057 -0.071228 0.104037
0.106426 -0.069204 0.125826
0.100949 -0.067711 0.114546
0.118141 -0.077912 0.102117
0.114219 -0.068575 0.121982
0.116550 -0.072239 0.121279
0.109797 -0.069514 0.110802
0.085543 -0.066986 0.111821
0.094315 -0.069960 0.123048
0.117447 -0.072262 0.107531
0.114051 -0.070965 0.114655
0.092666 -0.087836 0.094545
0.100124 -0.067193 0.121248
0.109797 -0.091079 0.103405
0.116390 -0.077862 0.099856
0.113251 -0.091817 0.094113
0.109777 -0.076635 0.103870
0.100117 -0.070296 0.107073
0.092736 -0.068212 0.113030
0.104942 -0.072272 0.105195
0.107633 -0.067151 0.118809
0.124037 -0.076973 0.106650
0.104640 -0.097440 0.091373
0.102004 -0.076317 0.107935
0.097016 -0.091054 0.099007
0.081513 -0.076239 0.099975
0.088173 -0.079113 0.096288
0.121758 -0.070110 0.114781
0.011660 -0.052323 0.041115
0.020388 -0.043226 0.041401
0.035551 -0.058096 0.040484
0.025040 -0.052812 0.041364
0.012094 -0.041356 0.041702
0.030613 -0.049843 0.042069
0.016750 -0.055176 0.041233
0.054632 -0.049141 0.041204
0.028454 -0.040193 0.041807
0.045305 -0.060240 0.040553
0.039554 -0.047668 0.041448
0.002000 -0.045367 0.041560
0.008154 -0.056802 0.041234
0.039879 -0.041331 0.041238
0.042276 -0.055177 0.041122
0.012880 -0.060479 0.040527
0.019463 -0.050359 0.041443
0.033118 -0.062848 0.040027
0.035570 -0.052853 0.040860
0.046797 -0.051329 0.041207
0.029676 -0.055672 0.041072
0.014508 -0.046467 0.041254
0.001367 -0.051904 0.041186
0.033823 -0.045346 0.041534
0.025238 -0.047180 0.041652
0.053068 -0.055713 0.040662
0.021145 -0.058006 0.040637
0.027027 -0.060239 0.040661
0.020145 -0.063108 0.040080
0.001378 -0.057931 0.040534
0.007802 -0.048809 0.041363
0.047585 -0.045010 0.041638
-0.004536 -0.086619 0.000947
0.019756 -0.085660 -0.012138
0.036982 -0.085503 -0.012943
0.008712 -0.086138 -0.009376
0.000515 -0.086597 -0.005185
0.009823 -0.082124 0.018053
0.007374 -0.085556 0.009580
0.049653 -0.085677 -0.009240
0.022269 -0.082761 0.017323
0.036823 -0.083908 0.014571
0.021883 -0.085961 0.006434
-0.010184 -0.085754 0.008074
-0.005302 -0.084054 0.015746
0.040676 -0.086284 -0.003294
0.029187 -0.085149 0.010452
0.002521 -0.085047 -0.014397
0.002685 -0.083679 0.014954
0.032814 -0.085763 0.001819
0.027612 -0.086178 -0.007208
0.027815 -0.084523 -0.018199
0.021932 -0.086642 -0.000473
0.002390 -0.086402 0.004342
-0.002415 -0.085890 0.008847
0.015316 -0.086472 -0.004807
0.016191 -0.084708 0.011686
0.054726 -0.085983 0.000783
0.012322 -0.084207 -0.018094
0.012441 -0.086408 0.003224
0.007188 -0.086484 -0.001563
-0.011070 -0.086437 -0.002538
-0.005697 -0.085849 -0.009861
0.044682 -0.085212 0.007126
-0.055747 -0.014459 0.024002
-0.026647 -0.008121 0.014345
-0.009020 -0.007300 0.014990
-0.037340 -0.009357 0.018134
-0.049239 -0.010640 0.020445
-0.032529 -0.029775 0.037929
-0.038706 -0.020364 0.030735
0.003158 -0.009372 0.018654
-0.020058 -0.027681 0.036496
-0.003993 -0.026035 0.035179
-0.019515 -0.018627 0.029726
-0.064144 -0.019421 0.029665
-0.056129 -0.025520 0.034688
-0.003804 -0.012715 0.023483
-0.011456 -0.022068 0.032697
-0.046445 -0.006569 0.012023
-0.044316 -0.025593 0.034292
-0.011434 -0.016334 0.026754
-0.017897 -0.009873 0.019229
-0.016884 -0.005824 0.009056
-0.022972 -0.013736 0.024539
-0.046890 -0.016529 0.027224
-0.053953 -0.019941 0.030281
-0.029332 -0.011388 0.021311
-0.027616 -0.022633 0.033208
0.010487 -0.015194 0.025992
-0.033660 -0.005592 0.007545
-0.033291 -0.015770 0.027348
-0.039992 -0.013489 0.024477
-0.066501 -0.012539 0.022337
-0.057649 -0.008751 0.015565
0.001310 -0.019261 0.030232
-0.060737 -0.006658 0.010651
-0.045292 -0.004684 -0.000181
-0.035898 -0.004656 -0.001746
-0.051659 -0.004868 0.001787
-0.057574 -0.005400 0.005827
-0.049311 -0.013423 0.025785
-0.051649 -0.009123 0.017611
-0.030377 -0.005151 0.003190
-0.042152 -0.012498 0.024172
-0.035198 -0.011531 0.022163
-0.044221 -0.008110 0.015394
-0.065557 -0.008184 0.015489
-0.061519 -0.011287 0.022113
-0.035149 -0.005913 0.007835
-0.039572 -0.009594 0.018757
-0.056452 -0.004423 -0.002859
-0.054428 -0.011484 0.021870
-0.038069 -0.007360 0.012684
-0.040175 -0.005210 0.003720
-0.041277 -0.004448 -0.005912
-0.042779 -0.006512 0.009747
-0.055083 -0.007418 0.013047
-0.058858 -0.008911 0.016845
-0.046971 -0.005627 0.006252
-0.046602 -0.010253 0.020246
-0.028146 -0.006987 0.010633
-0.049503 -0.004352 -0.006577
-0.048992 -0.007019 0.012308
-0.052799 -0.005907 0.007587
-0.066509 -0.005978 0.007492
-0.062336 -0.004767 0.000984
-0.031949 -0.008718 0.016443
0.056701 -0.049891 0.098452
0.080077 -0.050685 0.082066
0.087548 -0.053137 0.081382
0.072733 -0.050194 0.085344
0.063508 -0.049998 0.090611
0.062350 -0.050754 0.116384
0.065101 -0.049581 0.106326
0.088745 -0.054567 0.085652
0.068078 -0.052123 0.111300
0.071988 -0.055232 0.105865
0.073814 -0.050008 0.099910
0.047272 -0.050081 0.105530
0.052629 -0.049392 0.116485
0.083205 -0.052334 0.090348
0.073400 -0.051512 0.102564
0.069554 -0.051069 0.078425
0.060457 -0.049194 0.112336
0.078235 -0.051530 0.096585
0.082658 -0.051366 0.086625
0.088786 -0.052062 0.074896
0.078893 -0.050646 0.092577
0.066061 -0.049547 0.100052
0.055880 -0.049484 0.107107
0.075796 -0.050165 0.090407
0.069574 -0.050054 0.106638
0.083363 -0.057063 0.093113
0.078053 -0.051534 0.071575
0.072078 -0.049549 0.097101
0.069952 -0.050027 0.093628
0.045746 -0.050944 0.093039
0.056554 -0.051207 0.082925
0.077386 -0.054760 0.098694
-0.123168 -0.022585 -0.040423
-0.104638 -0.019965 -0.038750
-0.076849 -0.032565 -0.047095
-0.107877 -0.023837 -0.041572
-0.123049 -0.012688 -0.028953
-0.101577 -0.009558 -0.026681
-0.112137 -0.015191 -0.034079
-0.068923 -0.018817 -0.038903
-0.092159 -0.007581 -0.024015
-0.075251 -0.019899 -0.036858
-0.088817 -0.012958 -0.032714
-0.138757 -0.012742 -0.029041
-0.129152 -0.014196 -0.032310
-0.079122 -0.012208 -0.030716
-0.084950 -0.016756 -0.036635
-0.123336 -0.032811 -0.045195
-0.113707 -0.008969 -0.025275
-0.088642 -0.031467 -0.044561
-0.088292 -0.020599 -0.039709
-0.081745 -0.026518 -0.044999
-0.094482 -0.023630 -0.040480
-0.119853 -0.016034 -0.034705
-0.134991 -0.016427 -0.034412
-0.097396 -0.015646 -0.034586
-0.102423 -0.010411 -0.027662
-0.061484 -0.022815 -0.041705
-0.107038 -0.033952 -0.046785
-0.102613 -0.027178 -0.040863
-0.114501 -0.031028 -0.043724
-0.143135 -0.025202 -0.040022
-0.131053 -0.023757 -0.040762
-0.070038 -0.011007 -0.030283
-0.055801 -0.075368 -0.035962
-0.036862 -0.059306 -0.046028
-0.009266 -0.081488 -0.029599
-0.037645 -0.075881 -0.036900
-0.054848 -0.049877 -0.044903
-0.025887 -0.079004 -0.034999
-0.043837 -0.079909 -0.033348
0.015771 -0.073797 -0.041693
-0.023501 -0.053493 -0.045203
0.007907 -0.084564 -0.026092
-0.010181 -0.074072 -0.040318
-0.070146 -0.066751 -0.040313
-0.058937 -0.080761 -0.026619
-0.001692 -0.053027 -0.047374
-0.001769 -0.081650 -0.028918
-0.051371 -0.080084 -0.028271
-0.041073 -0.075511 -0.035405
-0.014748 -0.084364 -0.021045
-0.016806 -0.077361 -0.038390
-0.001310 -0.074921 -0.040382
-0.021522 -0.080545 -0.031864
-0.049097 -0.067827 -0.042579
-0.066380 -0.076956 -0.033088
-0.020763 -0.067844 -0.043055
-0.030105 -0.073040 -0.040494
0.017854 -0.081505 -0.032551
-0.035320 -0.078194 -0.032925
-0.030884 -0.083087 -0.025737
-0.044798 -0.082861 -0.020794
-0.075173 -0.078309 -0.028797
-0.060439 -0.069872 -0.040174
0.004277 -0.070117 -0.043262
-0.043093 -0.013799 0.025092
-0.027257 -0.008828 0.017233
-0.018206 -0.008403 0.016612
-0.033500 -0.009653 0.018638
-0.039115 -0.011069 0.021491
-0.030614 -0.024287 0.036365
-0.033475 -0.018378 0.030971
-0.012254 -0.010265 0.020248
-0.023174 -0.023221 0.035486
-0.015873 -0.021933 0.034143
-0.025217 -0.016751 0.029236
-0.047299 -0.016845 0.029183
-0.043275 -0.021407 0.033796
-0.016404 -0.012336 0.023332
-0.020424 -0.019318 0.031937
-0.038082 -0.007720 0.015237
-0.036504 -0.021881 0.033880
-0.019452 -0.015136 0.026758
-0.022399 -0.010547 0.020403
-0.023376 -0.007063 0.013541
-0.024838 -0.013392 0.024803
-0.037843 -0.015277 0.027063
-0.041094 -0.017874 0.030061
-0.028890 -0.011500 0.021840
-0.028082 -0.020162 0.032763
-0.009092 -0.014270 0.025687
-0.031390 -0.006859 0.013045
-0.030773 -0.014840 0.027059
-0.034510 -0.012595 0.023393
-0.048346 -0.012568 0.023052
-0.043830 -0.009313 0.018192
-0.012759 -0.017402 0.029881
-0.019836 -0.061454 -0.092351
0.011983 -0.061124 -0.123357
0.029643 -0.061131 -0.120454
0.002073 -0.060815 -0.115235
-0.011205 -0.060820 -0.108521
-0.002864 -0.062239 -0.044005
-0.004274 -0.063174 -0.073574
0.046443 -0.062001 -0.112063
0.013537 -0.064212 -0.054366
0.031854 -0.063713 -0.057149
0.015267 -0.063139 -0.082266
-0.028131 -0.061359 -0.078778
-0.027132 -0.060979 -0.051564
0.035963 -0.062742 -0.101507
0.023951 -0.063914 -0.071183
-0.008400 -0.057978 -0.126337
-0.011046 -0.062422 -0.059791
0.028951 -0.063081 -0.086550
0.022020 -0.061821 -0.111227
0.021024 -0.058806 -0.133963
0.018229 -0.063031 -0.097223
-0.009544 -0.062700 -0.085621
-0.018580 -0.062212 -0.071566
0.009288 -0.061543 -0.104664
0.008232 -0.063167 -0.069561
0.049370 -0.063313 -0.090674
0.000188 -0.057568 -0.137620
0.004130 -0.062506 -0.090406
-0.002407 -0.061590 -0.100630
-0.027098 -0.059569 -0.103190
-0.020880 -0.059328 -0.122147
0.040168 -0.064278 -0.075874
0.044656 -0.051585 0.086171
0.069273 -0.051590 0.065801
0.080489 -0.052395 0.066091
0.061425 -0.051825 0.070501
0.050240 -0.051720 0.076036
0.051230 -0.049575 0.109964
0.053597 -0.050148 0.097539
0.085708 -0.052242 0.071540
0.061010 -0.050027 0.105299
0.069492 -0.051568 0.100152
0.065548 -0.050111 0.089268
0.034813 -0.051575 0.094218
0.037037 -0.050426 0.108588
0.078175 -0.051050 0.078116
0.067603 -0.050340 0.094916
0.057092 -0.052946 0.061765
0.046534 -0.049278 0.105009
0.073234 -0.051165 0.086227
0.074707 -0.051467 0.072362
0.078460 -0.052546 0.056600
0.070638 -0.051145 0.080338
0.054151 -0.050336 0.088553
0.043826 -0.050868 0.097108
0.065089 -0.050967 0.077189
0.060386 -0.049583 0.098240
0.082397 -0.052853 0.083091
0.065547 -0.053260 0.053766
0.061136 -0.050863 0.085953
0.057607 -0.051623 0.079457
0.036832 -0.053086 0.079178
0.044608 -0.053250 0.066010
0.076106 -0.051278 0.091504
-0.092074 -0.054511 -0.044491
-0.078146 -0.042318 -0.047009
-0.050720 -0.065249 -0.042904
-0.069997 -0.057395 -0.045397
-0.093750 -0.039422 -0.045826
-0.062121 -0.052658 -0.046831
-0.083214 -0.059538 -0.043797
-0.022215 -0.053541 -0.047785
-0.064397 -0.038373 -0.047261
-0.035454 -0.069590 -0.042064
-0.047408 -0.049656 -0.047657
-0.111157 -0.044363 -0.044791
-0.098724 -0.060709 -0.042162
-0.045934 -0.040738 -0.048219
-0.041360 -0.061664 -0.044838
-0.088714 -0.067391 -0.039532
-0.079144 -0.052677 -0.046177
-0.052651 -0.072064 -0.039222
-0.051926 -0.057587 -0.046320
-0.035840 -0.055355 -0.047088
-0.060730 -0.060973 -0.044173
-0.088166 -0.046738 -0.046344
-0.109316 -0.053090 -0.042773
-0.057224 -0.045851 -0.047717
-0.070230 -0.047830 -0.046731
-0.023923 -0.062997 -0.044941
-0.075073 -0.063687 -0.042326
-0.064681 -0.068158 -0.041021
-0.076813 -0.071011 -0.038093
-0.110002 -0.062972 -0.039637
-0.099914 -0.049585 -0.044631
-0.034276 -0.046103 -0.048233
-0.141811 -0.011293 -0.023326
-0.110357 -0.017988 -0.034435
-0.089836 -0.018680 -0.035606
-0.122649 -0.017128 -0.032568
-0.135887 -0.014333 -0.028656
-0.118465 -0.005602 -0.005983
-0.123898 -0.007737 -0.015362
-0.080660 -0.014669 -0.030957
-0.105093 -0.005701 -0.008654
-0.090694 -0.006508 -0.010672
-0.106903 -0.008553 -0.018338
-0.151456 -0.009026 -0.017365
-0.141451 -0.006128 -0.009170
-0.088168 -0.012128 -0.026097
-0.098589 -0.007133 -0.014399
-0.132061 -0.020767 -0.036048
-0.129843 -0.006059 -0.009924
-0.095047 -0.009718 -0.021743
-0.100553 -0.015189 -0.030811
-0.100707 -0.022092 -0.038974
-0.106658 -0.011496 -0.024516
-0.130966 -0.009582 -0.020044
-0.139693 -0.007912 -0.016133
-0.114468 -0.013824 -0.027831
-0.112972 -0.006758 -0.013174
-0.074600 -0.010606 -0.023400
-0.117559 -0.022992 -0.039072
-0.118638 -0.010017 -0.020951
-0.126255 -0.012438 -0.026239
-0.153785 -0.013253 -0.025406
-0.145156 -0.017800 -0.031855
-0.083097 -0.007697 -0.017145
-0.003806 -0.035372 0.039866
0.003213 -0.026823 0.036460
0.013146 -0.041050 0.041279
0.005846 -0.035374 0.040169
-0.002600 -0.025175 0.035895
0.010010 -0.033267 0.039999
0.000572 -0.037246 0.040926
0.025202 -0.032790 0.039203
0.008219 -0.024341 0.035617
0.019467 -0.043120 0.042065
0.015557 -0.031380 0.038803
-0.009465 -0.028835 0.037547
-0.005023 -0.039319 0.041606
0.015596 -0.025495 0.035763
0.017509 -0.038209 0.041231
-0.002605 -0.042625 0.041769
0.001816 -0.033224 0.039459
0.011503 -0.045743 0.042103
0.012756 -0.035965 0.039974
0.019959 -0.034427 0.039749
0.008667 -0.038612 0.040932
-0.001278 -0.029777 0.037608
-0.010376 -0.035028 0.039772
0.011408 -0.029110 0.037643
0.005854 -0.030898 0.038553
0.024293 -0.038550 0.040839
0.003036 -0.040328 0.041164
0.007265 -0.042767 0.042079
0.002453 -0.045811 0.042036
-0.010403 -0.040426 0.041111
-0.005780 -0.032040 0.038739
0.020620 -0.029100 0.037883
-0.065403 -0.006593 -0.016373
-0.044876 -0.011037 -0.027932
-0.031418 -0.011738 -0.029147
-0.053277 -0.010259 -0.025915
-0.061511 -0.008772 -0.022181
-0.050934 -0.004357 0.001414
-0.053853 -0.005007 -0.008227
-0.024390 -0.008998 -0.024567
-0.041449 -0.004319 -0.000842
-0.031897 -0.004643 -0.002988
-0.043601 -0.005191 -0.011128
-0.071984 -0.005376 -0.010768
-0.066536 -0.004393 -0.002100
-0.030912 -0.007257 -0.019719
-0.037831 -0.004644 -0.007143
-0.059698 -0.012803 -0.030119
-0.057681 -0.004304 -0.002678
-0.035318 -0.005757 -0.013823
-0.038089 -0.009070 -0.024204
-0.038636 -0.014052 -0.032763
-0.041867 -0.007089 -0.017500
-0.058115 -0.005758 -0.013498
-0.063545 -0.005015 -0.009095
-0.047561 -0.008385 -0.021327
-0.047116 -0.004418 -0.005470
-0.021555 -0.006513 -0.016283
-0.050066 -0.014464 -0.032929
-0.050245 -0.006107 -0.014364
-0.055563 -0.007446 -0.019247
-0.073302 -0.007701 -0.019666
-0.067750 -0.010550 -0.026271
-0.027315 -0.004966 -0.009609
-0.067235 -0.005158 -0.006972
-0.050142 -0.007159 -0.018170
-0.039527 -0.007781 -0.019560
-0.057240 -0.006767 -0.016261
-0.063987 -0.005978 -0.012469
-0.054977 -0.006680 0.011029
-0.057362 -0.005159 0.000965
-0.034057 -0.006088 -0.014702
-0.047145 -0.006097 0.008768
-0.039388 -0.005902 0.006502
-0.049336 -0.004825 -0.001792
-0.072707 -0.004931 -0.001592
-0.068077 -0.005821 0.007059
-0.039334 -0.005179 -0.009911
-0.044318 -0.005158 0.002222
-0.062649 -0.008462 -0.020812
-0.060424 -0.005715 0.006467
-0.042570 -0.005071 -0.004258
-0.044524 -0.006164 -0.014371
-0.045510 -0.009343 -0.023347
-0.047499 -0.005418 -0.008013
-0.060741 -0.004835 -0.004272
-0.065390 -0.005191 0.000274
-0.052178 -0.005778 -0.011737
-0.051943 -0.005296 0.003995
-0.032010 -0.005221 -0.006700
-0.054737 -0.009612 -0.023765
-0.054290 -0.005079 -0.005203
-0.058816 -0.005601 -0.010006
-0.073904 -0.005646 -0.010437
-0.069277 -0.006999 -0.016969
-0.036054 -0.004973 -0.000135
-0.016615 -0.082709 -0.027868
0.020684 -0.073315 -0.037512
0.041216 -0.077518 -0.033457
0.003624 -0.079246 -0.031784
-0.008780 -0.070106 -0.033621
0.011285 -0.086779 -0.014044
0.001930 -0.085877 -0.021363
0.060538 -0.078557 -0.034860
0.021895 -0.079775 -0.019712
0.041117 -0.087754 -0.019081
0.026638 -0.085124 -0.023740
-0.023804 -0.084803 -0.020668
-0.012990 -0.086173 -0.014735
0.052707 -0.069966 -0.033708
0.033860 -0.086601 -0.020228
-0.005869 -0.075493 -0.035334
-0.001281 -0.086685 -0.014802
0.037549 -0.083673 -0.029776
0.027621 -0.080377 -0.031955
0.033441 -0.072524 -0.039777
0.018890 -0.083987 -0.027497
-0.008111 -0.083866 -0.024285
-0.014614 -0.085399 -0.020325
0.012069 -0.081551 -0.030196
0.014507 -0.085815 -0.020647
0.067369 -0.083794 -0.027405
0.009634 -0.071793 -0.038867
0.007520 -0.084509 -0.025604
-0.001779 -0.082719 -0.028114
-0.028340 -0.080880 -0.028968
-0.019850 -0.076028 -0.034530
0.053644 -0.085718 -0.023823
0.015508 -0.084631 0.014916
0.040441 -0.086174 0.004664
0.059823 -0.085998 0.004689
0.028993 -0.086262 0.007187
0.020776 -0.085671 0.012057
0.031895 -0.076206 0.026764
0.027980 -0.081666 0.021615
0.076478 -0.084732 0.009307
0.043793 -0.077056 0.026289
0.059975 -0.078474 0.024221
0.045243 -0.082100 0.019828
0.009965 -0.082521 0.020892
0.016290 -0.079283 0.024947
0.065478 -0.083871 0.014127
0.052026 -0.080763 0.021970
0.022780 -0.086733 0.002766
0.023406 -0.078358 0.025192
0.055267 -0.082856 0.015641
0.048328 -0.085388 0.009604
0.050157 -0.086592 -0.000497
0.041724 -0.084202 0.015244
0.022076 -0.083607 0.018443
0.016871 -0.082380 0.020425
0.035684 -0.085165 0.011422
0.037298 -0.080193 0.022376
0.088185 -0.083013 0.016316
0.032992 -0.086574 -0.001176
0.032224 -0.083703 0.017387
0.027113 -0.085001 0.013753
0.008943 -0.085349 0.013275
0.014022 -0.086518 0.007238
0.071848 -0.081020 0.020529
-0.101826 -0.022939 -0.041727
-0.087092 -0.014178 -0.032322
-0.057459 -0.033178 -0.047702
-0.083849 -0.021867 -0.040176
-0.103817 -0.011198 -0.026866
-0.076855 -0.015188 -0.034327
-0.091843 -0.020755 -0.039355
-0.038652 -0.017808 -0.037634
-0.073055 -0.008551 -0.025449
-0.048005 -0.030317 -0.045540
-0.060399 -0.014908 -0.034541
-0.120295 -0.013670 -0.030176
-0.110153 -0.022909 -0.041386
-0.055737 -0.010853 -0.028370
-0.058533 -0.021973 -0.040740
-0.103076 -0.032817 -0.045252
-0.091958 -0.013487 -0.031659
-0.066290 -0.037303 -0.047267
-0.065735 -0.019816 -0.038956
-0.052018 -0.022112 -0.041485
-0.072212 -0.026183 -0.042841
-0.101249 -0.015648 -0.033820
-0.119728 -0.019346 -0.037067
-0.070423 -0.014278 -0.032577
-0.080681 -0.012419 -0.030615
-0.034921 -0.026180 -0.044510
-0.087352 -0.031351 -0.045428
-0.078360 -0.032584 -0.045392
-0.092279 -0.035722 -0.046273
-0.124243 -0.027711 -0.042967
-0.111405 -0.020606 -0.038110
-0.045595 -0.012078 -0.031117
0.041084 -0.062900 0.082217
0.068827 -0.063325 0.069779
0.078172 -0.062174 0.068674
0.059937 -0.063872 0.072135
0.048933 -0.063739 0.076527
0.057934 -0.059292 0.097316
0.055812 -0.061426 0.089100
0.081619 -0.060066 0.071385
0.065692 -0.058798 0.094657
0.073054 -0.058238 0.090299
0.066867 -0.060886 0.084174
0.030585 -0.061785 0.089991
0.040651 -0.060623 0.097247
0.076384 -0.060474 0.076080
0.070244 -0.059805 0.087013
0.054436 -0.064482 0.067600
0.051149 -0.060378 0.094425
0.073065 -0.060458 0.080949
0.072702 -0.062304 0.073296
0.076736 -0.063381 0.063475
0.069025 -0.061760 0.078687
0.051775 -0.062106 0.084359
0.042235 -0.061970 0.089785
0.065118 -0.062743 0.075495
0.062574 -0.060319 0.090263
0.080454 -0.059132 0.078999
0.065549 -0.064540 0.063839
0.061990 -0.062075 0.081897
0.056107 -0.062931 0.078639
0.028480 -0.063097 0.080382
0.039979 -0.064171 0.072220
0.076512 -0.058115 0.084432
0.031189 -0.064681 0.038451
0.044178 -0.058925 0.041481
0.071071 -0.068780 0.035765
0.049007 -0.064221 0.039610
0.030714 -0.058487 0.042464
0.056657 -0.062110 0.048274
0.038238 -0.065261 0.038137
0.092709 -0.062482 0.040086
0.056220 -0.057160 0.043884
0.084261 -0.067743 0.035510
0.070156 -0.061422 0.040510
0.015553 -0.060693 0.040822
0.023086 -0.065913 0.040027
0.071927 -0.058020 0.041761
0.074999 -0.064613 0.039141
0.030194 -0.068964 0.034657
0.043895 -0.061524 0.042591
0.064005 -0.071243 0.031826
0.065343 -0.063576 0.039272
0.080475 -0.064161 0.039706
0.058743 -0.066920 0.037522
0.035168 -0.061352 0.040353
0.015874 -0.064172 0.039093
0.061450 -0.060632 0.041305
0.052058 -0.060610 0.041550
0.098820 -0.066064 0.036757
0.045566 -0.068697 0.036435
0.053260 -0.069171 0.035040
0.041719 -0.071131 0.032409
0.008267 -0.066880 0.036060
0.024547 -0.062499 0.040091
0.082795 -0.059396 0.041752
-0.070773 -0.050904 -0.046492
-0.048065 -0.038039 -0.047434
-0.004495 -0.063816 -0.044415
-0.037527 -0.054675 -0.047092
-0.075002 -0.034486 -0.045107
-0.025101 -0.050076 -0.049222
-0.056213 -0.057575 -0.046916
0.036466 -0.050147 -0.051000
-0.026468 -0.035366 -0.047002
0.017851 -0.069177 -0.043503
-0.001233 -0.047003 -0.049295
-0.099369 -0.039792 -0.046275
-0.080769 -0.057536 -0.044905
0.002132 -0.037378 -0.047493
0.008318 -0.059111 -0.047488
-0.065641 -0.065566 -0.040213
-0.051965 -0.047968 -0.049408
-0.008706 -0.070835 -0.040277
-0.008584 -0.054183 -0.048405
0.018265 -0.052734 -0.050354
-0.020178 -0.058930 -0.045503
-0.065445 -0.042908 -0.047318
-0.093746 -0.049251 -0.044974
-0.015293 -0.042319 -0.048687
-0.035058 -0.042946 -0.048076
0.033738 -0.062071 -0.047915
-0.042825 -0.061077 -0.044640
-0.029719 -0.066675 -0.042189
-0.048792 -0.069094 -0.038689
-0.094552 -0.060650 -0.040467
-0.083211 -0.045476 -0.046011
0.018600 -0.043042 -0.049434
-0.025471 -0.013412 0.024331
-0.009267 -0.008254 0.016062
-0.000015 -0.007703 0.015216
-0.015660 -0.009064 0.017657
-0.021404 -0.010630 0.020882
-0.012634 -0.023710 0.035946
-0.015588 -0.017964 0.030389
0.006086 -0.009680 0.019185
-0.005199 -0.022623 0.035068
0.002183 -0.021407 0.033479
-0.007201 -0.016378 0.028589
-0.029625 -0.016490 0.028635
-0.025396 -0.020997 0.033266
0.001883 -0.011929 0.022618
-0.002362 -0.018817 0.031277
-0.020236 -0.006938 0.013792
-0.018575 -0.021386 0.033364
-0.001290 -0.014621 0.025821
-0.004338 -0.009982 0.019376
-0.005356 -0.006302 0.011873
-0.006862 -0.012964 0.023995
-0.020136 -0.014972 0.026513
-0.023342 -0.017489 0.029505
-0.011001 -0.011068 0.021112
-0.010139 -0.019695 0.032191
0.009207 -0.013793 0.024827
-0.013562 -0.006073 0.011141
-0.012937 -0.014410 0.026355
-0.016676 -0.012068 0.022435
-0.030767 -0.012087 0.022102
-0.026216 -0.008688 0.016913
0.005488 -0.016952 0.029238
0.016254 -0.048708 0.041618
0.023786 -0.039674 0.041591
0.034523 -0.054266 0.041065
0.026654 -0.048913 0.041838
0.017195 -0.037491 0.041739
0.031223 -0.046377 0.042421
0.020812 -0.051052 0.041914
0.047295 -0.045977 0.041751
0.029366 -0.036528 0.041758
0.041171 -0.056236 0.041105
0.037185 -0.044283 0.041878
0.009624 -0.041726 0.041859
0.014430 -0.052840 0.041881
0.037151 -0.037912 0.041346
0.039283 -0.051557 0.041771
0.017596 -0.056246 0.041156
0.022281 -0.046719 0.041922
0.033054 -0.058934 0.040495
0.034391 -0.049299 0.041476
0.041865 -0.047624 0.041692
0.029857 -0.051850 0.041625
0.018907 -0.042772 0.041650
0.008785 -0.048230 0.041810
0.032787 -0.041849 0.041843
0.026800 -0.043883 0.042037
0.046167 -0.051877 0.041318
0.023812 -0.054045 0.041279
0.028375 -0.056162 0.041259
0.023205 -0.059029 0.040549
0.008918 -0.054076 0.041326
0.013848 -0.045194 0.041907
0.042611 -0.041800 0.041893
-0.050452 -0.049495 -0.045919
-0.036139 -0.036795 -0.046330
-0.007533 -0.059899 -0.043669
-0.027480 -0.051976 -0.045943
-0.052160 -0.034603 -0.045329
-0.019123 -0.046964 -0.046694
-0.041833 -0.054691 -0.045083
0.025078 -0.046473 -0.047092
-0.021540 -0.032626 -0.045431
0.009433 -0.064343 -0.042894
-0.002445 -0.043375 -0.046974
-0.069601 -0.039962 -0.045807
-0.057811 -0.056625 -0.044210
-0.001291 -0.034185 -0.046432
0.003412 -0.055609 -0.045179
-0.048474 -0.063827 -0.041943
-0.036947 -0.047367 -0.046713
-0.010947 -0.067894 -0.040680
-0.008249 -0.051712 -0.046498
0.010986 -0.049193 -0.046693
-0.018205 -0.055600 -0.044995
-0.046444 -0.041520 -0.046599
-0.068946 -0.049004 -0.045294
-0.012968 -0.040040 -0.046754
-0.027399 -0.041953 -0.046563
0.022494 -0.056612 -0.045170
-0.033574 -0.059178 -0.043790
-0.022753 -0.063736 -0.042547
-0.035907 -0.067866 -0.040200
-0.069238 -0.060011 -0.042935
-0.058362 -0.044918 -0.045995
0.011740 -0.039448 -0.046723
0.036279 -0.065197 0.039272
0.051298 -0.054380 0.041515
0.081721 -0.068071 0.036624
0.057546 -0.065086 0.040068
0.035114 -0.051779 0.040861
0.066332 -0.063697 0.042008
0.044615 -0.067554 0.038400
0.106358 -0.059832 0.039430
0.064818 -0.050781 0.040528
0.097388 -0.068062 0.035982
0.082164 -0.060440 0.040595
0.016812 -0.057844 0.039968
0.026179 -0.067472 0.038513
0.083754 -0.051811 0.040794
0.088839 -0.065133 0.039358
0.035517 -0.070375 0.034449
0.050246 -0.061929 0.039926
0.075435 -0.069089 0.032103
0.076614 -0.064767 0.039265
0.094941 -0.064921 0.038485
0.069428 -0.067037 0.038777
0.040622 -0.059319 0.040697
0.017018 -0.064387 0.039476
0.073020 -0.057763 0.040931
0.061153 -0.059045 0.041302
0.112075 -0.065469 0.037123
0.053951 -0.069214 0.035344
0.061394 -0.068944 0.036407
0.048562 -0.069947 0.033045
0.010289 -0.068192 0.037393
0.028150 -0.062624 0.040546
0.095222 -0.056070 0.040676
-0.096960 -0.034310 -0.046443
-0.081932 -0.019903 -0.039505
-0.052563 -0.047502 -0.048242
-0.073555 -0.036687 -0.047009
-0.098282 -0.017867 -0.036784
-0.064565 -0.031023 -0.046034
-0.087712 -0.039906 -0.046909
-0.021250 -0.031236 -0.047156
-0.066830 -0.016125 -0.036704
-0.035921 -0.053047 -0.048417
-0.048023 -0.028005 -0.045059
-0.115641 -0.023189 -0.040583
-0.104516 -0.042318 -0.046965
-0.046585 -0.018375 -0.038908
-0.042168 -0.041167 -0.048091
-0.094729 -0.051140 -0.046303
-0.082794 -0.031089 -0.045884
-0.055919 -0.057277 -0.046543
-0.053887 -0.036853 -0.047991
-0.034651 -0.034074 -0.047906
-0.064002 -0.041560 -0.047720
-0.092618 -0.024806 -0.042214
-0.116127 -0.033363 -0.044740
-0.058281 -0.023841 -0.042311
-0.073346 -0.025778 -0.043470
-0.022788 -0.043141 -0.049035
-0.079843 -0.045928 -0.047516
-0.068700 -0.051395 -0.047307
-0.082205 -0.056057 -0.045808
-0.116520 -0.046016 -0.045925
-0.104924 -0.029221 -0.043575
-0.033740 -0.023029 -0.042974
0.001797 -0.059195 -0.114166
0.026436 -0.059847 -0.142062
0.043547 -0.060044 -0.140562
0.018010 -0.058068 -0.134353
0.008701 -0.059460 -0.128180
0.015637 -0.063037 -0.070432
0.014721 -0.062065 -0.097626
0.058406 -0.060047 -0.133659
0.029313 -0.064842 -0.079006
0.045781 -0.063684 -0.084692
0.028706 -0.062581 -0.103825
-0.004006 -0.059595 -0.100816
-0.000702 -0.060331 -0.078655
0.047709 -0.062754 -0.121230
0.036277 -0.063232 -0.095116
0.010600 -0.054437 -0.146034
0.010974 -0.061626 -0.084221
0.039537 -0.064362 -0.110013
0.035737 -0.060076 -0.130863
0.037736 -0.057880 -0.154659
0.031718 -0.061494 -0.116598
0.010141 -0.061554 -0.106853
0.005700 -0.059845 -0.094817
0.023935 -0.060384 -0.124614
0.023486 -0.062739 -0.091512
0.059853 -0.062117 -0.112381
0.016441 -0.055603 -0.157263
0.020810 -0.060782 -0.110944
0.015437 -0.061964 -0.118970
-0.005580 -0.056190 -0.124243
-0.001046 -0.055765 -0.142403
0.051926 -0.063814 -0.099844
-0.007761 -0.023248 0.034021
0.000715 -0.015313 0.027922
0.011768 -0.029051 0.037341
0.003108 -0.023205 0.034172
-0.005986 -0.013783 0.026541
0.007505 -0.021022 0.033250
-0.002493 -0.025032 0.035645
0.023634 -0.020910 0.032602
0.006122 -0.013033 0.026019
0.018141 -0.031092 0.038664
0.013427 -0.019439 0.031755
-0.013994 -0.017145 0.029437
-0.009273 -0.027050 0.036857
0.013955 -0.014141 0.026818
0.015831 -0.026071 0.036313
-0.006512 -0.030753 0.038298
-0.001172 -0.021132 0.032796
0.009737 -0.033792 0.039586
0.010837 -0.024058 0.034437
0.017881 -0.022474 0.033753
0.006710 -0.026510 0.036089
-0.004530 -0.017992 0.030004
-0.014852 -0.022850 0.033656
0.009010 -0.017258 0.029658
0.003382 -0.018870 0.031184
0.023415 -0.026451 0.036005
0.000093 -0.028300 0.037080
0.004632 -0.030623 0.038591
-0.000797 -0.033829 0.039490
-0.016056 -0.028206 0.036950
-0.009920 -0.020166 0.031792
0.019110 -0.017309 0.029790
-0.023448 -0.057055 -0.047092
-0.003271 -0.044054 -0.048682
0.035598 -0.068159 -0.045923
0.006144 -0.059787 -0.048019
-0.026269 -0.041370 -0.046532
0.016835 -0.055255 -0.050061
-0.011052 -0.062808 -0.047187
0.073844 -0.054780 -0.052185
0.016103 -0.040558 -0.048704
0.056810 -0.072090 -0.045445
0.038554 -0.052056 -0.050497
-0.053079 -0.046266 -0.046471
-0.034801 -0.063745 -0.045051
0.041965 -0.042480 -0.049903
0.046831 -0.063326 -0.048934
-0.020399 -0.070415 -0.041418
-0.006226 -0.053665 -0.049552
0.030721 -0.073900 -0.041774
0.031541 -0.059198 -0.049799
0.055453 -0.057359 -0.051388
0.021169 -0.064352 -0.046753
-0.017819 -0.048635 -0.048374
-0.047256 -0.056018 -0.045209
0.025971 -0.047837 -0.050155
0.008034 -0.048855 -0.049054
0.073695 -0.065554 -0.049389
0.000565 -0.066234 -0.045788
0.012545 -0.070764 -0.043830
-0.004989 -0.073024 -0.039816
-0.052326 -0.065660 -0.041506
-0.035032 -0.051422 -0.046799
0.057362 -0.047528 -0.051010
0.073969 -0.049679 0.078843
0.093497 -0.051686 0.062353
0.098127 -0.056233 0.061427
0.087681 -0.050414 0.066007
0.080154 -0.050027 0.070709
0.074761 -0.051660 0.099873
0.078758 -0.050138 0.087547
0.097761 -0.058627 0.067275
0.078960 -0.054506 0.094852
0.080863 -0.058768 0.089172
0.086017 -0.051363 0.082486
0.065475 -0.049617 0.085145
0.068405 -0.049197 0.097479
0.093422 -0.055804 0.072362
0.083709 -0.054199 0.085268
0.086538 -0.050777 0.057970
0.074905 -0.049750 0.093722
0.088400 -0.053526 0.079237
0.094183 -0.053660 0.067947
0.101155 -0.053792 0.053898
0.090855 -0.052415 0.074741
0.081346 -0.050084 0.081678
0.071589 -0.049463 0.088714
0.089339 -0.051210 0.071470
0.082065 -0.051377 0.089658
0.091172 -0.061176 0.075901
0.092872 -0.051702 0.049071
0.085487 -0.050277 0.078343
0.085607 -0.050024 0.074653
0.064846 -0.049987 0.072958
0.075084 -0.050511 0.062442
0.085904 -0.058978 0.081804
-0.015408 -0.014556 0.026302
0.004779 -0.008076 0.017350
0.019762 -0.012079 0.023395
-0.000977 -0.012037 0.024109
-0.011152 -0.010147 0.020580
0.004615 -0.025301 0.036086
-0.004023 -0.019113 0.031256
0.031383 -0.011221 0.022909
0.010815 -0.021126 0.032788
0.025625 -0.024706 0.035614
0.014660 -0.016560 0.029018
-0.023416 -0.016926 0.028706
-0.015877 -0.024637 0.035035
0.022914 -0.011974 0.023229
0.019999 -0.020735 0.033074
-0.009388 -0.010771 0.021466
-0.005869 -0.022266 0.033294
0.016224 -0.020979 0.033171
0.013447 -0.011434 0.023156
0.017071 -0.007618 0.016802
0.010187 -0.015547 0.027668
-0.008409 -0.014467 0.026507
-0.017175 -0.019185 0.030958
0.006672 -0.011272 0.022764
0.005037 -0.018824 0.031163
0.035167 -0.017019 0.029173
-0.000085 -0.008314 0.016705
0.002451 -0.018556 0.031167
-0.004030 -0.020019 0.032422
-0.026272 -0.015409 0.026669
-0.018348 -0.010050 0.020298
0.027447 -0.016607 0.028560
0.066940 -0.063804 0.065762
0.084413 -0.064042 0.053891
0.089994 -0.062969 0.052539
0.078702 -0.064582 0.056304
0.072682 -0.064527 0.060049
0.073436 -0.060996 0.080382
0.073410 -0.062645 0.071539
0.092034 -0.060812 0.054987
0.077967 -0.060451 0.077576
0.082665 -0.059833 0.073462
0.080376 -0.062176 0.067762
0.059451 -0.063026 0.071245
0.063588 -0.062138 0.078783
0.087570 -0.061306 0.059842
0.081592 -0.061201 0.070116
0.076770 -0.065167 0.051568
0.070680 -0.061888 0.076164
0.084003 -0.061573 0.064755
0.085945 -0.063255 0.057484
0.091768 -0.064270 0.046875
0.082941 -0.062782 0.062528
0.072850 -0.063212 0.067710
0.065941 -0.063100 0.072493
0.081086 -0.063706 0.059695
0.077197 -0.061763 0.073344
0.089350 -0.060316 0.063071
0.083717 -0.065182 0.047300
0.078225 -0.063130 0.064979
0.075349 -0.063846 0.062211
0.060055 -0.064166 0.063233
0.068030 -0.064883 0.056307
0.085802 -0.059254 0.068106
0.035085 -0.081691 0.023847
0.050180 -0.076759 0.028978
0.073849 -0.085208 0.018872
0.050403 -0.081907 0.024567
0.035807 -0.073303 0.032950
0.057226 -0.077079 0.029617
0.043522 -0.081482 0.024793
0.088814 -0.080119 0.026946
0.058905 -0.071578 0.034022
0.081980 -0.083115 0.020552
0.068481 -0.077664 0.029375
0.022388 -0.075589 0.030818
0.029694 -0.081020 0.024120
0.073573 -0.073784 0.032386
0.073731 -0.081304 0.024439
0.035465 -0.085474 0.017369
0.045437 -0.076596 0.030163
0.067695 -0.085304 0.015400
0.066296 -0.081541 0.024431
0.076336 -0.082543 0.023491
0.060782 -0.082927 0.023060
0.038564 -0.077894 0.029048
0.023359 -0.080359 0.025900
0.060796 -0.077647 0.029709
0.053759 -0.076335 0.030424
0.096543 -0.082672 0.022280
0.049855 -0.085281 0.018922
0.054530 -0.084108 0.019552
0.044637 -0.085145 0.015927
0.016553 -0.082926 0.020665
0.029114 -0.080686 0.025876
0.082686 -0.076085 0.030637
-0.030528 -0.007141 -0.018040
-0.008293 -0.011783 -0.029629
0.006386 -0.012380 -0.030606
-0.017447 -0.010948 -0.027574
-0.026341 -0.009493 -0.023922
-0.014953 -0.004381 0.000109
-0.018094 -0.005403 -0.009711
0.014552 -0.009630 -0.026198
-0.004604 -0.004498 -0.002144
0.006031 -0.004840 -0.004290
-0.006593 -0.005663 -0.012545
-0.037455 -0.005906 -0.012245
-0.031679 -0.004585 -0.003384
0.007433 -0.007919 -0.021346
-0.000407 -0.004962 -0.008508
-0.024388 -0.013394 -0.031749
-0.022263 -0.004535 -0.004070
0.002304 -0.006150 -0.015439
-0.001065 -0.009700 -0.025749
-0.001398 -0.014696 -0.034330
-0.005274 -0.007619 -0.018980
-0.022950 -0.006317 -0.015015
-0.028553 -0.005399 -0.010571
-0.011323 -0.009061 -0.022981
-0.010737 -0.004703 -0.006890
0.018025 -0.007026 -0.017735
-0.013949 -0.015056 -0.034495
-0.014221 -0.006576 -0.015867
-0.019941 -0.007938 -0.020798
-0.038901 -0.008254 -0.021266
-0.033036 -0.011179 -0.027941
0.011267 -0.005373 -0.011094
0.031796 -0.048554 0.041593
0.039319 -0.041012 0.041462
0.050203 -0.053853 0.040965
0.042414 -0.048956 0.041797
0.032368 -0.039208 0.041564
0.046796 -0.046668 0.042362
0.036224 -0.050658 0.041884
0.062785 -0.046324 0.041667
0.045114 -0.038461 0.041565
0.056677 -0.055907 0.040938
0.052727 -0.044912 0.041757
0.023953 -0.042814 0.041767
0.029338 -0.052367 0.041894
0.052911 -0.039626 0.041175
0.054893 -0.051149 0.041715
0.033157 -0.055492 0.041028
0.038309 -0.047018 0.041868
0.048551 -0.058668 0.040268
0.050151 -0.049223 0.041444
0.057418 -0.047720 0.041626
0.045696 -0.051622 0.041528
0.034543 -0.043683 0.041522
0.023854 -0.048466 0.041755
0.048592 -0.042986 0.041706
0.042604 -0.044585 0.041918
0.061807 -0.051596 0.041256
0.039455 -0.053458 0.041215
0.044010 -0.055667 0.041135
0.038659 -0.058530 0.040300
0.023145 -0.053679 0.041231
0.029046 -0.045621 0.041841
0.058280 -0.042893 0.041726
-0.035172 -0.050264 -0.201766
-0.029352 -0.045825 -0.244745
-0.020752 -0.044871 -0.244900
-0.028445 -0.046012 -0.230543
-0.032646 -0.048019 -0.224303
-0.019604 -0.058383 -0.120805
-0.024816 -0.053719 -0.173849
-0.007285 -0.045714 -0.227302
-0.015542 -0.057284 -0.142326
0.000006 -0.056092 -0.150151
-0.019577 -0.052613 -0.182242
-0.034317 -0.052947 -0.181305
-0.028557 -0.055984 -0.140811
-0.010021 -0.049388 -0.209884
-0.012834 -0.053981 -0.167855
-0.034564 -0.043437 -0.252066
-0.020852 -0.055347 -0.151649
-0.012916 -0.051286 -0.186854
-0.020591 -0.047144 -0.226103
-0.026211 -0.042796 -0.265906
-0.018516 -0.049525 -0.200806
-0.031580 -0.051549 -0.188673
-0.029456 -0.052923 -0.165458
-0.023333 -0.047993 -0.215704
-0.019851 -0.054312 -0.160795
-0.001691 -0.049907 -0.192314
-0.041259 -0.042192 -0.276261
-0.023679 -0.050807 -0.194789
-0.029057 -0.049325 -0.207251
-0.038960 -0.049062 -0.221950
-0.044395 -0.045511 -0.251454
-0.001483 -0.053070 -0.171887
-0.002418 -0.061317 -0.111526
