-0.194898 -0.417766 0.159806
-0.163354 -0.385832 0.184487
-0.194898 -0.361359 0.159806
-0.194923 -0.300580 0.178445
-0.175567 -0.295697 0.180934
-0.194934 -0.240648 0.183153
-0.129736 -0.327616 0.190102
-0.194821 -0.409431 0.101458
-0.185063 -0.346930 0.138150
-0.145837 -0.407454 0.137510
-0.194874 -0.319729 0.141496
-0.092820 -0.392234 0.184023
-0.194934 -0.180040 0.183153
-0.178061 -0.393032 0.094849
-0.194821 -0.351185 0.101458
-0.139257 -0.244847 0.188537
-0.194868 -0.259752 0.136969
-0.181609 -0.206364 0.165741
-0.194892 -0.202263 0.155198
-0.194764 -0.400752 0.058763
-0.034795 -0.381484 0.185764
-0.194934 -0.119433 0.183153
-0.073719 -0.305477 0.187129
-0.153577 -0.163069 0.189804
-0.184839 -0.275667 0.101916
-0.194892 -0.142463 0.155198
-0.194753 -0.362326 0.050441
-0.064322 -0.404239 0.128593
-0.194781 -0.305441 0.071380
-0.194809 -0.250740 0.092772
-0.194923 -0.062250 0.178445
-0.194838 -0.194846 0.114629
-0.089595 -0.209186 0.186592
-0.194710 -0.392433 0.017841
-0.159697 -0.083466 0.185069
-0.129359 -0.401096 0.051560
-0.186928 -0.111359 0.142474
-0.194923 -0.019564 0.178445
-0.177118 -0.337728 0.040817
-0.109428 -0.120716 0.191596
0.017266 -0.401061 0.150498
0.015872 -0.323087 0.184599
-0.194710 -0.330038 0.017841
-0.194923 0.019564 0.178445
-0.194874 -0.061150 0.141496
-0.020952 -0.247189 0.185980
-0.194748 -0.261592 0.046306
0.068147 -0.391363 0.182570
-0.179073 -0.019287 0.168855
-0.194844 -0.101956 0.119058
-0.169017 -0.395227 -0.002780
-0.188170 -0.169016 0.083684
-0.160176 0.031206 0.194156
-0.194874 -0.019219 0.141496
-0.122715 -0.024057 0.189137
-0.194798 -0.130776 0.084160
-0.169442 -0.165010 0.087368
-0.194748 -0.201609 0.046306
-0.194648 -0.357262 -0.029077
-0.184794 -0.243725 0.031789
-0.030492 -0.148234 0.188792
-0.194916 0.097603 0.173754
-0.194940 0.130422 0.187886
-0.194892 0.058041 0.155198
-0.194821 -0.056532 0.101458
-0.063481 -0.072092 0.187369
-0.194679 -0.270837 -0.005907
-0.194748 -0.161620 0.046306
-0.194648 -0.315608 -0.029077
0.091551 -0.322921 0.183686
0.003889 -0.395258 0.084512
-0.186807 0.069272 0.153074
0.051756 -0.242182 0.187784
-0.194844 0.019009 0.119058
-0.194821 -0.015418 0.101458
-0.060449 -0.386608 0.026224
0.138396 -0.355278 0.187898
-0.194694 -0.210504 0.005894
-0.117845 0.087048 0.199063
-0.158994 0.128006 0.185228
-0.182035 -0.298921 -0.031940
-0.194579 -0.372337 -0.081013
0.140163 -0.406829 0.156163
-0.194753 -0.095173 0.050441
-0.184330 -0.057027 0.075272
-0.194844 0.060482 0.119058
0.046143 -0.171364 0.190473
-0.194628 -0.281288 -0.044214
-0.106309 -0.404830 -0.036956
-0.194694 -0.171341 0.005894
-0.155440 -0.407019 -0.078618
-0.068814 0.028368 0.191986
-0.194916 0.200529 0.173754
-0.187476 0.015328 0.095203
-0.185104 -0.362834 -0.083506
-0.182546 0.174581 0.165238
0.097361 -0.399639 0.107554
0.167841 -0.371819 0.169737
-0.019323 -0.015201 0.195107
-0.194753 -0.035064 0.050441
-0.188060 -0.126692 0.011705
0.024364 -0.090178 0.186827
-0.194923 0.257894 0.178445
-0.194781 0.025313 0.071380
0.143307 -0.274809 0.184932
-0.194684 -0.131634 -0.001989
-0.194551 -0.331036 -0.102404
-0.194613 -0.232212 -0.055408
-0.194528 -0.364442 -0.119852
-0.194575 -0.290754 -0.084613
-0.194850 0.157599 0.123506
0.111168 -0.202381 0.186809
-0.120128 0.192694 0.192957
-0.194700 -0.086665 0.009860
-0.155905 0.249630 0.190634
-0.172126 -0.400724 -0.130168
-0.185624 -0.193520 -0.046135
-0.194856 0.199600 0.127974
-0.186431 0.122620 0.097516
-0.194787 0.089630 0.075622
-0.194916 0.317652 0.173754
-0.185223 0.295300 0.164741
0.097238 -0.119691 0.189802
0.061452 -0.405170 0.027500
-0.194608 -0.171841 -0.059110
-0.064491 0.154930 0.188708
-0.185068 -0.250323 -0.092722
-0.194874 0.277797 0.141496
-0.194505 -0.321695 -0.136967
-0.194700 -0.014717 0.009860
-0.194787 0.130217 0.075622
-0.025549 0.101707 0.186697
-0.194658 -0.072386 -0.021417
-0.187379 0.227375 0.117608
-0.194726 0.047916 0.029938
-0.194916 0.377988 0.173754
-0.188062 -0.036193 -0.006263
-0.194546 -0.232043 -0.105921
0.003243 -0.398341 -0.035591
-0.194832 0.239157 0.110220
0.170984 -0.228335 0.169404
0.072183 -0.022577 0.190173
0.173800 -0.294526 0.137302
0.025743 0.048118 0.186435
-0.178673 -0.322801 -0.143360
0.172016 -0.374540 0.097470
0.138120 -0.400702 0.058589
-0.143157 0.346272 0.189411
0.156726 -0.162662 0.183986
-0.194923 0.417967 0.178445
-0.194787 0.187715 0.075622
-0.103329 0.289517 0.187667
-0.188255 0.064694 0.021792
-0.171704 0.381863 0.171813
-0.194594 -0.111268 -0.070126
-0.152583 -0.379111 -0.168477
-0.194874 0.358167 0.141496
-0.033816 -0.400902 -0.086840
-0.098733 -0.399179 -0.137449
-0.194479 -0.282214 -0.157079
-0.194674 0.027514 -0.009808
-0.187651 -0.118350 -0.074334
-0.168495 -0.361499 -0.181331
-0.194726 0.130529 0.029938
-0.047439 0.239230 0.187413
-0.194492 -0.241774 -0.147080
-0.194700 0.093206 0.009860
-0.194826 0.317611 0.105829
-0.194594 -0.070522 -0.070126
0.147011 -0.065498 0.186579
-0.194519 -0.174686 -0.126738
-0.186533 0.181232 0.043963
-0.194862 0.398339 0.132461
-0.194775 0.247537 0.067157
0.008795 0.193159 0.192743
-0.173336 -0.317189 -0.183470
-0.194542 -0.130367 -0.109424
-0.127906 -0.376604 -0.180538
0.083988 0.069674 0.187961
-0.194594 -0.029776 -0.070126
-0.123771 0.396331 0.173646
-0.181828 0.336567 0.104065
-0.194618 0.014246 -0.051692
-0.194721 0.192912 0.025889
0.175155 -0.112158 0.162015
0.173220 -0.188874 0.125330
-0.183998 -0.172228 -0.137172
-0.194775 0.287951 0.067157
0.130654 0.020294 0.187694
-0.194633 0.052549 -0.040453
-0.141434 -0.330769 -0.182888
0.115417 -0.405322 -0.022633
0.059134 0.137100 0.186985
-0.184193 0.020060 -0.049536
0.170367 -0.254184 0.088390
-0.169097 -0.252053 -0.169573
-0.194648 0.088114 -0.029077
-0.126914 -0.321529 -0.175912
-0.186216 -0.056439 -0.094793
0.168848 -0.332949 0.041920
-0.065782 0.366025 0.186272
-0.024152 0.234811 0.157118
-0.185109 0.272377 0.051071
-0.188301 -0.231939 -0.186869
-0.076006 -0.375302 -0.169853
-0.154891 -0.276951 -0.185307
-0.194488 -0.142391 -0.150426
-0.194528 -0.071668 -0.119852
-0.194658 0.149599 -0.021417
-0.183655 0.130308 -0.025663
-0.078956 -0.364768 -0.181268
-0.194770 0.347832 0.062951
0.165655 -0.384364 -0.004891
-0.194710 0.247939 0.017841
-0.194442 -0.186468 -0.186407
0.066156 -0.174058 0.019145
0.032762 -0.407976 -0.119706
-0.021018 -0.402158 -0.158671
-0.101245 -0.324520 -0.183230
-0.194792 0.398266 0.079882
-0.001644 0.316289 0.187178
0.172667 -0.005273 0.170097
-0.194579 0.045179 -0.081013
-0.035616 -0.410951 -0.178731
0.128235 0.126850 0.193573
-0.164203 0.395752 0.091077
-0.194594 0.089328 -0.070126
0.070108 -0.405434 -0.105179
-0.081512 0.038340 -0.010020
-0.194658 0.207508 -0.021417
-0.040995 -0.374364 -0.180781
0.049905 0.262833 0.182966
-0.052367 0.396763 0.162368
-0.194501 -0.034671 -0.140351
0.163592 0.080587 0.180158
-0.153487 -0.197366 -0.188014
-0.127127 -0.231004 -0.186985
-0.194436 -0.124570 -0.189605
-0.109692 -0.232614 -0.177417
0.101531 0.208245 0.185181
-0.001188 0.400397 0.192953
-0.154905 -0.163105 -0.180181
-0.194528 0.028972 -0.119852
-0.194684 0.287645 -0.001989
-0.089475 -0.275600 -0.185443
-0.057316 -0.321266 -0.183438
0.172803 -0.139754 0.075172
-0.183024 0.369698 0.037880
-0.113711 0.395782 0.100229
0.176675 -0.068411 0.107058
-0.194461 -0.060762 -0.170235
-0.194579 0.129305 -0.081013
-0.194542 0.069018 -0.109424
0.166779 -0.289636 -0.007023
-0.194694 0.327995 0.005894
-0.155902 -0.157113 -0.189041
0.170646 -0.211822 0.031420
0.025871 -0.419150 -0.178351
-0.194726 0.388283 0.029938
-0.184950 0.120673 -0.085639
-0.189020 0.282183 -0.016809
-0.052967 -0.290756 -0.181147
0.142292 -0.407717 -0.092588
-0.183971 0.055986 -0.118910
-0.003683 -0.362086 -0.181520
0.158313 -0.019917 0.101345
-0.172694 -0.075630 -0.175377
-0.181338 -0.008891 -0.152226
-0.186681 0.223398 -0.048225
0.165891 -0.363504 -0.067796
-0.032239 -0.294044 -0.184724
-0.114916 -0.169996 -0.188765
0.169996 0.185412 0.187145
0.175934 0.047676 0.129918
-0.194575 0.185025 -0.084613
0.062154 0.369925 0.188048
-0.055373 -0.254074 -0.186258
-0.194519 0.098735 -0.126738
-0.194461 0.019266 -0.170235
0.017359 -0.335214 -0.178629
0.000971 -0.320681 -0.183543
-0.151051 -0.087312 -0.190286
-0.068595 -0.210940 -0.187780
-0.194488 0.070446 -0.150426
-0.194604 0.262756 -0.062796
-0.194648 0.338037 -0.029077
0.069372 -0.383272 -0.168682
-0.117114 -0.131522 -0.189655
0.105195 0.316329 0.179969
0.121936 -0.401237 -0.146407
-0.175121 -0.022415 -0.190761
0.078064 -0.399615 -0.179519
0.175126 0.138353 0.144562
0.152771 0.263019 0.180020
-0.115617 -0.093134 -0.185491
-0.194648 0.379691 -0.029077
-0.071267 -0.170563 -0.188808
-0.194561 0.233404 -0.095329
-0.077796 -0.144032 -0.184503
-0.194528 0.187558 -0.119852
0.166287 -0.224851 -0.040878
-0.194604 0.322545 -0.062796
-0.019722 -0.224018 -0.187379
-0.022451 -0.207239 -0.183609
0.174128 0.011119 0.066798
0.175060 -0.060576 0.030524
-0.184928 0.357466 -0.048653
0.174173 -0.128981 -0.001946
0.054600 -0.320789 -0.183610
0.082944 -0.359000 -0.181810
0.168502 -0.285682 -0.082413
-0.183292 0.197474 -0.121927
-0.151235 0.393124 -0.013625
-0.064470 -0.131586 -0.189724
0.013071 0.396114 0.107727
-0.194474 0.147548 -0.160387
0.025418 -0.262046 -0.186081
-0.189070 0.075128 -0.190422
-0.130616 -0.008557 -0.185718
0.126135 -0.399484 -0.179589
-0.093596 -0.076144 -0.190533
0.081389 0.398172 0.154982
-0.156899 0.055646 -0.180211
-0.119965 -0.026847 -0.190810
-0.194551 0.287924 -0.102404
-0.178643 0.124517 -0.168440
0.155424 -0.420929 -0.178421
-0.024251 -0.164177 -0.189033
0.036220 -0.246633 -0.183446
-0.074219 0.390169 0.027352
0.176631 0.234544 0.141632
-0.194510 0.237571 -0.133570
0.135653 0.393481 0.180563
-0.144225 0.035464 -0.190735
-0.194479 0.192623 -0.157079
0.169678 -0.375869 -0.150988
-0.184670 0.299160 -0.101729
0.172500 0.109015 0.079306
0.167420 0.356639 0.179849
0.121128 -0.337501 -0.174232
-0.187436 0.122527 -0.189700
-0.194570 0.367773 -0.088199
-0.076379 -0.044453 -0.190776
0.114622 -0.329041 -0.183311
0.030279 -0.201235 -0.188163
-0.059648 -0.051797 -0.187645
-0.047972 -0.076064 -0.190594
0.167734 -0.313166 -0.142881
0.179123 0.318843 0.153180
-0.194519 0.314434 -0.126738
0.170469 0.190850 0.089207
0.158540 -0.364919 -0.181577
0.178400 -0.145286 -0.061366
0.004545 -0.139987 -0.189686
0.088584 -0.259059 -0.184096
-0.150048 0.115027 -0.189864
0.093576 -0.261962 -0.186175
0.065771 -0.222306 -0.187556
0.006226 -0.114839 -0.185305
-0.067793 -0.004978 -0.190990
0.121726 -0.291512 -0.185046
0.168825 0.058412 0.013902
-0.085568 0.027747 -0.190852
-0.092394 0.061398 -0.185828
0.170361 -0.004520 -0.019289
-0.148236 0.155250 -0.189101
-0.008552 -0.075292 -0.190658
0.013408 -0.101752 -0.190282
-0.175062 0.391921 -0.106610
0.170487 -0.217114 -0.127866
-0.109877 0.100506 -0.190138
-0.194457 0.282534 -0.173494
-0.115647 0.131383 -0.184814
0.169561 -0.069332 -0.063583
-0.167793 0.212670 -0.187584
-0.085008 0.070229 -0.190634
0.047958 -0.141591 -0.189706
-0.019361 -0.036417 -0.190891
0.166898 -0.135952 -0.100920
0.083698 -0.179214 -0.184569
-0.150925 0.197647 -0.185943
0.153826 -0.264999 -0.177730
0.085641 -0.180281 -0.188770
-0.171301 0.273482 -0.172105
0.162245 0.397984 0.130385
-0.108413 0.139034 -0.189552
0.168192 0.152571 0.021582
0.157840 -0.271531 -0.185919
0.175411 0.298413 0.090069
-0.029458 0.025778 -0.190935
0.094316 0.393053 0.063740
0.082666 -0.141921 -0.189743
0.139251 -0.223884 -0.187598
0.057455 -0.101912 -0.190338
-0.187748 0.318443 -0.183393
-0.102456 0.395471 -0.084085
-0.171248 0.366248 -0.151233
-0.113705 0.189333 -0.188275
-0.013114 0.034171 -0.187457
0.032586 -0.031700 -0.188293
0.021992 -0.019775 -0.191030
0.168344 0.240171 0.035009
-0.140250 0.265444 -0.185737
-0.119031 0.229662 -0.187042
0.018311 0.209647 -0.091657
0.055875 -0.061052 -0.190866
0.077988 -0.084525 -0.186332
-0.080606 0.165788 -0.188922
0.168900 0.028750 -0.071206
-0.018706 0.074620 -0.190655
0.161945 -0.184784 -0.178780
-0.046028 0.123657 -0.189869
0.105350 -0.109826 -0.190280
-0.168900 0.358290 -0.181510
0.165014 0.101480 -0.047541
-0.149864 0.324876 -0.183148
0.169152 -0.035757 -0.115285
-0.099969 0.261441 -0.185029
-0.064532 0.190479 -0.190255
0.133225 -0.116572 -0.184916
0.024485 0.390331 -0.032754
0.174472 0.372653 0.068010
0.160194 -0.162978 -0.189310
-0.068827 0.207564 -0.187869
-0.013983 0.127458 -0.186739
-0.042992 0.175055 -0.188736
0.066493 -0.001866 -0.191180
0.155541 0.374951 0.044738
-0.119086 0.400067 -0.148506
0.044231 0.038473 -0.190967
-0.122518 0.340350 -0.181543
-0.110362 0.318450 -0.183497
-0.081375 0.267809 -0.185731
0.102994 -0.040372 -0.191033
0.086326 0.001492 -0.184294
0.173509 -0.092266 -0.163566
-0.014907 0.155071 -0.189281
0.013723 0.108928 -0.190172
0.157019 -0.114363 -0.190278
-0.128347 0.373254 -0.180724
0.169754 0.315771 0.012301
0.170610 0.177511 -0.059567
0.155006 -0.074101 -0.190892
0.146177 -0.038835 -0.182225
0.059442 0.089363 -0.186948
0.174001 0.235829 -0.036707
0.114830 -0.001941 -0.191242
0.079094 0.058459 -0.190911
0.057287 0.098189 -0.190394
-0.088645 0.358131 -0.181627
-0.035311 0.265646 -0.185870
-0.009476 0.226060 -0.187319
-0.022830 0.268406 -0.182311
0.047755 0.137886 -0.189774
0.154216 -0.034022 -0.191132
-0.011716 0.394025 -0.119005
0.167498 0.080942 -0.127905
-0.040435 0.305623 -0.184181
0.029461 0.190200 -0.188446
-0.060266 0.392939 -0.164987
0.025064 0.203490 -0.189315
-0.045094 0.345462 -0.182342
0.153755 0.006001 -0.191273
0.115879 0.067986 -0.190911
0.173495 0.017658 -0.174284
0.126988 0.064443 -0.187407
-0.031147 0.346530 -0.181209
0.146510 0.396249 -0.027323
0.005666 0.275469 -0.185574
0.033052 0.230888 -0.187204
0.170421 0.149583 -0.123228
-0.008637 0.325064 -0.183330
-0.039378 0.385299 -0.180165
0.154413 0.046038 -0.191072
0.117880 0.110926 -0.190279
0.173006 0.370985 -0.032072
0.171280 0.272498 -0.077742
0.099313 0.393188 -0.080165
0.095998 0.158793 -0.189332
0.097227 0.168487 -0.190832
0.155609 0.086164 -0.190708
0.077223 0.220627 -0.187630
0.169029 0.338957 -0.067301
0.050468 0.289932 -0.185024
0.052627 0.285329 -0.187486
0.154183 0.123257 -0.186674
0.025561 0.349465 -0.182253
0.001529 0.396032 -0.179616
0.157624 0.126469 -0.190094
0.065272 0.398960 -0.143864
0.026312 0.391018 -0.177054
0.171980 0.231262 -0.142237
0.107007 0.253406 -0.183718
0.095291 0.277711 -0.185614
0.149082 0.189577 -0.188620
0.127073 0.229637 -0.187375
0.150458 0.202082 -0.183578
0.036579 0.419297 -0.178356
0.090568 0.330433 -0.183216
0.064648 0.387646 -0.180172
0.086657 0.361188 -0.185106
0.096776 0.370817 -0.181162
0.135428 0.298652 -0.184737
0.157840 0.271531 -0.185919
0.124330 0.397921 -0.157553
0.157618 0.397896 -0.134489
0.173071 0.374081 -0.139022
0.174821 0.302869 -0.171426
0.103043 0.407811 -0.179089
0.147427 0.329329 -0.183163
0.161193 0.370675 -0.156215
0.153729 0.335241 -0.183079
