-0.055585 -0.296072 0.365838
-0.006486 -0.308869 0.381658
-0.028044 -0.318841 0.347083
-0.030132 -0.287949 0.358932
-0.058501 -0.228098 0.363759
-0.050907 -0.182349 0.385444
0.031698 -0.289191 0.382290
0.064931 -0.309324 0.384770
-0.010570 -0.180706 0.377740
-0.050254 -0.298121 0.293262
-0.066927 -0.072733 0.380201
0.070788 -0.278298 0.387831
-0.061195 -0.056480 0.380714
-0.054633 -0.098740 0.358872
0.064930 -0.230766 0.384771
-0.058086 -0.170421 0.322055
0.004625 -0.249399 0.327815
0.046387 -0.181487 0.382768
-0.066927 0.005595 0.380201
0.025170 -0.316612 0.299529
-0.014651 -0.054261 0.387747
0.009990 -0.103622 0.383158
0.059409 -0.239935 0.357404
-0.063575 0.012011 0.366170
-0.002143 -0.050838 0.381746
0.039043 -0.310047 0.292164
0.064983 -0.308342 0.306280
-0.061812 -0.073307 0.319044
-0.029883 -0.309998 0.232612
0.061794 -0.274399 0.313200
-0.023951 0.038305 0.388584
-0.043100 -0.251588 0.244629
0.045508 -0.078074 0.384943
0.066969 -0.174344 0.356107
-0.063120 -0.167984 0.260210
0.065347 -0.210199 0.334828
0.064930 -0.090015 0.384771
0.066273 -0.100299 0.379796
0.065332 -0.149849 0.356795
-0.052247 0.108508 0.381777
0.065366 -0.251576 0.306253
0.030571 -0.073305 0.361088
-0.002141 0.029802 0.381746
-0.066887 0.005665 0.319427
0.043488 -0.031818 0.381717
-0.058366 0.117768 0.370832
-0.066901 0.069558 0.341049
0.057226 -0.158346 0.328527
-0.053858 -0.283897 0.185825
-0.039296 0.154532 0.387841
-0.047658 -0.094496 0.273040
-0.023406 -0.308087 0.191073
-0.044505 0.067838 0.344053
0.018398 0.067656 0.386935
-0.002161 0.103431 0.381749
-0.041746 0.165767 0.380380
-0.066927 0.214469 0.380201
0.064930 0.008183 0.384771
0.016139 0.110703 0.391482
0.057082 0.013939 0.377813
-0.066904 0.148408 0.344634
0.065347 -0.091031 0.334828
-0.016803 -0.106429 0.267680
0.051841 -0.292031 0.232046
-0.066856 -0.009532 0.271918
0.056563 -0.038675 0.347973
-0.046322 -0.162332 0.216638
-0.066836 -0.070959 0.242224
0.021754 -0.310584 0.195952
0.065394 -0.230453 0.264303
0.043505 0.079621 0.383512
0.053202 -0.122456 0.301206
-0.053847 0.000899 0.276953
-0.061288 0.215236 0.363547
0.054299 -0.253233 0.239364
0.071081 -0.287915 0.234786
-0.055633 0.241133 0.375920
0.000288 -0.073305 0.280086
-0.002855 0.181695 0.382234
0.021224 0.145597 0.381727
-0.045095 0.093033 0.308230
0.064930 0.090015 0.384771
0.000649 0.118400 0.349911
-0.052248 0.285064 0.381777
-0.021489 0.246570 0.385442
0.048860 -0.189742 0.244999
0.065393 -0.169896 0.264303
0.064945 0.047738 0.359964
0.065379 -0.092039 0.286991
-0.066858 0.108587 0.275605
-0.066882 0.194775 0.312177
0.021223 0.210687 0.381727
-0.037450 -0.299417 0.110340
-0.066816 -0.028940 0.212174
-0.043811 -0.218806 0.141418
-0.066748 -0.242217 0.108033
-0.066828 0.028832 0.230997
0.047119 0.199455 0.384621
0.024972 -0.303915 0.143890
0.018563 0.268610 0.392755
-0.066796 -0.071817 0.181760
0.050532 0.148802 0.363354
-0.066901 0.295153 0.341049
-0.026338 -0.279013 0.112627
-0.006589 0.165767 0.325126
0.065078 -0.308079 0.164309
0.064930 0.188213 0.384771
0.063715 0.031638 0.315955
-0.066885 0.255100 0.315804
0.065433 -0.209705 0.204865
0.021205 0.268931 0.381730
-0.044362 0.165766 0.285595
0.056316 -0.280730 0.157598
-0.013807 -0.305890 0.093809
0.013546 -0.073305 0.220824
-0.039755 -0.033333 0.197840
-0.014157 0.297611 0.359855
-0.066828 0.094184 0.230997
-0.066748 -0.175263 0.108033
-0.044424 -0.097494 0.160498
0.044483 -0.026878 0.255384
0.057344 -0.073305 0.241430
-0.011517 -0.182027 0.139597
0.065460 -0.249464 0.164337
0.064930 0.250405 0.384771
-0.066839 0.155228 0.245955
0.065426 -0.130983 0.214883
0.033749 0.032242 0.264181
0.029280 -0.279008 0.118948
0.052751 -0.098639 0.217577
-0.066725 -0.212172 0.072356
0.046961 -0.280226 0.124125
0.067352 0.085949 0.304469
-0.013991 0.283630 0.329136
0.040967 0.208226 0.335338
0.065446 -0.169552 0.184693
-0.047891 -0.280067 0.046790
-0.038624 0.145073 0.247313
-0.066697 -0.277768 0.032129
0.049446 0.034472 0.259696
-0.066848 0.235016 0.260824
0.049526 -0.168093 0.164545
-0.066775 -0.009764 0.150977
-0.066748 -0.104370 0.108033
-0.015580 -0.279014 0.064517
0.056524 0.280348 0.362676
0.070509 0.307574 0.383924
-0.066861 0.295061 0.279287
-0.001504 -0.176158 0.115449
-0.047424 -0.157044 0.085695
-0.066801 0.110470 0.189398
-0.049504 0.105391 0.198398
0.056269 0.166709 0.300449
0.035242 0.112809 0.258955
-0.023972 -0.300888 0.025718
-0.013697 0.297611 0.301583
-0.031820 -0.051272 0.134783
0.065130 -0.310050 0.084499
-0.010758 0.165766 0.241865
-0.038772 0.237697 0.251022
0.065102 -0.210008 0.126490
-0.038979 0.273997 0.264318
0.025857 -0.307596 0.048792
0.065025 0.049056 0.241380
-0.066775 0.068348 0.150977
0.051737 -0.093828 0.164109
-0.066816 0.214156 0.212174
-0.035310 0.084618 0.174745
-0.041656 0.015732 0.139411
-0.066670 -0.259804 -0.008728
0.064739 -0.154171 0.136832
-0.013395 -0.176157 0.064867
0.049499 0.086773 0.228707
-0.055197 -0.176159 0.030202
0.061910 0.278592 0.316102
-0.066738 -0.013827 0.092238
-0.066821 0.275482 0.219720
-0.031821 0.028484 0.134783
-0.016866 -0.279014 0.002137
-0.066703 -0.113728 0.040225
0.034207 -0.279011 0.035652
0.044746 0.279259 0.292861
0.064277 -0.283191 0.050886
-0.045446 -0.226448 -0.005704
0.007267 -0.009159 0.134758
0.054652 -0.198149 0.080514
-0.044099 -0.302440 -0.046849
0.065102 -0.109343 0.126490
-0.066711 -0.053746 0.052321
0.045535 0.015377 0.166377
0.036078 -0.073311 0.119721
-0.042947 -0.046372 0.069689
-0.039383 -0.279012 -0.039193
-0.052325 0.166624 0.155749
-0.006999 -0.299473 -0.026808
-0.066748 0.088616 0.108033
0.056315 0.165905 0.231446
0.050382 -0.123581 0.096806
-0.066775 0.205043 0.150977
-0.066650 -0.204534 -0.037711
-0.041549 0.284607 0.202240
0.006042 0.115413 0.161690
0.041457 -0.083963 0.096138
-0.038780 0.165763 0.149306
0.064575 0.032718 0.164273
0.065183 -0.308283 0.005459
0.056615 0.206016 0.232816
0.037626 -0.176157 0.040019
0.065102 -0.029505 0.126490
-0.002888 -0.073314 0.055158
-0.066711 0.025878 0.052321
0.048035 0.087994 0.158331
-0.066661 -0.115068 -0.021110
0.007243 0.104415 0.134756
-0.053079 0.297612 0.174847
0.047993 -0.302264 -0.028090
-0.059661 -0.279010 -0.098818
-0.023601 -0.120547 0.003464
-0.066738 0.148147 0.092238
0.002306 -0.176156 -0.005301
-0.042759 -0.142737 -0.025560
-0.066765 0.252677 0.135444
-0.066617 -0.231019 -0.088147
0.065129 -0.075323 0.084499
0.067255 0.298064 0.251202
-0.041233 0.041848 0.053651
-0.042653 0.117022 0.085961
-0.047764 -0.073315 -0.008656
0.049953 0.165762 0.170137
0.007229 0.155709 0.134754
0.033004 -0.088405 0.041577
0.050108 -0.279012 -0.035460
-0.021028 -0.300186 -0.100910
0.013391 -0.279014 -0.065007
0.044547 -0.308906 -0.056207
-0.044980 -0.252235 -0.099731
-0.066670 -0.010070 -0.008728
0.030068 0.281949 0.192688
-0.066738 0.215307 0.092238
0.050834 -0.190024 -0.008920
0.047544 -0.006227 0.073904
-0.039768 0.271286 0.131212
0.065102 0.088516 0.126490
-0.032753 -0.176159 -0.070135
0.061125 0.029830 0.094502
0.023056 -0.290052 -0.084506
0.056473 -0.178397 -0.007659
-0.066697 0.109908 0.032129
0.007229 0.217992 0.134754
0.052499 0.266995 0.187073
-0.066628 -0.103935 -0.071228
-0.066642 -0.050747 -0.050230
-0.031968 -0.301833 -0.145528
0.065162 -0.076147 0.034515
-0.046555 -0.002389 -0.021156
-0.066711 0.193087 0.052321
0.047102 -0.076612 0.011989
-0.046251 0.206054 0.069540
0.000319 0.165765 0.085866
0.012687 -0.073314 -0.014481
0.059828 0.277940 0.174192
-0.044778 -0.138226 -0.093687
-0.030894 -0.221621 -0.123406
-0.066602 -0.133418 -0.109447
0.007264 0.280266 0.134758
0.058128 -0.247688 -0.070232
0.065250 -0.307684 -0.095361
0.046281 0.151738 0.103823
0.018003 -0.176156 -0.075469
-0.048829 0.297607 0.090626
-0.033927 -0.073314 -0.070466
-0.066656 0.070767 -0.029397
0.017390 -0.262168 -0.123437
-0.034275 0.099547 0.005480
0.061925 0.030132 0.044696
0.045163 0.006802 0.018790
0.056055 0.249270 0.136040
-0.040101 -0.052094 -0.076502
-0.042841 -0.270133 -0.187766
0.065102 0.230836 0.126490
-0.066670 0.151049 -0.008728
-0.019610 -0.314845 -0.199594
-0.066602 -0.051314 -0.109447
-0.012193 0.165764 0.030429
-0.066689 0.234351 0.019939
-0.040895 -0.175889 -0.154484
0.051685 -0.124561 -0.059254
0.037398 0.097590 0.033643
0.017392 -0.200932 -0.123437
0.050144 0.165769 0.071428
0.032911 -0.305523 -0.164359
-0.043626 -0.094868 -0.123398
0.001237 0.065752 -0.015418
0.048664 0.040507 0.007503
-0.066617 0.030666 -0.088147
-0.039523 0.274783 0.042170
-0.039241 -0.305004 -0.234706
0.069367 0.309092 0.130409
0.013198 -0.176676 -0.136526
0.005701 -0.137294 -0.123429
-0.025437 0.297610 0.051308
0.065296 -0.308501 -0.165038
-0.055288 0.240424 -0.004079
0.054208 -0.269270 -0.160760
-0.066628 0.116162 -0.071228
0.065189 0.048227 -0.005531
0.065229 -0.077787 -0.065035
-0.066648 0.192535 -0.041877
0.065275 -0.211065 -0.133820
-0.046484 0.077874 -0.084220
-0.066675 0.295593 -0.000505
-0.025293 0.165763 -0.027616
-0.042917 -0.288359 -0.258394
0.022756 0.179467 0.008838
0.034732 0.289284 0.062533
0.035749 -0.304269 -0.215887
0.052624 -0.195581 -0.153847
0.068454 0.298530 0.085007
0.065686 -0.249697 -0.172747
-0.040284 0.163587 -0.059900
0.046663 -0.019602 -0.080973
0.056461 0.166927 0.010792
0.055053 -0.271902 -0.206081
0.040058 -0.073113 -0.123452
-0.042294 -0.162873 -0.232052
0.065275 -0.130310 -0.133820
-0.043627 0.066609 -0.123398
-0.038016 -0.012976 -0.158204
0.005699 -0.009669 -0.123430
0.049357 0.043340 -0.069045
-0.013721 0.297612 -0.001104
-0.034106 0.206029 -0.063181
-0.019511 -0.252533 -0.274067
-0.040146 -0.194857 -0.262021
-0.066617 0.214664 -0.088147
0.055697 0.252869 0.019413
-0.037566 -0.095199 -0.214271
0.071192 -0.288392 -0.225958
-0.016323 0.286449 -0.025461
0.044535 0.127253 -0.054679
-0.040645 0.061702 -0.152301
-0.056641 0.153062 -0.123390
-0.004106 -0.307156 -0.305211
0.065715 -0.229562 -0.216469
0.063320 0.279419 0.019629
0.031984 0.165767 -0.055763
-0.011690 0.165763 -0.088454
0.042974 0.082792 -0.088292
-0.044409 -0.110403 -0.248822
0.065699 -0.169004 -0.192523
-0.049216 -0.235674 -0.315316
0.046748 -0.088636 -0.170323
-0.044104 -0.317945 -0.354031
0.018118 -0.321146 -0.308349
0.054205 0.183386 -0.040190
-0.066552 0.068723 -0.187557
-0.044394 0.297611 -0.065134
-0.006239 0.115300 -0.123422
-0.050085 -0.287390 -0.358838
0.045627 -0.148913 -0.216496
0.065686 -0.090631 -0.172747
0.058290 0.237781 -0.027419
0.065376 -0.308656 -0.285823
-0.040822 0.160855 -0.141130
-0.051819 -0.175360 -0.311454
0.076393 -0.307196 -0.284535
0.065270 0.045810 -0.126078
-0.056641 0.255103 -0.123390
0.066224 -0.009205 -0.152915
0.050199 -0.200429 -0.264353
-0.066552 0.147858 -0.187557
0.049488 0.099522 -0.123795
-0.015340 0.107577 -0.172061
0.065734 -0.170823 -0.244707
-0.006239 0.205194 -0.123422
0.063311 0.279375 -0.039345
-0.044059 0.276394 -0.123231
-0.010702 -0.299493 -0.380301
0.065455 -0.229107 -0.285781
-0.042467 -0.047159 -0.283397
-0.066552 0.193674 -0.187557
0.042693 -0.309345 -0.347832
0.040061 0.159349 -0.123451
0.044296 0.002109 -0.196012
-0.020778 0.165768 -0.170246
0.065275 0.108286 -0.133820
-0.038204 0.020235 -0.259539
0.065455 -0.140877 -0.259174
0.066266 -0.050364 -0.216217
-0.037967 0.100096 -0.225977
0.061495 -0.288753 -0.339425
0.046516 -0.316081 -0.365070
0.066177 0.049914 -0.172544
-0.066499 0.069740 -0.267979
0.071087 -0.294864 -0.342597
-0.056703 0.244508 -0.183176
-0.066552 0.256149 -0.187557
0.066258 0.005582 -0.204221
-0.035845 -0.190793 -0.380362
0.020980 -0.266805 -0.373500
-0.047181 0.005099 -0.293744
-0.066511 0.128490 -0.249902
0.055981 -0.218612 -0.325149
0.065798 -0.270051 -0.344059
0.065428 -0.309785 -0.365501
0.051316 -0.222046 -0.332745
-0.050892 -0.089507 -0.347689
-0.021071 -0.124684 -0.342835
0.003643 -0.012900 -0.272106
0.049950 -0.060963 -0.262827
0.017390 0.288959 -0.123437
0.065455 -0.130648 -0.285781
-0.046376 -0.126733 -0.371914
0.061823 0.225988 -0.123465
0.069147 0.298973 -0.090256
-0.066523 0.216250 -0.231944
0.017504 -0.167552 -0.354062
-0.009922 -0.170044 -0.380917
0.044836 0.284901 -0.123905
0.054363 -0.052235 -0.276931
0.060603 0.243499 -0.134873
0.074509 -0.232075 -0.357149
0.047275 0.150692 -0.194682
-0.007698 0.165766 -0.228650
0.065356 -0.070064 -0.285833
0.065812 -0.228882 -0.365267
0.057221 0.288061 -0.126753
0.056592 0.166407 -0.184478
0.065275 0.269797 -0.133820
0.066032 0.050584 -0.236460
-0.031045 0.297611 -0.195535
-0.066468 0.108673 -0.313694
0.016704 -0.156826 -0.383492
-0.066523 0.296032 -0.231944
0.057262 -0.182888 -0.366810
0.047422 0.025977 -0.273575
0.066116 0.279463 -0.144155
0.052586 0.120766 -0.228502
0.057320 -0.114826 -0.340649
-0.044738 0.061905 -0.334943
-0.034587 0.112967 -0.304342
-0.052138 0.165764 -0.293035
0.041070 0.081977 -0.267536
0.065793 -0.093689 -0.335626
-0.054979 0.120533 -0.326559
0.065812 -0.151947 -0.365267
-0.044124 -0.010345 -0.386169
0.066325 -0.009499 -0.306030
-0.045322 0.265403 -0.263128
-0.032153 0.001178 -0.380747
0.065400 0.297629 -0.168928
-0.012061 0.295954 -0.228513
-0.045541 0.209475 -0.295255
0.065787 0.051106 -0.285605
0.055649 -0.085637 -0.361432
0.057219 -0.125957 -0.381164
0.066345 -0.043952 -0.335307
-0.066490 0.286005 -0.281614
-0.066462 0.215573 -0.322929
0.006246 0.165765 -0.290949
0.050439 0.139847 -0.276062
0.006264 -0.026710 -0.392066
0.061697 -0.026260 -0.348992
-0.066425 0.118572 -0.378984
0.037404 -0.052584 -0.384789
0.052319 0.265213 -0.227474
-0.040230 0.165762 -0.346213
-0.036909 0.076427 -0.387539
-0.029698 0.085846 -0.381722
0.065442 -0.063712 -0.382602
0.041694 0.293887 -0.236432
0.065408 0.055423 -0.331640
0.063478 0.279412 -0.229588
-0.030353 0.146056 -0.365651
0.056662 0.166200 -0.290429
-0.024498 0.297615 -0.297524
-0.066450 0.276253 -0.341489
-0.002700 0.075784 -0.388547
0.035815 0.040417 -0.380475
0.053622 0.203156 -0.289618
0.016374 0.076377 -0.379613
-0.039189 0.183179 -0.374143
0.065442 0.005792 -0.382602
0.049842 0.134075 -0.334986
-0.006001 0.145770 -0.381738
0.051685 0.270816 -0.281429
-0.054353 0.232842 -0.381704
0.038723 0.081027 -0.381775
0.057262 0.045770 -0.387055
0.044433 0.165765 -0.339410
-0.035184 0.282161 -0.350834
0.069421 0.299094 -0.271381
-0.029154 0.257693 -0.371672
0.061519 0.096521 -0.380267
0.054917 0.194360 -0.343758
-0.054353 0.292655 -0.381704
-0.012863 0.297615 -0.349549
0.054771 0.160969 -0.362903
0.046552 0.127316 -0.387100
0.014186 0.182190 -0.386265
0.023927 0.284176 -0.331373
0.056583 0.141497 -0.377831
0.052444 0.249816 -0.339767
0.060035 0.277923 -0.322077
0.058176 0.290478 -0.319448
0.009290 0.241193 -0.381750
0.038730 0.195649 -0.381771
0.049769 0.195967 -0.373892
0.065442 0.152524 -0.382602
0.035345 0.241845 -0.366567
0.039950 0.194665 -0.388660
0.052992 0.203948 -0.380811
