-0.192721 0.161921 -0.053690
-0.193222 0.106676 -0.057405
-0.193174 0.134354 -0.078764
-0.193081 0.158539 -0.070134
-0.193167 0.115519 -0.043684
-0.192864 0.158198 -0.087214
-0.193060 0.124417 -0.053602
-0.193360 0.126934 -0.109189
-0.192726 0.145901 -0.044502
-0.193312 0.103958 -0.074781
-0.192864 0.134878 -0.098563
-0.192721 0.138510 -0.120865
-0.193124 0.111543 -0.084337
-0.193181 0.150597 -0.094251
-0.193206 0.130524 -0.065721
-0.193142 0.148386 -0.079228
-0.192960 0.141528 -0.068351
-0.193346 0.121660 -0.076870
-0.193278 0.121245 -0.121603
-0.193392 0.116343 -0.066588
-0.193077 0.103863 -0.094415
-0.193121 0.119674 -0.097706
-0.193020 0.154829 -0.115574
-0.193020 0.149886 -0.059585
-0.193900 0.287888 -0.019903
-0.193663 0.324240 -0.032159
-0.193545 0.271199 -0.037974
-0.193456 0.302497 -0.021031
-0.193289 0.329378 -0.011284
-0.193504 0.291952 0.020461
-0.193705 0.298555 0.008509
-0.193685 0.303298 -0.037141
-0.193374 0.323495 0.008992
-0.193869 0.266511 0.006147
-0.193682 0.295664 -0.012076
-0.193515 0.319810 -0.004404
-0.193650 0.275822 0.017555
-0.193439 0.319833 -0.019096
-0.193563 0.285067 0.009233
-0.193834 0.287423 -0.038014
-0.193105 0.307212 0.017021
-0.194009 0.263455 -0.008551
-0.193422 0.295547 -0.029239
-0.193273 0.298923 -0.048756
-0.193780 0.271923 -0.016550
-0.193594 0.312079 -0.026200
-0.193616 0.290853 -0.001579
-0.193601 0.309574 -0.012211
-0.193431 0.302853 -0.003091
-0.194015 0.281877 -0.010138
-0.193786 0.281919 -0.049158
-0.193864 0.276208 -0.001136
-0.193724 0.263676 -0.025387
-0.193629 0.280020 -0.027678
-0.193468 0.315629 -0.044552
-0.193715 0.311490 0.004589
-0.069628 -0.290694 -0.184508
-0.051706 -0.258330 -0.184491
-0.034048 -0.315401 -0.184153
-0.048038 -0.288680 -0.184139
-0.064768 -0.249257 -0.184545
-0.042725 -0.284799 -0.168892
-0.058540 -0.298340 -0.183803
-0.010001 -0.282456 -0.184049
-0.042926 -0.246440 -0.183843
-0.020367 -0.325480 -0.183778
-0.029186 -0.279224 -0.184142
-0.079836 -0.262490 -0.184301
-0.072241 -0.305630 -0.183874
-0.027700 -0.253032 -0.184355
-0.025347 -0.302829 -0.183365
-0.066847 -0.318255 -0.183867
-0.058571 -0.281060 -0.185151
-0.033838 -0.338475 -0.183951
-0.035048 -0.292288 -0.184148
-0.020462 -0.290817 -0.184097
-0.043378 -0.304200 -0.183757
-0.062056 -0.268685 -0.184576
-0.084773 -0.292072 -0.183765
-0.036800 -0.265936 -0.184101
-0.046734 -0.273698 -0.184442
-0.011570 -0.306955 -0.183772
-0.053440 -0.312933 -0.183434
-0.045041 -0.323393 -0.183536
-0.055888 -0.336188 -0.183835
-0.083456 -0.317924 -0.183850
-0.074335 -0.278144 -0.184240
-0.018520 -0.266841 -0.183930
0.119224 -0.425755 -0.080465
0.158465 -0.366918 -0.125551
0.155171 -0.421234 -0.120665
0.157284 -0.421196 -0.098832
0.161494 -0.344922 -0.064566
0.153905 -0.423480 -0.004868
0.144713 -0.424477 -0.050784
0.157343 -0.403967 -0.111997
0.157650 -0.361052 -0.037518
0.156760 -0.421755 -0.032619
0.157590 -0.407470 -0.075622
0.149437 -0.401624 -0.067468
0.131514 -0.422568 -0.021018
0.157095 -0.359521 -0.100774
0.157084 -0.415988 -0.044354
0.138407 -0.425325 -0.131870
0.159240 -0.403213 -0.021931
0.143676 -0.423599 -0.060941
0.156402 -0.418393 -0.108524
0.159584 -0.413654 -0.136585
0.155873 -0.423171 -0.093620
0.153229 -0.405244 -0.099474
0.117466 -0.423217 -0.047641
0.158273 -0.390073 -0.085326
0.155873 -0.420493 -0.056886
0.158397 -0.417992 -0.082143
0.149992 -0.422915 -0.148527
0.149570 -0.421732 -0.076006
0.138195 -0.422847 -0.104052
0.114473 -0.423605 -0.110798
0.144486 -0.422509 -0.121813
0.154773 -0.383919 -0.049756
-0.194091 0.052204 -0.130040
-0.193579 0.093320 -0.145168
-0.193251 0.033913 -0.151825
-0.193409 0.068872 -0.130351
-0.193156 0.099371 -0.119238
-0.193369 0.057291 -0.071841
-0.193904 0.065248 -0.090781
-0.193272 0.069562 -0.151432
-0.193130 0.092462 -0.089869
-0.193534 0.028803 -0.094252
-0.193579 0.060992 -0.119181
-0.193501 0.087965 -0.109703
-0.193527 0.039515 -0.077377
-0.193337 0.088146 -0.129360
-0.193566 0.049567 -0.088930
-0.193898 0.052615 -0.152003
-0.193284 0.073675 -0.078686
-0.193595 0.025321 -0.115041
-0.193313 0.061814 -0.141241
-0.193148 0.065398 -0.163998
-0.193446 0.034732 -0.126055
-0.193727 0.079081 -0.136883
-0.193690 0.056204 -0.104085
-0.193518 0.076860 -0.119466
-0.193473 0.068862 -0.107460
-0.193578 0.046677 -0.117416
-0.193609 0.045359 -0.164358
-0.193871 0.039850 -0.105293
-0.193294 0.025630 -0.137401
-0.193460 0.044093 -0.140513
-0.193479 0.083852 -0.158944
-0.193323 0.078488 -0.097042
-0.023674 -0.357698 -0.180963
-0.008423 -0.330928 -0.180840
0.008389 -0.376113 -0.181095
-0.004698 -0.358185 -0.180779
-0.020427 -0.324461 -0.180594
0.002967 -0.349934 -0.180295
-0.014310 -0.364841 -0.180499
0.030205 -0.351413 -0.180869
0.000935 -0.322346 -0.180340
0.019419 -0.383072 -0.180761
0.013361 -0.348682 -0.180628
-0.033370 -0.335161 -0.180444
-0.026028 -0.369580 -0.180448
0.014370 -0.327346 -0.180946
0.016104 -0.368271 -0.180533
-0.021080 -0.380076 -0.180868
-0.013260 -0.351566 -0.180753
0.007468 -0.389534 -0.181036
0.007771 -0.360948 -0.181089
0.020310 -0.358053 -0.180924
-0.000332 -0.368645 -0.180782
-0.018040 -0.339864 -0.180809
-0.036788 -0.359465 -0.180561
0.005412 -0.337600 -0.180798
-0.005137 -0.343152 -0.180646
0.027852 -0.370827 -0.181035
-0.010063 -0.375055 -0.180923
-0.001980 -0.382235 -0.180794
-0.011782 -0.389143 -0.181024
-0.035344 -0.379317 -0.180746
-0.028453 -0.347559 -0.180622
0.022302 -0.338962 -0.180696
0.159886 -0.039706 0.106803
0.161857 0.026953 0.084460
0.159226 -0.067760 0.078328
0.163524 -0.010777 0.109306
0.164676 0.039978 0.126092
0.160102 -0.027580 0.169598
0.162407 -0.022955 0.151845
0.162641 -0.009170 0.082505
0.160191 0.030830 0.152271
0.157186 -0.081975 0.151815
0.159584 -0.023945 0.124562
0.107411 0.011296 0.121916
0.161217 -0.057762 0.167271
0.161426 0.021940 0.113142
0.161246 -0.043102 0.151047
0.166494 -0.041948 0.077134
0.162834 -0.000757 0.163241
0.154287 -0.094651 0.127272
0.162334 -0.030253 0.094822
0.160587 -0.019150 0.057076
0.159431 -0.067364 0.111059
0.164004 0.007228 0.097820
0.107784 -0.041936 0.144005
0.161607 0.004970 0.126936
0.161576 -0.011846 0.137538
0.161708 -0.044746 0.126342
0.160570 -0.053511 0.049869
0.161185 -0.061432 0.138862
0.157879 -0.090262 0.094441
0.071407 -0.052867 0.093964
0.157078 0.004483 0.066013
0.160916 0.013007 0.143861
-0.189677 -0.073910 -0.187467
-0.181097 -0.042336 -0.187549
-0.167593 -0.099314 -0.188041
-0.180463 -0.071086 -0.187529
-0.187173 -0.032234 -0.187195
-0.174203 -0.064362 -0.186968
-0.182993 -0.082184 -0.187282
-0.151001 -0.064542 -0.187550
-0.174310 -0.032948 -0.187097
-0.159890 -0.109327 -0.187644
-0.164950 -0.064970 -0.187392
-0.191861 -0.045754 -0.186048
-0.189668 -0.089548 -0.186521
-0.163037 -0.040198 -0.187582
-0.164820 -0.085265 -0.187129
-0.189312 -0.099600 -0.187549
-0.186377 -0.064195 -0.186482
-0.171457 -0.120992 -0.187702
-0.171519 -0.076184 -0.187807
-0.158619 -0.076124 -0.187803
-0.175029 -0.088720 -0.187411
-0.186717 -0.050891 -0.187551
-0.194580 -0.079214 -0.185441
-0.171039 -0.050570 -0.187468
-0.178702 -0.057046 -0.187340
-0.152144 -0.091827 -0.187656
-0.180694 -0.096073 -0.187398
-0.178382 -0.106937 -0.187294
-0.185059 -0.117639 -0.187630
-0.193126 -0.105375 -0.186562
-0.192011 -0.060001 -0.187262
-0.157593 -0.052403 -0.187283
-0.193851 -0.007519 -0.162956
-0.193773 0.037391 -0.173991
-0.192793 -0.031416 -0.178150
-0.193522 0.009781 -0.162300
-0.193394 0.044093 -0.154585
-0.193381 -0.001889 -0.102884
-0.193919 0.003276 -0.126464
-0.193028 0.011754 -0.178188
-0.193590 0.036393 -0.123745
-0.193556 -0.036299 -0.128765
-0.193669 0.001657 -0.152152
-0.193671 0.030352 -0.144722
-0.193565 -0.023455 -0.110556
-0.193748 0.031960 -0.162366
-0.193812 -0.012375 -0.122104
-0.193740 -0.009432 -0.177363
-0.193348 0.014325 -0.112209
-0.193441 -0.041887 -0.150219
-0.193364 0.001885 -0.171823
-0.192679 0.002117 -0.184139
-0.193504 -0.028414 -0.159622
-0.193763 0.021712 -0.166993
-0.193626 -0.005944 -0.139542
-0.193706 0.018300 -0.153066
-0.193570 0.009737 -0.141121
-0.193864 -0.015500 -0.152553
-0.193186 -0.018507 -0.183438
-0.193890 -0.025021 -0.140683
-0.193089 -0.040157 -0.168709
-0.193302 -0.018730 -0.169282
-0.193335 0.024320 -0.181753
-0.193546 0.021464 -0.131540
-0.193477 0.230867 -0.052134
-0.193068 0.267924 -0.064672
-0.192922 0.214324 -0.070533
-0.192945 0.245827 -0.053303
-0.192739 0.273116 -0.043382
-0.192930 0.234955 -0.009363
-0.193244 0.242107 -0.022234
-0.193023 0.246642 -0.069876
-0.192683 0.267009 -0.021604
-0.193229 0.209599 -0.024662
-0.193073 0.238816 -0.043988
-0.193057 0.263322 -0.036066
-0.193146 0.218870 -0.012655
-0.192740 0.263325 -0.051284
-0.193003 0.228229 -0.021449
-0.193370 0.230644 -0.070691
-0.192638 0.250509 -0.013229
-0.193341 0.206610 -0.040180
-0.192850 0.239104 -0.061765
-0.192682 0.242410 -0.081348
-0.193169 0.214921 -0.048682
-0.193113 0.255576 -0.057910
-0.193160 0.234270 -0.032689
-0.193036 0.253058 -0.044186
-0.192888 0.246137 -0.034443
-0.193402 0.225195 -0.041944
-0.193262 0.225051 -0.081749
-0.193374 0.219479 -0.032598
-0.193172 0.206768 -0.057859
-0.193171 0.223300 -0.060275
-0.193007 0.259367 -0.077060
-0.192996 0.254865 -0.026541
0.159727 -0.359611 -0.060180
0.160100 -0.307565 -0.082137
0.162110 -0.378897 -0.087310
0.161195 -0.339850 -0.061335
0.160247 -0.297743 -0.047504
0.161630 -0.352442 -0.002332
0.160393 -0.344861 -0.020479
0.165304 -0.337207 -0.085179
0.160286 -0.305796 -0.019372
0.161945 -0.385534 -0.023956
0.161652 -0.348601 -0.048789
0.158464 -0.315706 -0.038796
0.161234 -0.374029 -0.007551
0.163566 -0.312161 -0.061133
0.161825 -0.362775 -0.020196
0.160702 -0.358540 -0.087603
0.160534 -0.331425 -0.007721
0.161241 -0.388838 -0.046780
0.161642 -0.350263 -0.074068
0.161632 -0.344082 -0.104319
0.160871 -0.379090 -0.058830
0.159856 -0.325453 -0.073229
0.158603 -0.356923 -0.034947
0.161328 -0.327823 -0.049817
0.160741 -0.338254 -0.036977
0.169745 -0.364505 -0.048637
0.160883 -0.366716 -0.104738
0.160485 -0.373083 -0.035916
0.160621 -0.389060 -0.070739
0.158494 -0.368227 -0.074024
0.159507 -0.324583 -0.097719
0.164581 -0.325086 -0.025523
-0.045600 -0.285839 -0.184323
-0.031255 -0.258044 -0.184302
-0.017106 -0.304481 -0.184486
-0.028551 -0.285318 -0.184190
-0.041343 -0.250565 -0.184096
-0.021164 -0.277482 -0.183539
-0.036611 -0.292571 -0.183712
0.002468 -0.278750 -0.184236
-0.023473 -0.248292 -0.183812
-0.006769 -0.311607 -0.183966
-0.012189 -0.275791 -0.183965
-0.052660 -0.262008 -0.183884
-0.046708 -0.297678 -0.183679
-0.011511 -0.253959 -0.184373
-0.009801 -0.296135 -0.183763
-0.043505 -0.308438 -0.184216
-0.036548 -0.278873 -0.184038
-0.017843 -0.319290 -0.184294
-0.017730 -0.288575 -0.184443
-0.006438 -0.285665 -0.184312
-0.025065 -0.296751 -0.184088
-0.040197 -0.266811 -0.184180
-0.057574 -0.286920 -0.183850
-0.019589 -0.264831 -0.184175
-0.028838 -0.270919 -0.184032
0.000710 -0.298258 -0.184306
-0.033577 -0.303357 -0.184227
-0.026261 -0.310708 -0.183973
-0.034840 -0.318721 -0.184272
-0.055822 -0.306581 -0.184068
-0.049546 -0.275109 -0.184107
-0.004274 -0.265748 -0.184024
-0.130345 -0.171187 -0.188312
-0.117221 -0.148746 -0.188158
-0.103031 -0.186996 -0.188360
-0.113640 -0.171145 -0.188094
-0.126604 -0.143549 -0.187930
-0.106606 -0.164508 -0.187456
-0.122036 -0.176993 -0.187780
-0.083837 -0.165499 -0.188106
-0.109938 -0.141287 -0.187750
-0.092704 -0.193352 -0.187983
-0.098040 -0.161787 -0.187921
-0.137159 -0.152289 -0.187823
-0.131245 -0.181317 -0.187735
-0.098304 -0.145507 -0.188217
-0.095141 -0.180012 -0.187792
-0.128176 -0.191277 -0.188134
-0.121452 -0.165897 -0.188078
-0.103564 -0.200443 -0.188250
-0.103008 -0.173678 -0.188303
-0.092357 -0.170382 -0.188179
-0.110527 -0.180132 -0.188062
-0.125355 -0.155908 -0.188119
-0.141671 -0.171021 -0.187897
-0.105351 -0.154079 -0.188018
-0.114390 -0.159135 -0.187962
-0.085547 -0.181271 -0.188261
-0.118926 -0.186217 -0.188140
-0.111302 -0.192569 -0.187962
-0.119234 -0.200112 -0.188268
-0.139426 -0.188237 -0.188104
-0.133676 -0.162691 -0.187997
-0.090416 -0.154438 -0.187903
0.127397 0.181642 0.188102
0.155762 0.223445 0.183140
0.157551 0.148669 0.184426
0.145721 0.182039 0.188178
0.137012 0.242998 0.188971
0.152561 0.192245 0.189000
0.141701 0.169868 0.188175
0.161013 0.193704 0.172716
0.154378 0.237009 0.187740
0.157305 0.138408 0.186258
0.159011 0.188415 0.186667
0.117565 0.224208 0.188466
0.130271 0.163778 0.187359
0.159674 0.217847 0.184976
0.158581 0.169510 0.186633
0.135649 0.153387 0.188486
0.134508 0.193375 0.187758
0.153109 0.127045 0.186757
0.156787 0.177227 0.186539
0.159343 0.177831 0.174777
0.152734 0.160422 0.188234
0.139431 0.218223 0.189151
0.112510 0.175406 0.188747
0.155664 0.210189 0.187356
0.145995 0.201634 0.188347
0.160426 0.163166 0.176158
0.155344 0.155405 0.176780
0.145174 0.145270 0.187936
0.135431 0.133313 0.188092
0.114196 0.148374 0.188366
0.126788 0.205546 0.188949
0.160695 0.203476 0.186022
0.158510 0.042463 0.141500
0.159802 0.093286 0.124425
0.161885 0.019353 0.121653
0.158829 0.061778 0.140672
0.160470 0.103110 0.150542
0.160057 0.049791 0.182067
0.158165 0.054083 0.169808
0.168626 0.065075 0.123390
0.159847 0.095231 0.170194
0.161151 0.011919 0.169476
0.160315 0.053509 0.150221
0.157240 0.084146 0.156776
0.159139 0.026265 0.178593
0.165785 0.089916 0.141594
0.160151 0.038547 0.170579
0.159390 0.041439 0.122195
0.158850 0.069225 0.178748
0.160266 0.006622 0.152134
0.160234 0.051726 0.130419
0.161103 0.056004 0.108646
0.159013 0.021263 0.143162
0.159135 0.077012 0.132944
0.154893 0.042865 0.158967
0.160315 0.073358 0.149289
0.159144 0.063328 0.159930
0.170619 0.035144 0.150966
0.159370 0.032410 0.109109
0.157866 0.024446 0.160604
0.158830 0.008617 0.133267
0.155702 0.031442 0.132253
0.159660 0.075419 0.114325
0.167769 0.076558 0.167400
-0.194432 0.195942 -0.083006
-0.194250 0.226205 -0.093230
-0.194023 0.181972 -0.098251
-0.193962 0.207903 -0.083007
-0.193939 0.230783 -0.074773
-0.193947 0.199248 -0.048971
-0.194245 0.204703 -0.059000
-0.194350 0.208672 -0.097034
-0.194036 0.225667 -0.059136
-0.194257 0.178447 -0.061520
-0.194159 0.202361 -0.076380
-0.194002 0.222311 -0.069900
-0.193870 0.185909 -0.051212
-0.194089 0.222693 -0.082314
-0.194087 0.193434 -0.058525
-0.194249 0.195937 -0.097794
-0.193716 0.212230 -0.051832
-0.194361 0.175684 -0.073978
-0.194030 0.201448 -0.090572
-0.193899 0.204866 -0.107126
-0.194257 0.183027 -0.080475
-0.194091 0.215159 -0.090151
-0.194134 0.198052 -0.067827
-0.194188 0.213923 -0.076160
-0.193945 0.208266 -0.069324
-0.194428 0.191100 -0.074942
-0.194189 0.190699 -0.107499
-0.194274 0.186075 -0.067211
-0.193972 0.176086 -0.087794
-0.194002 0.189358 -0.089470
-0.194068 0.218438 -0.103631
-0.194376 0.215571 -0.062371
0.033385 0.349927 0.184974
0.049100 0.385563 0.185039
0.066417 0.323119 0.185390
0.052592 0.350602 0.185230
0.037121 0.394796 0.185106
0.061479 0.360883 0.185579
0.044799 0.339899 0.185464
0.089643 0.360673 0.185209
0.058526 0.397319 0.185014
0.077466 0.312348 0.185571
0.072858 0.362717 0.185220
0.024301 0.380936 0.185343
0.032852 0.333311 0.185357
0.074062 0.391478 0.184885
0.074025 0.336670 0.185638
0.036538 0.319136 0.185600
0.042949 0.359588 0.185149
0.065032 0.299678 0.185586
0.065158 0.346760 0.185235
0.079784 0.349374 0.185084
0.057233 0.335235 0.185630
0.038645 0.374763 0.185090
0.019772 0.346560 0.185440
0.063983 0.377272 0.185111
0.052095 0.369944 0.185194
0.085702 0.331301 0.185139
0.048718 0.325451 0.185378
0.055492 0.314525 0.185740
0.044857 0.302207 0.185535
0.024031 0.316789 0.185377
0.028015 0.363299 0.185260
0.081520 0.376499 0.185047
-0.070058 -0.252762 -0.186011
-0.056347 -0.229070 -0.185881
-0.041828 -0.269195 -0.186148
-0.052900 -0.252867 -0.185861
-0.066277 -0.223197 -0.185698
-0.045800 -0.245703 -0.185288
-0.061575 -0.258887 -0.185521
-0.022248 -0.246882 -0.185902
-0.048582 -0.220907 -0.185446
-0.031362 -0.275955 -0.185751
-0.036873 -0.243605 -0.185654
-0.077775 -0.232774 -0.185521
-0.071610 -0.263247 -0.185461
-0.036705 -0.225548 -0.185987
-0.034160 -0.261967 -0.185586
-0.068157 -0.273573 -0.185906
-0.060752 -0.247260 -0.185806
-0.042505 -0.283328 -0.186016
-0.042023 -0.255467 -0.186063
-0.030926 -0.252353 -0.185926
-0.049544 -0.262134 -0.185810
-0.064838 -0.236753 -0.185844
-0.082125 -0.253334 -0.185623
-0.044154 -0.234858 -0.185819
-0.053496 -0.240057 -0.185683
-0.023913 -0.263671 -0.186047
-0.058233 -0.268249 -0.185900
-0.050655 -0.275068 -0.185782
-0.059148 -0.282852 -0.186038
-0.080576 -0.271347 -0.185868
-0.073845 -0.243834 -0.185706
-0.029064 -0.235478 -0.185681
-0.194425 0.110184 -0.134250
-0.194131 0.139455 -0.144559
-0.193902 0.096311 -0.148767
-0.193884 0.121742 -0.134206
-0.193877 0.143823 -0.126646
-0.193870 0.113485 -0.101670
-0.194228 0.118587 -0.111189
-0.194303 0.122601 -0.147874
-0.194008 0.139018 -0.111804
-0.194206 0.092661 -0.113653
-0.194028 0.116472 -0.127909
-0.193953 0.135570 -0.121804
-0.193862 0.100273 -0.103730
-0.194031 0.136072 -0.133987
-0.194038 0.107685 -0.110764
-0.194204 0.110142 -0.148505
-0.193698 0.125864 -0.104480
-0.194270 0.089779 -0.125538
-0.193947 0.115706 -0.141582
-0.193758 0.118956 -0.157616
-0.194205 0.097447 -0.131711
-0.194085 0.128901 -0.141344
-0.194151 0.112172 -0.119710
-0.194042 0.127532 -0.127662
-0.193947 0.122086 -0.121264
-0.194382 0.105446 -0.126381
-0.194105 0.105104 -0.157821
-0.194240 0.100274 -0.118882
-0.193951 0.090382 -0.138889
-0.194035 0.103807 -0.140396
-0.194027 0.132012 -0.154400
-0.194345 0.129142 -0.114608
-0.194060 0.027207 -0.175193
-0.193789 0.065283 -0.182886
-0.193646 0.005978 -0.184233
-0.193604 0.041117 -0.175149
-0.193594 0.071284 -0.170758
-0.193617 0.032426 -0.149042
-0.193907 0.034275 -0.158048
-0.193977 0.043664 -0.184479
-0.193840 0.065007 -0.157394
-0.194076 0.001294 -0.158143
-0.193782 0.035010 -0.169899
-0.193746 0.058822 -0.165600
-0.193728 0.012926 -0.151529
-0.193833 0.061062 -0.175197
-0.193889 0.022312 -0.156479
-0.193833 0.023842 -0.183673
-0.193441 0.045838 -0.151887
-0.194061 -0.004080 -0.168085
-0.193640 0.034439 -0.181060
-0.193393 0.033923 -0.189067
-0.193899 0.008981 -0.172843
-0.193681 0.052924 -0.178386
-0.193876 0.027250 -0.164669
-0.193786 0.048626 -0.170168
-0.193666 0.041820 -0.164104
-0.194142 0.019138 -0.168840
-0.193596 0.017151 -0.188386
-0.194063 0.010372 -0.162667
-0.193768 -0.001816 -0.178226
-0.193685 0.016960 -0.178379
-0.193548 0.053032 -0.188036
-0.194078 0.051902 -0.159605
0.004494 -0.327463 -0.182613
0.023290 -0.292341 -0.182741
0.042630 -0.352854 -0.182819
0.027806 -0.327383 -0.182545
0.009512 -0.282440 -0.182586
0.036732 -0.316988 -0.181594
0.016170 -0.336754 -0.181963
0.068492 -0.318593 -0.182598
0.034210 -0.279655 -0.182056
0.056059 -0.363380 -0.182086
0.049060 -0.315774 -0.182239
-0.006272 -0.297201 -0.182117
0.001445 -0.343303 -0.181948
0.050477 -0.286711 -0.182683
0.052140 -0.341189 -0.181891
0.007161 -0.357786 -0.182457
0.017147 -0.319462 -0.182225
0.041752 -0.373762 -0.182277
0.042129 -0.331447 -0.182754
0.057382 -0.328220 -0.182886
0.032448 -0.341920 -0.182242
0.011485 -0.303994 -0.182488
-0.011612 -0.330129 -0.181918
0.039639 -0.301106 -0.182505
0.027212 -0.308554 -0.182280
0.065780 -0.345554 -0.182574
0.021148 -0.350862 -0.182428
0.030308 -0.361154 -0.182111
0.018682 -0.372604 -0.182407
-0.010331 -0.357881 -0.182226
-0.001441 -0.313941 -0.182547
0.059469 -0.302297 -0.182403
-0.013868 -0.314260 -0.183127
0.000296 -0.286391 -0.183028
0.014693 -0.333206 -0.183348
0.003147 -0.313933 -0.182988
-0.009986 -0.278902 -0.182802
0.010252 -0.306015 -0.182376
-0.004922 -0.321166 -0.182575
0.034087 -0.307311 -0.183098
0.008207 -0.276966 -0.182509
0.024856 -0.340404 -0.182888
0.019276 -0.304697 -0.182752
-0.021344 -0.290387 -0.182587
-0.015123 -0.326249 -0.182509
0.020118 -0.282579 -0.183128
0.021786 -0.324807 -0.182647
-0.011529 -0.336922 -0.183102
-0.004741 -0.307397 -0.182836
0.014024 -0.347914 -0.183217
0.014007 -0.317216 -0.183285
0.025142 -0.314452 -0.183111
0.006727 -0.325459 -0.182940
-0.008566 -0.295255 -0.182937
-0.025607 -0.315798 -0.182666
0.011955 -0.293417 -0.182943
0.002731 -0.299373 -0.182798
0.032277 -0.327103 -0.183206
-0.001727 -0.332071 -0.183107
0.005557 -0.339425 -0.182900
-0.003046 -0.347304 -0.183195
-0.023806 -0.335699 -0.182904
-0.017825 -0.303392 -0.182816
0.027261 -0.294536 -0.182809
-0.175068 -0.079472 -0.189735
-0.162131 -0.053094 -0.189595
-0.146830 -0.098499 -0.189785
-0.158533 -0.079383 -0.189513
-0.172286 -0.046928 -0.189301
-0.151097 -0.071746 -0.188906
-0.166452 -0.086541 -0.189069
-0.126931 -0.072789 -0.189408
-0.153890 -0.045031 -0.189116
-0.136622 -0.105737 -0.189475
-0.141794 -0.070043 -0.189243
-0.183483 -0.056771 -0.189245
-0.176345 -0.091427 -0.189205
-0.141684 -0.050146 -0.189571
-0.139373 -0.089820 -0.189045
-0.172692 -0.102080 -0.189686
-0.166254 -0.072788 -0.189413
-0.147600 -0.113542 -0.189762
-0.147314 -0.082181 -0.189730
-0.135547 -0.079541 -0.189490
-0.154522 -0.090389 -0.189432
-0.170401 -0.061303 -0.189424
-0.187598 -0.080805 -0.189142
-0.149316 -0.059577 -0.189365
-0.158885 -0.065042 -0.189318
-0.129377 -0.092360 -0.189600
-0.162811 -0.096994 -0.189490
-0.155675 -0.104835 -0.189321
-0.164684 -0.112892 -0.189744
-0.184669 -0.101328 -0.189431
-0.179515 -0.069247 -0.189371
-0.134234 -0.060515 -0.189300
-0.085416 -0.209619 -0.187592
-0.071597 -0.185955 -0.187471
-0.057050 -0.225952 -0.187634
-0.068338 -0.209600 -0.187405
-0.081509 -0.180348 -0.187293
-0.061084 -0.202583 -0.186863
-0.076758 -0.215683 -0.187083
-0.037592 -0.203732 -0.187399
-0.064008 -0.177912 -0.187103
-0.046572 -0.232544 -0.187279
-0.052224 -0.200147 -0.187239
-0.092784 -0.189656 -0.187138
-0.086570 -0.220047 -0.187037
-0.052132 -0.182457 -0.187573
-0.049411 -0.218766 -0.187108
-0.083216 -0.230142 -0.187385
-0.076261 -0.203996 -0.187412
-0.057646 -0.240014 -0.187537
-0.057361 -0.212184 -0.187595
-0.046385 -0.209047 -0.187453
-0.064873 -0.218923 -0.187342
-0.080198 -0.193552 -0.187440
-0.097256 -0.209838 -0.187200
-0.059646 -0.191633 -0.187399
-0.068885 -0.196917 -0.187301
-0.039224 -0.220236 -0.187560
-0.073473 -0.225093 -0.187381
-0.065859 -0.231754 -0.187269
-0.074276 -0.239479 -0.187498
-0.095373 -0.227517 -0.187348
-0.089099 -0.200749 -0.187257
-0.044352 -0.192142 -0.187276
-0.194200 0.076929 -0.166816
-0.193872 0.108624 -0.176052
-0.193679 0.061052 -0.178569
-0.193687 0.089081 -0.166897
-0.193673 0.113507 -0.161003
-0.193714 0.080783 -0.137216
-0.194028 0.084654 -0.146869
-0.194018 0.090534 -0.178338
-0.193865 0.108429 -0.146935
-0.194009 0.056992 -0.148230
-0.193800 0.083625 -0.161221
-0.193805 0.103820 -0.155990
-0.193760 0.065737 -0.139593
-0.193832 0.104981 -0.166887
-0.193912 0.073708 -0.145941
-0.194050 0.075947 -0.178187
-0.193577 0.093122 -0.140441
-0.194104 0.053599 -0.159083
-0.193664 0.082932 -0.173437
-0.193482 0.085083 -0.185634
-0.193932 0.062613 -0.164431
-0.193867 0.097512 -0.172204
-0.193943 0.078318 -0.154341
-0.193798 0.095271 -0.161195
-0.193765 0.089439 -0.155014
-0.194168 0.071188 -0.159752
-0.193766 0.070558 -0.185268
-0.194063 0.064988 -0.153063
-0.193792 0.054554 -0.170686
-0.193843 0.069357 -0.171470
-0.193759 0.099799 -0.183505
-0.194086 0.097268 -0.149556
-0.194394 0.275129 -0.064653
-0.194206 0.306345 -0.075076
-0.194046 0.260662 -0.079873
-0.193942 0.287502 -0.064779
-0.193887 0.310990 -0.056589
-0.193948 0.278672 -0.030434
-0.194231 0.284135 -0.040541
-0.194398 0.288336 -0.078820
-0.194033 0.305745 -0.040616
-0.194325 0.256928 -0.042942
-0.194163 0.281771 -0.058004
-0.193945 0.302274 -0.051472
-0.193871 0.264677 -0.032744
-0.194100 0.302708 -0.064027
-0.194115 0.272618 -0.039998
-0.194223 0.274992 -0.079532
-0.193657 0.291929 -0.033287
-0.194393 0.254058 -0.055483
-0.194020 0.281043 -0.072333
-0.193896 0.284404 -0.088957
-0.194276 0.261594 -0.062015
-0.194064 0.295307 -0.071518
-0.194034 0.277318 -0.049471
-0.194170 0.293620 -0.057796
-0.193950 0.287849 -0.050800
-0.194502 0.270006 -0.056440
-0.194193 0.269877 -0.089230
-0.194273 0.264917 -0.048667
-0.193994 0.254412 -0.069452
-0.193969 0.268335 -0.071058
-0.194011 0.298434 -0.085547
-0.194402 0.295435 -0.043894
-0.194513 0.355695 -0.036930
-0.194287 0.388820 -0.047875
-0.194078 0.340811 -0.052134
-0.193999 0.368899 -0.036766
-0.193995 0.393330 -0.028347
-0.194035 0.359691 -0.002841
-0.194340 0.365103 -0.012418
-0.194508 0.369934 -0.051566
-0.194150 0.388127 -0.012791
-0.194362 0.336816 -0.015123
-0.194134 0.362748 -0.030331
-0.193993 0.384359 -0.023399
-0.193987 0.344656 -0.004841
-0.194129 0.384857 -0.036299
-0.194137 0.353005 -0.011925
-0.194361 0.355629 -0.051830
-0.193806 0.373510 -0.005302
-0.194454 0.334302 -0.027564
-0.194110 0.362193 -0.044685
-0.193891 0.365766 -0.061854
-0.194427 0.341465 -0.034041
-0.194198 0.377312 -0.044386
-0.194169 0.358126 -0.021576
-0.194181 0.375430 -0.029602
-0.194037 0.369230 -0.023081
-0.194543 0.350340 -0.028276
-0.194209 0.350574 -0.061758
-0.194367 0.345165 -0.020372
-0.194169 0.334394 -0.041750
-0.194149 0.348704 -0.043309
-0.194089 0.380453 -0.058819
-0.194516 0.377440 -0.015748
0.039821 -0.367861 -0.179482
0.062798 -0.331141 -0.179465
0.092722 -0.393570 -0.179192
0.071714 -0.368670 -0.179231
0.042412 -0.321975 -0.179287
0.083345 -0.357163 -0.178833
0.053968 -0.377362 -0.178563
0.127005 -0.358388 -0.179225
0.079768 -0.318188 -0.178841
0.110357 -0.403131 -0.178864
0.100961 -0.356054 -0.179159
0.016383 -0.336465 -0.179184
0.031528 -0.384799 -0.178909
0.102247 -0.324568 -0.179394
0.104628 -0.381921 -0.178610
0.043352 -0.397204 -0.178868
0.058514 -0.359610 -0.179149
0.089953 -0.412031 -0.178726
0.092026 -0.372165 -0.179441
0.113524 -0.369108 -0.179388
0.079582 -0.383298 -0.178935
0.047994 -0.343660 -0.179455
0.014831 -0.370666 -0.178897
0.088737 -0.339831 -0.179349
0.071110 -0.347225 -0.179279
0.124093 -0.386572 -0.179009
0.063065 -0.391204 -0.178875
0.075677 -0.400714 -0.178735
0.058801 -0.410754 -0.178978
0.013381 -0.397024 -0.178856
0.029018 -0.353538 -0.179326
0.114130 -0.341160 -0.179201
-0.133949 -0.128371 -0.189257
-0.121096 -0.105257 -0.189086
-0.107088 -0.144450 -0.189281
-0.117707 -0.128296 -0.189027
-0.130386 -0.099846 -0.188855
-0.110609 -0.121488 -0.188412
-0.125727 -0.134329 -0.188678
-0.088061 -0.122543 -0.188983
-0.113831 -0.097557 -0.188692
-0.096904 -0.150788 -0.188945
-0.102083 -0.118947 -0.188832
-0.140743 -0.108809 -0.188784
-0.134774 -0.138648 -0.188695
-0.102314 -0.101946 -0.189129
-0.099431 -0.137321 -0.188686
-0.131773 -0.148484 -0.189095
-0.125331 -0.122762 -0.189022
-0.107638 -0.157874 -0.189216
-0.107210 -0.130813 -0.189241
-0.096474 -0.127679 -0.189061
-0.114523 -0.137535 -0.188992
-0.129126 -0.112549 -0.189030
-0.145306 -0.128414 -0.188821
-0.109358 -0.110722 -0.188933
-0.118329 -0.115888 -0.188907
-0.089866 -0.138696 -0.189161
-0.122654 -0.143596 -0.189059
-0.115272 -0.150120 -0.188886
-0.123303 -0.157493 -0.189188
-0.142845 -0.145782 -0.189019
-0.137406 -0.119647 -0.188929
-0.094668 -0.111192 -0.188836
0.065526 0.299350 0.186885
0.082406 0.331852 0.186706
0.098826 0.275858 0.187282
0.085793 0.299939 0.187074
0.069986 0.340141 0.186841
0.094690 0.309463 0.187462
0.076862 0.290583 0.187341
0.123355 0.309143 0.186988
0.091622 0.343035 0.186698
0.110889 0.266575 0.187127
0.105956 0.311687 0.187044
0.055263 0.327069 0.187022
0.064309 0.284656 0.187219
0.106910 0.337263 0.186777
0.107667 0.287954 0.187368
0.068303 0.271610 0.187345
0.076192 0.307714 0.186991
0.097534 0.253925 0.187212
0.098873 0.296596 0.187051
0.112891 0.300036 0.186202
0.089886 0.286458 0.187402
0.071572 0.321892 0.186968
0.050011 0.297818 0.187288
0.096994 0.324396 0.186939
0.085282 0.317385 0.187013
0.120040 0.283949 0.186878
0.081851 0.279975 0.181278
0.087232 0.268734 0.187459
0.077744 0.255866 0.187281
0.053138 0.272109 0.187467
0.060392 0.311351 0.187209
0.115307 0.323960 0.186767
0.121230 -0.421551 -0.167487
0.144391 -0.353760 -0.179043
0.150256 -0.422406 -0.170777
0.147491 -0.405770 -0.169683
0.148411 -0.329305 -0.157633
0.150901 -0.417946 -0.079817
0.146182 -0.417715 -0.132875
0.152776 -0.385375 -0.173557
0.152988 -0.342006 -0.126994
0.152546 -0.422157 -0.115512
0.154512 -0.399771 -0.156795
0.124996 -0.375634 -0.167098
0.129271 -0.423092 -0.095458
0.153281 -0.350021 -0.172823
0.152404 -0.417055 -0.120966
0.120961 -0.421275 -0.175393
0.157081 -0.388691 -0.102318
0.139641 -0.423919 -0.143202
0.153121 -0.403463 -0.171423
0.154666 -0.408221 -0.174391
0.149958 -0.418385 -0.169819
0.146231 -0.378936 -0.177408
0.100098 -0.422839 -0.149870
0.155209 -0.371591 -0.157876
0.156616 -0.397141 -0.140265
0.153585 -0.414711 -0.154704
0.143518 -0.420676 -0.175828
0.147750 -0.420768 -0.148587
0.124429 -0.423411 -0.162587
0.074557 -0.423304 -0.176844
0.120156 -0.401884 -0.176991
0.151433 -0.368103 -0.124799
-0.190105 -0.021609 -0.189825
-0.182293 0.008744 -0.189820
-0.171962 -0.044711 -0.190143
-0.181857 -0.019355 -0.189722
-0.188192 0.018517 -0.189598
-0.176176 -0.012852 -0.189275
-0.183933 -0.029233 -0.189338
-0.159064 -0.013211 -0.189641
-0.176630 0.017170 -0.189494
-0.165998 -0.053547 -0.189771
-0.169350 -0.014435 -0.189489
-0.192644 0.005278 -0.189034
-0.189765 -0.035248 -0.189175
-0.168007 0.009239 -0.189809
-0.169167 -0.032503 -0.189309
-0.189159 -0.045019 -0.189791
-0.186924 -0.012574 -0.189450
-0.174303 -0.063915 -0.189957
-0.174738 -0.024101 -0.189960
-0.164757 -0.023970 -0.189819
-0.177795 -0.035264 -0.189538
-0.187356 0.000095 -0.189744
-0.195146 -0.026883 -0.188833
-0.174245 0.000294 -0.189651
-0.180487 -0.005795 -0.189520
-0.160494 -0.038102 -0.189852
-0.182046 -0.041807 -0.189620
-0.179948 -0.051760 -0.189447
-0.185974 -0.061177 -0.189844
-0.193183 -0.050828 -0.189282
-0.192434 -0.008587 -0.189523
-0.164056 -0.002260 -0.189517
0.053673 -0.397063 -0.178797
0.070978 -0.373550 -0.178800
0.097467 -0.412142 -0.178539
0.077093 -0.397504 -0.178454
0.055568 -0.370046 -0.178513
0.087282 -0.390290 -0.178170
0.063841 -0.403067 -0.178164
0.125176 -0.390890 -0.178573
0.083881 -0.367841 -0.178411
0.112095 -0.416072 -0.178443
0.102151 -0.387869 -0.178490
0.037435 -0.378034 -0.178588
0.048228 -0.408184 -0.178285
0.102077 -0.370592 -0.178862
0.106288 -0.405211 -0.178222
0.056265 -0.414805 -0.178372
0.066981 -0.390852 -0.178626
0.093843 -0.419346 -0.178390
0.095042 -0.399105 -0.178865
0.112775 -0.396383 -0.178663
0.085680 -0.406704 -0.178426
0.059554 -0.381323 -0.178794
0.036655 -0.397689 -0.178592
0.091511 -0.378999 -0.178570
0.077339 -0.383435 -0.178536
0.124530 -0.407505 -0.178590
0.071614 -0.411469 -0.178550
0.081787 -0.415864 -0.178270
0.068369 -0.419449 -0.178333
0.035556 -0.412738 -0.178488
0.047095 -0.387813 -0.178589
0.113798 -0.379198 -0.178412
0.157996 0.135685 0.150460
0.159856 0.186739 0.134454
0.161010 0.112595 0.132887
0.158440 0.155009 0.149984
0.160354 0.196766 0.158369
0.158657 0.143842 0.185425
0.157402 0.146004 0.176093
0.167978 0.158364 0.134660
0.158892 0.188775 0.176259
0.159396 0.105264 0.176363
0.159623 0.146963 0.159585
0.152974 0.176032 0.164441
0.158285 0.119802 0.183244
0.164466 0.182939 0.150915
0.159361 0.131974 0.176275
0.159618 0.133531 0.133088
0.157960 0.162898 0.183056
0.158933 0.098859 0.160926
0.159946 0.144494 0.140091
0.160431 0.148790 0.121378
0.158501 0.114654 0.152055
0.159284 0.171002 0.143501
0.149619 0.134666 0.167581
0.160081 0.166644 0.158458
0.158879 0.156666 0.168796
0.170312 0.128701 0.159729
0.159431 0.124808 0.120905
0.157166 0.117125 0.168432
0.158551 0.101422 0.142080
0.149996 0.124021 0.141587
0.159475 0.167840 0.126368
0.166473 0.170887 0.173437
0.100741 0.251071 0.188401
0.119983 0.285304 0.188792
0.134869 0.227697 0.188609
0.120338 0.252934 0.188706
0.105723 0.294165 0.188903
0.129951 0.261489 0.189121
0.112985 0.242822 0.189020
0.151097 0.261878 0.187547
0.128994 0.296291 0.188549
0.143060 0.219214 0.188292
0.139214 0.262531 0.188723
0.084677 0.280234 0.188749
0.098364 0.236551 0.188619
0.140987 0.289096 0.188264
0.140020 0.240657 0.188832
0.102466 0.224583 0.188682
0.111285 0.261170 0.188855
0.132566 0.208685 0.188379
0.132570 0.248969 0.188555
0.144197 0.251520 0.187976
0.126122 0.238282 0.188784
0.108204 0.275506 0.188863
0.080809 0.248166 0.189177
0.132302 0.277039 0.188677
0.121813 0.269654 0.188819
0.149165 0.236027 0.187612
0.117382 0.230006 0.188535
0.123008 0.221028 0.188996
0.111432 0.210827 0.188436
0.081326 0.223596 0.188596
0.093210 0.264234 0.188825
0.146413 0.276131 0.188358
-0.137909 -0.089538 -0.189139
-0.122940 -0.064184 -0.189197
-0.107005 -0.107468 -0.189253
-0.118793 -0.089251 -0.188994
-0.133117 -0.058478 -0.188987
-0.110976 -0.081768 -0.187626
-0.128684 -0.096131 -0.188502
-0.086109 -0.082965 -0.188985
-0.114944 -0.055530 -0.188634
-0.095382 -0.114305 -0.188780
-0.101214 -0.078579 -0.188831
-0.145185 -0.068017 -0.188741
-0.139497 -0.101249 -0.188649
-0.102017 -0.060198 -0.189198
-0.098075 -0.099208 -0.188450
-0.135915 -0.112220 -0.189041
-0.127867 -0.083629 -0.188909
-0.107796 -0.122330 -0.188987
-0.106968 -0.092218 -0.189183
-0.094827 -0.088591 -0.189175
-0.115375 -0.099628 -0.188863
-0.132113 -0.072238 -0.189028
-0.150966 -0.089278 -0.188565
-0.109393 -0.069813 -0.188901
-0.119609 -0.075727 -0.188772
-0.087677 -0.100916 -0.189108
-0.125037 -0.106662 -0.188915
-0.116398 -0.113425 -0.188673
-0.125299 -0.122026 -0.189085
-0.149075 -0.108564 -0.188941
-0.141693 -0.079894 -0.189088
-0.093178 -0.070127 -0.188834
-0.194456 0.390129 -0.052114
-0.193796 0.417009 -0.067531
-0.193964 0.378064 -0.069444
-0.193845 0.401429 -0.050827
-0.193298 0.419189 -0.043322
-0.194106 0.394260 -0.011155
-0.194299 0.398995 -0.023618
-0.194523 0.402285 -0.069127
-0.193733 0.416047 -0.022756
-0.194096 0.373812 -0.026568
-0.194167 0.396360 -0.043323
-0.193814 0.413341 -0.036228
-0.193790 0.381031 -0.014367
-0.193672 0.413608 -0.052819
-0.194223 0.388448 -0.022610
-0.194443 0.391239 -0.070896
-0.193749 0.405748 -0.015034
-0.194178 0.370843 -0.041326
-0.194035 0.396394 -0.060702
-0.193872 0.401726 -0.083255
-0.194086 0.378271 -0.048582
-0.194105 0.407788 -0.060408
-0.193959 0.392781 -0.033036
-0.193930 0.406760 -0.043504
-0.193964 0.401494 -0.035589
-0.194664 0.386731 -0.042514
-0.194047 0.387074 -0.082449
-0.194166 0.381472 -0.033946
-0.193879 0.371587 -0.057728
-0.193943 0.384946 -0.060575
-0.194001 0.411826 -0.077843
-0.194191 0.408301 -0.028105
-0.086745 -0.170617 -0.188380
-0.072723 -0.147514 -0.188216
-0.058115 -0.186716 -0.188436
-0.069122 -0.170627 -0.188156
-0.082699 -0.142305 -0.188021
-0.061683 -0.163671 -0.187644
-0.078102 -0.176587 -0.187903
-0.037994 -0.164661 -0.188197
-0.064968 -0.139695 -0.187889
-0.047479 -0.193164 -0.188114
-0.052648 -0.160954 -0.188052
-0.093827 -0.151273 -0.187916
-0.087874 -0.181047 -0.187854
-0.052773 -0.143955 -0.188331
-0.049914 -0.179637 -0.187955
-0.084678 -0.191282 -0.188149
-0.077378 -0.165286 -0.188215
-0.058799 -0.200390 -0.188336
-0.058037 -0.173230 -0.188367
-0.046783 -0.169816 -0.188266
-0.065947 -0.179748 -0.188149
-0.081352 -0.154964 -0.188221
-0.098480 -0.170573 -0.187983
-0.060204 -0.152833 -0.188136
-0.069803 -0.158089 -0.188075
-0.039976 -0.181048 -0.188387
-0.074848 -0.185934 -0.188191
-0.066937 -0.192398 -0.188083
-0.075228 -0.200063 -0.188340
-0.096531 -0.188311 -0.188149
-0.090266 -0.161949 -0.188043
-0.044727 -0.153307 -0.188068
-0.194561 0.245388 -0.099349
-0.194370 0.276193 -0.109567
-0.194126 0.230974 -0.114251
-0.194088 0.257519 -0.099323
-0.194092 0.280789 -0.091323
-0.194107 0.248930 -0.066270
-0.194387 0.254036 -0.075841
-0.194541 0.258331 -0.113237
-0.194250 0.275606 -0.076181
-0.194428 0.227345 -0.078377
-0.194289 0.251867 -0.092868
-0.194168 0.272198 -0.086474
-0.194067 0.234998 -0.068353
-0.194257 0.272628 -0.098776
-0.194221 0.242778 -0.075362
-0.194365 0.245184 -0.113844
-0.193861 0.261913 -0.068962
-0.194520 0.224567 -0.090418
-0.194155 0.250959 -0.106804
-0.193998 0.254397 -0.123240
-0.194417 0.232004 -0.096726
-0.194247 0.265156 -0.106530
-0.194223 0.247347 -0.084603
-0.194302 0.263606 -0.092550
-0.194118 0.257905 -0.086001
-0.194610 0.240131 -0.091273
-0.194312 0.239928 -0.123425
-0.194401 0.235110 -0.083652
-0.194139 0.224905 -0.104025
-0.194152 0.238378 -0.105539
-0.194204 0.268274 -0.119928
-0.194570 0.265404 -0.079139
-0.097325 -0.142559 -0.188985
-0.079595 -0.115600 -0.188923
-0.062108 -0.163397 -0.189037
-0.074693 -0.142219 -0.188775
-0.092330 -0.109352 -0.188695
-0.069169 -0.137161 -0.179397
-0.086844 -0.149724 -0.188295
-0.036607 -0.135841 -0.188794
-0.070367 -0.105758 -0.188118
-0.047947 -0.172449 -0.188552
-0.055811 -0.131458 -0.188545
-0.107450 -0.119520 -0.188445
-0.100633 -0.155697 -0.189871
-0.055182 -0.110718 -0.188781
-0.051820 -0.153539 -0.187969
-0.095013 -0.169023 -0.188864
-0.085343 -0.135985 -0.190514
-0.061601 -0.182328 -0.188767
-0.061517 -0.144823 -0.188903
-0.047289 -0.141763 -0.189030
-0.071178 -0.153523 -0.188595
-0.089777 -0.124373 -0.188834
-0.113188 -0.142647 -0.188067
-0.063698 -0.121355 -0.188586
-0.074784 -0.127841 -0.188572
-0.038632 -0.156471 -0.188751
-0.081817 -0.161803 -0.188567
-0.072398 -0.171094 -0.188293
-0.082949 -0.181451 -0.188817
-0.111871 -0.166305 -0.188697
-0.101975 -0.132409 -0.188797
-0.045190 -0.122019 -0.188433
-0.194264 0.199565 -0.131668
-0.194017 0.229626 -0.142089
-0.193850 0.185961 -0.146898
-0.193760 0.211476 -0.131641
-0.193763 0.233928 -0.123560
-0.193803 0.202898 -0.097816
-0.194117 0.208255 -0.107607
-0.194257 0.212272 -0.146045
-0.193946 0.229011 -0.108343
-0.194133 0.182275 -0.110397
-0.193937 0.205882 -0.125223
-0.193765 0.225685 -0.118722
-0.193764 0.189590 -0.099776
-0.193984 0.225896 -0.131279
-0.193950 0.197083 -0.107242
-0.194052 0.199927 -0.146536
-0.193608 0.215528 -0.100752
-0.194232 0.179721 -0.122575
-0.193822 0.205031 -0.139216
-0.193627 0.208727 -0.156080
-0.194129 0.186730 -0.128954
-0.193988 0.218570 -0.139311
-0.193886 0.201904 -0.116432
-0.193949 0.217291 -0.124721
-0.193854 0.211688 -0.118318
-0.194397 0.194779 -0.123333
-0.193956 0.194583 -0.156299
-0.194102 0.189943 -0.115649
-0.193820 0.179954 -0.136449
-0.193764 0.193004 -0.138137
-0.193842 0.222258 -0.152794
-0.194321 0.218902 -0.111281
0.157208 -0.232367 -0.032966
0.164273 -0.187455 -0.060039
0.165466 -0.249995 -0.062280
0.166073 -0.215215 -0.035084
0.167391 -0.174667 -0.017172
0.164579 -0.223965 0.029494
0.163625 -0.219873 0.006215
0.176910 -0.212474 -0.057663
0.163261 -0.182019 0.009698
0.164930 -0.259150 0.007405
0.163736 -0.221176 -0.018430
0.108689 -0.199796 -0.022871
0.164433 -0.239987 0.023680
0.171682 -0.187372 -0.035304
0.165616 -0.233716 0.004534
0.167218 -0.233218 -0.064154
0.162748 -0.203905 0.020668
0.161854 -0.262931 -0.019473
0.165433 -0.228292 -0.048094
0.163593 -0.216319 -0.081145
0.162748 -0.249896 -0.037027
0.162931 -0.200475 -0.042356
0.109945 -0.230303 0.001065
0.165603 -0.200075 -0.020988
0.163271 -0.211200 -0.007280
0.183650 -0.232600 -0.021233
0.164006 -0.240774 -0.086108
0.164317 -0.243266 -0.009591
0.165408 -0.262882 -0.048632
0.074054 -0.234740 -0.048966
0.152463 -0.206821 -0.070765
0.175667 -0.198730 0.000870
-0.194370 0.340340 -0.069112
-0.194128 0.373079 -0.080069
-0.193914 0.325710 -0.084094
-0.193852 0.353169 -0.069054
-0.193848 0.377648 -0.060860
-0.193896 0.344326 -0.035515
-0.194183 0.349412 -0.044973
-0.194337 0.354266 -0.083492
-0.193993 0.372446 -0.045359
-0.194190 0.321813 -0.047657
-0.194008 0.347255 -0.062585
-0.193848 0.368548 -0.055868
-0.193838 0.329587 -0.037515
-0.193984 0.369182 -0.068636
-0.193994 0.337634 -0.044545
-0.194183 0.340077 -0.083877
-0.193659 0.357871 -0.037996
-0.194271 0.319153 -0.059954
-0.193952 0.346692 -0.076793
-0.193754 0.350031 -0.093747
-0.194247 0.326454 -0.066347
-0.194032 0.361754 -0.076383
-0.194034 0.342575 -0.053984
-0.194049 0.359716 -0.062073
-0.193870 0.353621 -0.055475
-0.194373 0.335047 -0.060700
-0.194052 0.335123 -0.093661
-0.194208 0.329851 -0.052929
-0.193972 0.319339 -0.073871
-0.193987 0.333393 -0.075476
-0.193944 0.364486 -0.090666
-0.194375 0.361762 -0.048323
-0.035447 -0.224449 -0.186992
-0.021053 -0.200187 -0.186862
-0.005851 -0.241421 -0.187090
-0.017669 -0.224274 -0.186796
-0.031474 -0.194339 -0.186632
-0.010132 -0.217219 -0.186200
-0.026394 -0.230689 -0.186495
0.014104 -0.218111 -0.186846
-0.013121 -0.192030 -0.186459
0.004706 -0.248187 -0.186701
-0.000887 -0.214627 -0.186663
-0.043221 -0.203986 -0.186495
-0.036519 -0.235362 -0.186403
-0.000701 -0.196539 -0.186947
0.001913 -0.233773 -0.186532
-0.033093 -0.245788 -0.186775
-0.026008 -0.218599 -0.186755
-0.006695 -0.256038 -0.186944
-0.006301 -0.227034 -0.187023
0.005086 -0.223783 -0.186941
-0.013996 -0.234091 -0.186749
-0.030022 -0.207923 -0.186836
-0.047379 -0.224700 -0.186573
-0.008549 -0.205972 -0.186776
-0.018176 -0.211367 -0.186672
0.012253 -0.235477 -0.187015
-0.022932 -0.240517 -0.186847
-0.015189 -0.247306 -0.186662
-0.023773 -0.255495 -0.186933
-0.045529 -0.243245 -0.186733
-0.039233 -0.215242 -0.186671
0.007297 -0.206420 -0.186666
-0.040843 -0.207667 -0.188058
-0.023488 -0.180353 -0.188060
-0.005505 -0.228501 -0.188240
-0.018793 -0.207519 -0.187925
-0.036173 -0.173755 -0.187786
-0.011613 -0.200431 -0.183052
-0.030318 -0.215062 -0.187459
0.019289 -0.200560 -0.187971
-0.013874 -0.170581 -0.187278
0.007791 -0.237565 -0.187637
0.000675 -0.196528 -0.187734
-0.051074 -0.184467 -0.187498
-0.043684 -0.220790 -0.188168
0.001254 -0.175615 -0.187988
0.004218 -0.218675 -0.187276
-0.038501 -0.234106 -0.187916
-0.029056 -0.201085 -0.188497
-0.005824 -0.247618 -0.187822
-0.005383 -0.210304 -0.188118
0.008712 -0.206989 -0.188229
-0.014729 -0.218843 -0.187756
-0.033903 -0.189257 -0.187949
-0.056239 -0.208138 -0.187319
-0.007678 -0.186558 -0.187815
-0.019134 -0.192773 -0.187671
0.016946 -0.221646 -0.188016
-0.025467 -0.226858 -0.187823
-0.016364 -0.235997 -0.187495
-0.026842 -0.246674 -0.187909
-0.054823 -0.231726 -0.187775
-0.045803 -0.197337 -0.187914
0.010901 -0.186954 -0.187666
0.158605 0.004509 0.077896
0.160283 0.050038 0.056594
0.170216 -0.015855 0.053380
0.159618 0.021362 0.075474
0.161077 0.059798 0.086415
0.162942 0.011527 0.126238
0.158564 0.016110 0.110414
0.184871 0.025298 0.056259
0.161491 0.053172 0.110633
0.169830 -0.022643 0.109450
0.164345 0.015473 0.088150
0.153500 0.042259 0.093321
0.160426 -0.008514 0.121041
0.179208 0.049971 0.076265
0.164279 0.001332 0.109238
0.160406 0.002468 0.053481
0.159023 0.030272 0.120893
0.166931 -0.027156 0.086591
0.163537 0.011448 0.064245
0.166297 0.017635 0.037155
0.161514 -0.013853 0.076818
0.158331 0.036782 0.068098
0.150924 0.004992 0.098493
0.162444 0.033745 0.084585
0.159721 0.025128 0.098408
0.184627 -0.000493 0.086081
0.160699 -0.005865 0.037498
0.159239 -0.011335 0.096565
0.160005 -0.026689 0.066484
0.150827 -0.004308 0.064440
0.157928 0.032699 0.046874
0.184586 0.035223 0.107437
0.159181 -0.072610 0.044410
0.161964 -0.026641 0.020740
0.171628 -0.092858 0.017706
0.160886 -0.055945 0.042170
0.162522 -0.016397 0.053446
0.164530 -0.065596 0.094201
0.159625 -0.060430 0.078448
0.187622 -0.052042 0.021633
0.162932 -0.022892 0.078510
0.170660 -0.099760 0.075729
0.165717 -0.062039 0.055210
0.154173 -0.034779 0.060133
0.161675 -0.084937 0.088199
0.182031 -0.025882 0.041790
0.165665 -0.075745 0.075607
0.161399 -0.074454 0.018006
0.159986 -0.046201 0.088936
0.167704 -0.104287 0.052343
0.164826 -0.066594 0.030244
0.167764 -0.058998 0.000566
0.162655 -0.091317 0.041907
0.158881 -0.040089 0.033941
0.151392 -0.071461 0.065460
0.164163 -0.043129 0.051080
0.160627 -0.051610 0.065326
0.185620 -0.077749 0.052449
0.161840 -0.083291 0.000706
0.160362 -0.088218 0.062706
0.161037 -0.104111 0.031587
0.151530 -0.080737 0.029837
0.157956 -0.044916 0.011648
0.187432 -0.041682 0.075602
-0.193351 0.368346 -0.053113
-0.193217 0.405115 -0.066521
-0.192880 0.350972 -0.071737
-0.192978 0.383924 -0.053813
-0.192797 0.409547 -0.043823
-0.193098 0.373052 -0.010330
-0.193283 0.379810 -0.023361
-0.193290 0.384716 -0.071050
-0.192922 0.404173 -0.022192
-0.193267 0.345796 -0.025554
-0.193238 0.376672 -0.044853
-0.192947 0.400784 -0.036563
-0.193052 0.355666 -0.013833
-0.193030 0.400754 -0.052299
-0.193108 0.365749 -0.022164
-0.193429 0.368438 -0.071733
-0.192629 0.388325 -0.014173
-0.193302 0.342580 -0.041253
-0.192921 0.376686 -0.062762
-0.192834 0.380841 -0.083242
-0.193183 0.351350 -0.049660
-0.193084 0.392935 -0.059899
-0.192965 0.371779 -0.033910
-0.193190 0.390979 -0.044671
-0.193023 0.383986 -0.035318
-0.193558 0.362283 -0.042717
-0.193163 0.362947 -0.083204
-0.193304 0.356356 -0.033329
-0.193131 0.342674 -0.058981
-0.192981 0.360408 -0.060875
-0.192927 0.397285 -0.079047
-0.193337 0.392799 -0.027270
0.158992 -0.145089 0.011793
0.162529 -0.100540 -0.012982
0.170119 -0.164723 -0.015628
0.161662 -0.128878 0.009515
0.163441 -0.090384 0.021208
0.164455 -0.138209 0.061374
0.160090 -0.132545 0.045885
0.187266 -0.125662 -0.010931
0.162816 -0.096809 0.045879
0.168816 -0.171757 0.042226
0.165001 -0.135159 0.022812
0.150409 -0.108850 0.026636
0.162215 -0.156382 0.055392
0.181164 -0.099987 0.008526
0.165196 -0.147902 0.042200
0.161894 -0.146644 -0.015722
0.160327 -0.118910 0.056198
0.166089 -0.176081 0.019342
0.164612 -0.139858 -0.002611
0.166622 -0.131226 -0.032811
0.162175 -0.163631 0.008200
0.159212 -0.113398 0.001531
0.147545 -0.143613 0.033297
0.164474 -0.116381 0.018580
0.160739 -0.124400 0.032510
0.188197 -0.149434 0.019563
0.162042 -0.155421 -0.033649
0.160728 -0.159631 0.029538
0.161309 -0.176216 -0.002048
0.146139 -0.152046 -0.003241
0.156917 -0.118481 -0.021494
0.186742 -0.115347 0.042472
0.038920 -0.317806 -0.183032
0.054431 -0.289366 -0.182892
0.070241 -0.337199 -0.183216
0.057525 -0.317414 -0.182869
0.043242 -0.282476 -0.182685
0.065253 -0.309321 -0.182315
0.048633 -0.324844 -0.182515
0.090972 -0.310407 -0.182946
0.062968 -0.280183 -0.182404
0.081158 -0.344582 -0.182818
0.075099 -0.307584 -0.182634
0.030746 -0.293586 -0.182477
0.037515 -0.330202 -0.182482
0.075906 -0.285622 -0.182984
0.077839 -0.328507 -0.182569
0.041392 -0.341290 -0.182965
0.048875 -0.310801 -0.182757
0.069304 -0.352362 -0.183142
0.069425 -0.320755 -0.183145
0.081386 -0.317744 -0.182992
0.061536 -0.329164 -0.182823
0.044749 -0.298465 -0.182847
0.026453 -0.319155 -0.182593
0.067117 -0.296439 -0.182831
0.057119 -0.302526 -0.182681
0.089233 -0.330820 -0.183116
0.052200 -0.336112 -0.182971
0.060082 -0.343538 -0.182817
0.050824 -0.351866 -0.183128
0.027956 -0.339680 -0.182807
0.034766 -0.306797 -0.182670
0.083777 -0.297307 -0.182674
0.061684 -0.355199 -0.180814
0.078386 -0.326483 -0.180639
0.096536 -0.374697 -0.180831
0.082133 -0.355315 -0.180561
0.065434 -0.319972 -0.180448
0.090595 -0.346804 -0.180175
0.071839 -0.362452 -0.180335
0.119486 -0.347983 -0.180556
0.088541 -0.317459 -0.180264
0.108039 -0.381848 -0.180581
0.101802 -0.345371 -0.180407
0.051068 -0.331142 -0.180339
0.059168 -0.367730 -0.180369
0.103109 -0.322613 -0.180738
0.104404 -0.366099 -0.180329
0.064212 -0.378295 -0.180682
0.072838 -0.348385 -0.180598
0.095134 -0.388772 -0.180859
0.095525 -0.358313 -0.180826
0.108940 -0.355484 -0.180614
0.087054 -0.366838 -0.180560
0.067877 -0.336084 -0.180662
0.047532 -0.357000 -0.180426
0.093284 -0.333596 -0.180588
0.081902 -0.339596 -0.180514
0.117161 -0.368743 -0.180759
0.076339 -0.373450 -0.180681
0.084907 -0.380785 -0.180582
0.074288 -0.388108 -0.180864
0.048542 -0.377262 -0.180602
0.056453 -0.344439 -0.180392
0.111379 -0.334745 -0.180490
0.159187 -0.295002 -0.074288
0.160903 -0.247790 -0.097489
0.165716 -0.312728 -0.100868
0.161396 -0.276931 -0.076799
0.161592 -0.237937 -0.064109
0.162844 -0.287448 -0.021355
0.160235 -0.280519 -0.037821
0.180247 -0.273492 -0.097635
0.161381 -0.245246 -0.037493
0.165493 -0.320109 -0.041921
0.163020 -0.283667 -0.063628
0.154530 -0.255831 -0.056137
0.161324 -0.306867 -0.027070
0.174317 -0.249631 -0.076417
0.163549 -0.296861 -0.040083
0.160925 -0.294821 -0.101596
0.160511 -0.267821 -0.026285
0.164109 -0.324050 -0.064678
0.163325 -0.286518 -0.088592
0.163714 -0.279794 -0.117414
0.161553 -0.312986 -0.075485
0.159284 -0.261838 -0.085514
0.153775 -0.293023 -0.052379
0.162881 -0.265131 -0.066115
0.160788 -0.273888 -0.052654
0.190367 -0.296012 -0.065878
0.161373 -0.303230 -0.118063
0.160807 -0.307656 -0.054363
0.161139 -0.324543 -0.087224
0.152275 -0.301701 -0.089207
0.158614 -0.264460 -0.109126
0.179345 -0.263249 -0.042800
-0.193564 0.211392 -0.132630
