-0.068187 0.076787 -0.038963
-0.068107 0.116027 -0.028508
-0.068235 0.065118 0.008255
-0.068437 0.069430 -0.008557
-0.068504 0.078626 -0.056902
-0.068309 0.107776 -0.006842
-0.068520 0.030638 -0.009412
-0.068471 0.068110 -0.030170
-0.069728 0.099791 -0.022066
-0.068131 0.043300 0.003894
-0.068240 0.101982 -0.038199
-0.068198 0.053889 -0.006510
-0.068329 0.057519 -0.057412
-0.067761 0.083253 0.001952
-0.068616 0.025632 -0.026891
-0.068163 0.067024 -0.048789
-0.068200 0.069348 -0.069701
-0.068474 0.038481 -0.036014
-0.068278 0.090104 -0.048329
-0.069754 0.059529 -0.019358
-0.068429 0.086974 -0.030010
-0.068076 0.077095 -0.020802
-0.068706 0.050357 -0.028710
-0.068261 0.049176 -0.069623
-0.068613 0.042077 -0.018453
-0.068216 0.027395 -0.045370
-0.069821 0.047668 -0.047043
-0.068108 0.091189 -0.065540
-0.068570 0.090346 -0.012184
-0.029909 -0.269792 -0.123550
-0.008186 -0.238389 -0.123465
0.022059 -0.286101 -0.123583
-0.001268 -0.271327 -0.123393
-0.027722 -0.222829 -0.123303
0.010268 -0.262254 -0.122902
-0.017313 -0.277168 -0.123134
0.049946 -0.263636 -0.123354
0.008388 -0.222658 -0.123353
0.037268 -0.291929 -0.123383
0.026551 -0.261340 -0.123370
-0.051121 -0.244668 -0.123373
-0.039240 -0.281648 -0.123035
0.029034 -0.232458 -0.123717
0.030549 -0.278828 -0.122997
-0.028259 -0.290622 -0.123681
-0.013227 -0.264570 -0.123330
0.016915 -0.297287 -0.123823
0.018473 -0.273211 -0.123659
0.038824 -0.269967 -0.123443
0.008274 -0.279433 -0.123445
-0.022450 -0.251136 -0.123605
-0.053242 -0.271548 -0.123079
0.015915 -0.247307 -0.123258
-0.000381 -0.254142 -0.123438
0.049398 -0.282145 -0.123296
-0.008869 -0.284784 -0.123367
0.002674 -0.291137 -0.123221
-0.014420 -0.297209 -0.123971
-0.056839 -0.289244 -0.123789
-0.039428 -0.259932 -0.123513
0.039242 -0.250862 -0.123826
-0.066102 0.095329 -0.001246
-0.066668 0.159001 -0.021904
-0.066063 0.064488 -0.029760
-0.065962 0.118165 -0.001856
-0.065797 0.169909 0.011058
-0.066482 0.104210 0.069946
-0.066186 0.107364 0.043242
-0.066548 0.121041 -0.027608
-0.066388 0.158891 0.048230
-0.066607 0.056999 0.042424
-0.066705 0.106659 0.013238
-0.065605 0.149648 0.023931
-0.065999 0.074758 0.062044
-0.066417 0.151291 -0.001090
-0.066309 0.087620 0.047739
-0.065943 0.093179 -0.029309
-0.065456 0.125350 0.058613
-0.066342 0.049350 0.016914
-0.066093 0.104843 -0.015699
-0.066234 0.107943 -0.044571
-0.066162 0.067591 0.003209
-0.065840 0.135505 -0.012066
-0.065873 0.095914 0.030071
-0.066560 0.131937 0.011312
-0.066003 0.119144 0.026738
-0.066991 0.082802 0.012926
-0.065925 0.080657 -0.045511
-0.066409 0.071246 0.027517
-0.065952 0.052623 -0.009365
-0.065543 0.078375 -0.013348
-0.065547 0.138178 -0.038079
-0.066653 0.135930 0.037573
-0.053403 0.028352 0.038811
0.017397 0.028344 -0.004545
0.055506 0.029218 -0.007892
-0.008101 0.028250 0.006659
-0.036392 0.028314 0.019897
0.001414 0.028100 0.104795
-0.006606 0.028186 0.067398
0.063371 0.029268 0.010090
0.034380 0.028050 0.097454
0.061149 0.028774 0.088710
0.026172 0.028205 0.059783
-0.062083 0.028501 0.061733
-0.046816 0.028504 0.095449
0.056138 0.028825 0.026342
0.046373 0.028656 0.074492
-0.026555 0.028855 -0.011685
-0.021995 0.028470 0.087434
0.047446 0.028814 0.049895
0.036916 0.028267 0.012564
0.039973 0.028934 -0.023786
0.028389 0.028445 0.036315
-0.029341 0.028201 0.052057
-0.040967 0.028157 0.070443
0.010985 0.028048 0.021391
0.013180 0.027957 0.079987
0.063166 0.029197 0.041748
-0.001505 0.028515 -0.028040
0.006163 0.028314 0.047289
-0.014620 0.028244 0.033952
-0.070516 0.028496 0.024432
-0.057392 0.028417 0.001435
0.062046 0.028979 0.063684
-0.052415 0.027898 -0.016500
-0.001855 0.027171 -0.085614
0.034347 0.028268 -0.088851
-0.025238 0.027199 -0.068200
-0.040523 0.027123 -0.047510
-0.023235 0.027945 0.076792
-0.021899 0.027146 0.025194
0.055835 0.027698 -0.063788
0.009165 0.026798 0.065321
0.040635 0.028142 0.055136
0.002814 0.026806 0.013517
-0.059678 0.027004 0.013147
-0.058417 0.027917 0.062024
0.038681 0.027244 -0.036498
0.022210 0.028084 0.034325
-0.038198 0.028088 -0.098143
-0.034719 0.027073 0.051863
0.028357 0.028233 0.000015
0.017183 0.027079 -0.057886
0.013500 0.027563 -0.113277
0.009370 0.028072 -0.021102
-0.036025 0.026766 0.002798
-0.044771 0.027464 0.030108
-0.009075 0.026865 -0.044605
-0.004892 0.026608 0.043031
0.057258 0.028016 -0.012180
-0.019806 0.027445 -0.121298
-0.011198 0.027503 -0.006775
-0.025963 0.027604 -0.025085
-0.060539 0.027625 -0.045448
-0.055599 0.027631 -0.075512
0.049179 0.027326 0.021384
-0.009839 0.256191 0.134298
0.021331 0.283806 0.134326
0.052817 0.229637 0.134555
0.022135 0.255270 0.134626
-0.007708 0.287675 0.135537
0.035922 0.265821 0.134694
0.011032 0.245130 0.134902
0.066486 0.264188 0.133323
0.041660 0.292753 0.134791
0.061674 0.217810 0.134245
0.051909 0.264417 0.134517
-0.033955 0.280145 0.134931
-0.018233 0.240137 0.134747
0.058718 0.286624 0.133907
0.057199 0.242947 0.135001
-0.005534 0.224024 0.135258
0.006257 0.262917 0.134773
0.048746 0.207254 0.134201
0.044138 0.250464 0.134331
0.061757 0.254247 0.134053
0.036299 0.241844 0.135230
0.000888 0.276721 0.134871
-0.034036 0.251910 0.135018
0.041108 0.279577 0.134068
0.025705 0.274041 0.134692
0.064324 0.235733 0.133206
0.017740 0.233379 0.135012
0.028303 0.220764 0.135010
0.009035 0.210335 0.134469
-0.029988 0.218655 0.134810
-0.021743 0.268039 0.134610
0.063934 0.275165 0.134408
-0.069644 -0.070892 -0.082055
-0.066318 -0.043743 -0.111589
-0.062164 -0.074176 -0.117237
-0.066603 -0.067720 -0.092493
-0.067495 -0.026067 -0.085377
-0.065083 -0.067328 0.012596
-0.067569 -0.066263 -0.040737
-0.058764 -0.071364 -0.106473
-0.068439 -0.054354 -0.035145
-0.060200 -0.072696 -0.029813
-0.065696 -0.068417 -0.061652
-0.070063 -0.064548 -0.057212
-0.068338 -0.072334 -0.007371
-0.064195 -0.057926 -0.094140
-0.063714 -0.069094 -0.031408
-0.066985 -0.071458 -0.124068
-0.065408 -0.067521 -0.017843
-0.060884 -0.073816 -0.066149
-0.065044 -0.068932 -0.099255
-0.063221 -0.068652 -0.136241
-0.063346 -0.072829 -0.079237
-0.068387 -0.065439 -0.075345
-0.069468 -0.071619 -0.040861
-0.066443 -0.067577 -0.079532
-0.066038 -0.068613 -0.045967
-0.056405 -0.071391 -0.073554
-0.065913 -0.071655 -0.151064
-0.066812 -0.072303 -0.063053
-0.065812 -0.075519 -0.090954
-0.070659 -0.074184 -0.098065
-0.068848 -0.067567 -0.114875
-0.062090 -0.066749 -0.047339
-0.064083 -0.256876 -0.206158
-0.064357 -0.206572 -0.223367
-0.064002 -0.274704 -0.235077
-0.063777 -0.238258 -0.205202
-0.063512 -0.198929 -0.190284
-0.064404 -0.251231 -0.139988
-0.064237 -0.243775 -0.160995
-0.064206 -0.237686 -0.232312
-0.063930 -0.209105 -0.159820
-0.064179 -0.278436 -0.165726
-0.064520 -0.248134 -0.192550
-0.063338 -0.214250 -0.180967
-0.063800 -0.270533 -0.145061
-0.064150 -0.213504 -0.203927
-0.064117 -0.260562 -0.158510
-0.064117 -0.255656 -0.235859
-0.063403 -0.231758 -0.147868
-0.064260 -0.279520 -0.188400
-0.063899 -0.248450 -0.219445
-0.063764 -0.244597 -0.251564
-0.064037 -0.273874 -0.201134
-0.064035 -0.225955 -0.217727
-0.063378 -0.253155 -0.175445
-0.064306 -0.228536 -0.192518
-0.063978 -0.238575 -0.180365
-0.064785 -0.263297 -0.191507
-0.063919 -0.265002 -0.253769
-0.064120 -0.268477 -0.177563
-0.063709 -0.279871 -0.214236
-0.063301 -0.265978 -0.220597
-0.063513 -0.221525 -0.243487
-0.064456 -0.225535 -0.167698
-0.000425 0.208293 0.128283
0.033096 0.260868 0.128711
0.060143 0.144509 0.130149
0.031807 0.214624 0.128558
0.006231 0.269794 0.130599
0.048246 0.226310 0.131870
0.027774 0.190317 0.128480
0.062621 0.228949 0.130606
0.052995 0.273551 0.131137
0.063260 0.121207 0.132452
0.058022 0.217400 0.131739
-0.026976 0.255951 0.128159
0.002208 0.176581 0.128180
0.063696 0.261909 0.131179
0.060392 0.183033 0.132371
0.005901 0.156520 0.128573
0.020778 0.228026 0.128966
0.057431 0.083192 0.128340
0.049668 0.201443 0.129714
0.063259 0.197165 0.130188
0.047153 0.169346 0.130342
0.013817 0.248741 0.129296
-0.025806 0.193322 0.128798
0.048848 0.252280 0.128547
0.040165 0.241607 0.130452
0.061909 0.166285 0.135210
0.031399 0.153981 0.129140
0.038305 0.130265 0.128718
0.017480 0.103057 0.128600
-0.018192 0.135839 0.128273
-0.014120 0.234272 0.129438
0.064648 0.246298 0.137326
-0.067120 0.127128 -0.020259
-0.067032 0.166586 -0.037083
-0.066956 0.105743 -0.042915
-0.066629 0.143440 -0.020862
-0.066745 0.172469 -0.010798
-0.066741 0.132766 0.037704
-0.066864 0.137758 0.015202
-0.066989 0.144798 -0.041325
-0.066820 0.167507 0.018421
-0.067065 0.098881 0.015426
-0.067033 0.135899 -0.009232
-0.066898 0.161880 -0.000926
-0.066619 0.112623 0.031430
-0.066821 0.162588 -0.020798
-0.066719 0.122821 0.018514
-0.066992 0.127155 -0.042361
-0.066325 0.148013 0.027869
-0.067122 0.093313 -0.005602
-0.066710 0.134775 -0.031628
-0.066672 0.138740 -0.055525
-0.066834 0.107315 -0.016949
-0.066893 0.153013 -0.029940
-0.067185 0.128907 0.003952
-0.066797 0.151560 -0.010681
-0.066578 0.143494 0.001462
-0.067261 0.119631 -0.008645
-0.066862 0.119397 -0.055835
-0.066979 0.111108 0.002970
-0.066747 0.095895 -0.027412
-0.066954 0.117204 -0.029950
-0.066706 0.156350 -0.050675
-0.067058 0.153711 0.010487
-0.067933 -0.306775 -0.197234
-0.039317 -0.307803 -0.247792
-0.014776 -0.307735 -0.251459
-0.053854 -0.307528 -0.236534
-0.062226 -0.306015 -0.221286
-0.051983 -0.307463 -0.127544
-0.051240 -0.307807 -0.168168
0.001719 -0.307445 -0.231749
-0.032706 -0.307308 -0.136341
-0.009302 -0.308162 -0.144955
-0.036604 -0.308012 -0.176686
-0.071497 -0.305467 -0.177776
-0.070565 -0.306848 -0.141310
-0.011511 -0.307343 -0.212585
-0.022512 -0.308007 -0.162043
-0.061666 -0.307244 -0.257391
-0.057358 -0.307568 -0.148078
-0.017922 -0.308132 -0.186191
-0.026361 -0.308155 -0.228841
-0.031105 -0.307517 -0.269647
-0.030388 -0.307766 -0.201926
-0.059503 -0.307445 -0.183689
-0.064958 -0.307019 -0.162924
-0.042979 -0.307647 -0.219379
-0.040374 -0.308045 -0.153265
0.006141 -0.307611 -0.195569
-0.051508 -0.307580 -0.275473
-0.044865 -0.308104 -0.192361
-0.054615 -0.307774 -0.205837
-0.071577 -0.306441 -0.217556
-0.070263 -0.305881 -0.240268
-0.001061 -0.307602 -0.170551
-0.067070 -0.046666 -0.133867
-0.066922 -0.003988 -0.150629
-0.066689 -0.065995 -0.158747
-0.066419 -0.031387 -0.132398
-0.066323 0.002875 -0.122297
-0.066678 -0.041231 -0.086445
-0.066845 -0.037214 -0.099873
-0.066947 -0.029701 -0.155733
-0.066760 -0.004095 -0.100913
-0.066795 -0.070560 -0.103209
-0.066796 -0.038788 -0.122715
-0.066391 -0.010208 -0.114770
-0.066585 -0.060373 -0.089168
-0.066855 -0.008999 -0.133291
-0.066581 -0.051331 -0.098363
-0.066806 -0.047692 -0.160007
-0.066333 -0.025772 -0.091439
-0.067201 -0.074811 -0.119863
-0.066756 -0.039979 -0.145137
-0.066421 -0.036807 -0.174201
-0.066910 -0.064140 -0.129483
-0.066772 -0.019926 -0.144321
-0.066795 -0.045194 -0.110861
-0.066637 -0.022406 -0.122764
-0.066636 -0.030816 -0.114225
-0.067239 -0.053775 -0.122240
-0.066726 -0.055432 -0.178093
-0.066815 -0.061271 -0.110647
-0.066589 -0.073405 -0.140243
-0.066556 -0.056398 -0.145529
-0.066873 -0.016892 -0.166297
-0.067260 -0.019400 -0.104878
-0.056465 0.164922 0.035722
-0.024692 0.165000 0.007042
-0.004967 0.164940 0.005177
-0.038255 0.164784 0.012270
-0.050729 0.164959 0.020639
-0.035956 0.164931 0.082490
-0.037249 0.164712 0.054397
0.005919 0.165283 0.017492
-0.018185 0.165003 0.076934
-0.001267 0.164871 0.070469
-0.022661 0.164817 0.048412
-0.064864 0.164665 0.048583
-0.058964 0.164723 0.071835
-0.003602 0.165238 0.028652
-0.011706 0.164943 0.059038
-0.048760 0.164895 0.000526
-0.044139 0.164810 0.067770
-0.008194 0.164825 0.043582
-0.013869 0.164845 0.018195
-0.016631 0.164822 -0.006688
-0.018236 0.164870 0.033386
-0.045226 0.164935 0.043336
-0.052904 0.164769 0.055601
-0.028419 0.164836 0.022690
-0.027407 0.164762 0.064075
0.008670 0.165070 0.037855
-0.035049 0.164830 -0.007452
-0.031082 0.164786 0.038623
-0.041174 0.164728 0.029395
-0.066212 0.164526 0.026951
-0.061481 0.164785 0.010517
0.003625 0.165157 0.053388
-0.067191 0.238103 0.012158
-0.067075 0.277954 -0.000859
-0.066998 0.220653 -0.005770
-0.066696 0.254170 0.013035
-0.066684 0.283322 0.022878
-0.066815 0.243165 0.056603
-0.067135 0.249557 0.042394
-0.067204 0.254897 -0.005414
-0.066743 0.277141 0.043464
-0.067151 0.215449 0.039899
-0.067016 0.246328 0.020339
-0.066759 0.272450 0.029102
-0.066740 0.225499 0.052772
-0.066953 0.273073 0.013225
-0.066864 0.235141 0.043873
-0.067221 0.239027 -0.005154
-0.066349 0.258897 0.051941
-0.067261 0.212590 0.023907
-0.066865 0.245951 0.003225
-0.066675 0.250779 -0.017392
-0.067120 0.221169 0.015629
-0.066952 0.263007 0.003536
-0.066989 0.241322 0.031333
-0.066944 0.261818 0.021534
-0.066799 0.253682 0.029523
-0.067444 0.232122 0.022693
-0.067032 0.232540 -0.016816
-0.067041 0.226118 0.032399
-0.066931 0.212983 0.006304
-0.066877 0.230218 0.004641
-0.066789 0.267682 -0.013554
-0.067231 0.263802 0.038276
-0.064356 -0.193423 -0.142221
-0.064190 -0.118256 -0.175863
-0.063823 -0.233263 -0.173250
-0.063642 -0.169617 -0.141279
-0.063790 -0.102773 -0.137255
-0.060648 -0.180012 -0.123212
-0.063427 -0.188556 -0.124968
-0.064706 -0.161929 -0.165532
-0.063739 -0.116683 -0.125341
-0.061271 -0.243761 -0.126608
-0.064553 -0.182176 -0.132027
-0.063631 -0.134819 -0.128284
-0.063027 -0.217817 -0.124522
-0.063867 -0.127464 -0.140858
-0.061496 -0.202866 -0.124192
-0.063835 -0.196363 -0.181038
-0.063014 -0.159166 -0.124159
-0.063409 -0.263419 -0.129519
-0.063403 -0.181970 -0.159004
-0.063932 -0.178751 -0.206719
-0.063615 -0.227628 -0.135158
-0.063764 -0.143597 -0.149415
-0.064424 -0.196070 -0.127987
-0.063969 -0.154870 -0.132077
-0.063107 -0.170279 -0.127588
-0.062229 -0.208877 -0.129710
-0.063608 -0.215546 -0.204315
-0.063734 -0.230503 -0.127317
-0.063489 -0.249247 -0.145958
-0.062665 -0.214679 -0.155956
-0.063905 -0.145778 -0.189175
-0.061853 -0.145562 -0.124796
-0.037033 -0.078494 -0.076209
0.020564 -0.078577 -0.113564
0.059793 -0.077593 -0.115672
-0.002894 -0.078328 -0.104935
-0.027779 -0.079223 -0.094554
0.008139 -0.077574 -0.000568
-0.000756 -0.078596 -0.046106
0.066728 -0.076184 -0.099514
0.039714 -0.078527 -0.013525
0.064739 -0.077469 -0.021775
0.030069 -0.077812 -0.055963
-0.044516 -0.078507 -0.056227
-0.037322 -0.078116 -0.016190
0.060274 -0.077401 -0.086921
0.051158 -0.077142 -0.038969
-0.021956 -0.078561 -0.119169
-0.012683 -0.078283 -0.023503
0.051842 -0.077970 -0.066073
0.041187 -0.077804 -0.100048
0.044509 -0.077710 -0.127608
0.033440 -0.078133 -0.079415
-0.019265 -0.078129 -0.064898
-0.029879 -0.078237 -0.044447
0.015835 -0.078192 -0.092485
0.018468 -0.077883 -0.034156
0.064061 -0.077431 -0.073813
0.001567 -0.079800 -0.128190
0.010639 -0.079325 -0.068867
-0.008925 -0.080057 -0.084213
-0.048145 -0.078646 -0.088576
-0.042835 -0.078375 -0.108431
0.065836 -0.076682 -0.050553
-0.069939 0.062701 0.008949
-0.010003 0.061016 -0.083856
0.036181 0.063413 -0.090708
-0.039279 0.061429 -0.061131
-0.053878 0.061766 -0.029973
-0.032627 0.061266 0.121601
-0.031669 0.061228 0.065031
0.051254 0.063324 -0.055987
0.010625 0.061375 0.109272
0.043873 0.062595 0.097475
-0.004369 0.060207 0.047182
-0.070799 0.061859 0.046325
-0.076168 0.062770 0.104255
0.039642 0.061925 -0.019755
0.024402 0.061728 0.071727
-0.053151 0.062294 -0.100051
-0.049481 0.061709 0.097308
0.030143 0.062966 0.029662
0.016328 0.061355 -0.047612
0.009108 0.061984 -0.119536
0.008668 0.061935 0.001348
-0.050974 0.060869 0.034020
-0.061590 0.061949 0.068796
-0.017645 0.060751 -0.031274
-0.009306 0.060233 0.084348
0.049908 0.063402 0.012911
-0.035047 0.061921 -0.128807
-0.017589 0.061510 0.021757
-0.037741 0.062174 0.000091
-0.069655 0.063171 -0.032138
-0.068054 0.062632 -0.067901
0.049199 0.062005 0.056232
-0.031171 -0.234149 -0.123162
-0.009298 -0.191218 -0.123039
0.018536 -0.263995 -0.123630
-0.003941 -0.234241 -0.123173
-0.028455 -0.180317 -0.122646
0.007135 -0.222031 -0.122591
-0.017481 -0.245557 -0.122938
0.046650 -0.223127 -0.123436
0.006721 -0.178074 -0.122520
0.033236 -0.275142 -0.123465
0.023069 -0.222724 -0.122923
-0.049161 -0.198082 -0.122546
-0.038845 -0.252964 -0.122962
0.026327 -0.187766 -0.123102
0.027194 -0.249863 -0.122823
-0.028983 -0.267691 -0.123578
-0.015875 -0.223963 -0.122900
0.015270 -0.284726 -0.124050
0.015079 -0.238725 -0.123377
0.034303 -0.236006 -0.123634
0.005189 -0.251100 -0.123242
-0.023474 -0.205918 -0.122815
-0.053672 -0.239921 -0.122445
0.012546 -0.202529 -0.122950
-0.003066 -0.211352 -0.122831
0.044873 -0.255944 -0.123736
-0.010702 -0.261047 -0.123216
0.000232 -0.272614 -0.123119
-0.016134 -0.282335 -0.124013
-0.053072 -0.271534 -0.123500
-0.040485 -0.218157 -0.123010
0.036039 -0.206133 -0.123229
-0.012454 0.164669 0.079651
0.033526 0.165008 0.049597
0.056656 0.164645 0.046984
0.017784 0.164760 0.056340
-0.001964 0.164834 0.065126
0.025648 0.164875 0.125963
0.018243 0.164749 0.099037
0.062526 0.164270 0.060283
0.045466 0.164997 0.120563
0.062032 0.164277 0.114077
0.039308 0.164996 0.092811
-0.024861 0.164671 0.095862
-0.011023 0.164772 0.117762
0.057675 0.164940 0.071226
0.051919 0.164972 0.103580
0.004236 0.164936 0.043987
0.009518 0.164969 0.113573
0.053315 0.164736 0.087425
0.046356 0.164887 0.060940
0.047760 0.165110 0.035029
0.041738 0.164922 0.077090
0.004397 0.164908 0.087877
-0.005700 0.164805 0.100471
0.030424 0.164843 0.066746
0.031525 0.164866 0.108347
0.064268 0.163775 0.081354
0.022752 0.164928 0.034003
0.026993 0.164848 0.084125
0.012871 0.164770 0.074510
-0.027662 0.164393 0.072049
-0.017055 0.164651 0.053673
0.063231 0.164255 0.096929
-0.012780 -0.308470 -0.166088
0.035981 -0.308597 -0.220161
0.058113 -0.307921 -0.226081
0.018204 -0.308599 -0.207315
-0.000791 -0.308524 -0.191912
0.025375 -0.308763 -0.094399
0.019636 -0.308775 -0.134189
0.064366 -0.307349 -0.203310
0.046680 -0.308538 -0.102330
0.062352 -0.308233 -0.111801
0.039621 -0.308602 -0.143884
-0.024251 -0.308435 -0.141829
-0.011432 -0.308389 -0.105216
0.059717 -0.307656 -0.183068
0.053268 -0.308396 -0.127457
0.004762 -0.308461 -0.231393
0.011288 -0.308526 -0.112767
0.055669 -0.308318 -0.151984
0.048615 -0.308595 -0.199296
0.048029 -0.308110 -0.247546
0.044799 -0.308716 -0.170327
0.005110 -0.308572 -0.151463
-0.004557 -0.308593 -0.130561
0.032144 -0.308524 -0.188259
0.034116 -0.308568 -0.120086
0.064422 -0.307732 -0.163448
0.022969 -0.308564 -0.253704
0.028431 -0.308939 -0.159272
0.014118 -0.308708 -0.174420
-0.026850 -0.308476 -0.186730
-0.017454 -0.308411 -0.214759
0.065496 -0.307528 -0.136711
-0.061468 -0.092682 -0.124136
-0.051454 -0.053135 -0.124728
-0.037662 -0.121684 -0.124001
-0.049121 -0.092063 -0.123587
-0.058967 -0.034225 -0.123695
-0.042331 -0.081018 -0.123554
-0.052892 -0.103391 -0.123283
-0.017786 -0.084328 -0.124012
-0.043570 -0.036763 -0.124116
-0.028016 -0.133825 -0.123907
-0.033067 -0.085083 -0.123653
-0.065169 -0.057197 -0.123737
-0.061932 -0.109668 -0.123646
-0.031038 -0.050310 -0.124163
-0.032120 -0.107249 -0.123477
-0.060066 -0.122659 -0.124613
-0.055750 -0.083821 -0.123908
-0.039579 -0.149219 -0.123767
-0.040081 -0.097380 -0.123842
-0.027000 -0.095806 -0.125119
-0.044945 -0.109748 -0.123209
-0.058345 -0.066077 -0.123771
-0.070298 -0.098613 -0.123662
-0.039910 -0.063654 -0.123501
-0.048717 -0.071850 -0.123685
-0.019588 -0.113756 -0.123678
-0.051068 -0.117822 -0.126417
-0.047057 -0.130669 -0.123400
-0.055359 -0.144206 -0.123916
-0.067027 -0.128332 -0.124667
-0.064991 -0.077004 -0.125421
-0.025862 -0.070082 -0.124055
-0.071263 0.032346 -0.032294
-0.070217 0.169538 -0.086953
-0.064918 -0.066420 -0.089517
-0.070148 0.084693 -0.026831
-0.069623 0.184384 -0.006821
-0.066972 0.061551 0.114357
-0.070896 0.053193 0.062558
-0.066886 0.095528 -0.082392
-0.070064 0.169192 0.076390
-0.065131 -0.087575 0.062295
-0.068195 0.057837 0.004270
-0.070765 0.149627 0.022716
-0.068402 -0.031435 0.098480
-0.069171 0.156750 -0.032940
-0.066144 0.006740 0.076227
-0.068039 0.018546 -0.091437
-0.069806 0.104486 0.095762
-0.065179 -0.113612 0.003898
-0.068518 0.058300 -0.061618
-0.068040 0.056857 -0.125585
-0.066542 -0.050838 -0.022234
-0.072053 0.129266 -0.052736
-0.069810 0.022282 0.030940
-0.069361 0.118128 -0.002429
-0.068547 0.089298 0.030477
-0.067159 -0.004487 -0.007147
-0.067888 -0.025330 -0.126171
-0.069016 -0.053478 0.029606
-0.067269 -0.099574 -0.049852
-0.068735 -0.017374 -0.059578
-0.070129 0.124261 -0.111173
-0.067128 0.130186 0.051511
-0.078352 0.040287 -0.006191
-0.018170 0.038839 -0.066037
0.027348 0.040068 -0.065691
-0.047623 0.038825 -0.052755
-0.064352 0.039270 -0.032293
-0.042232 0.039741 0.080755
-0.042277 0.038894 0.032809
0.048391 0.040920 -0.043398
-0.001425 0.039079 0.069764
0.034629 0.040845 0.060781
-0.010705 0.038504 0.021017
-0.080531 0.039779 0.020371
-0.082181 0.039698 0.065447
0.032501 0.039985 -0.021926
0.014186 0.040128 0.040229
-0.062618 0.039243 -0.074793
-0.058242 0.039480 0.058617
0.020244 0.040103 0.006810
0.005711 0.039368 -0.041518
0.001336 0.039351 -0.087266
-0.004341 0.039529 -0.011076
-0.061297 0.038768 0.010709
-0.070146 0.039531 0.035605
-0.028662 0.038825 -0.032493
-0.021428 0.038673 0.048085
0.050737 0.041113 -0.001817
-0.041190 0.038214 -0.090877
-0.029743 0.038807 0.004209
-0.048342 0.038691 -0.012551
-0.080607 0.039906 -0.028389
-0.078280 0.039847 -0.054929
0.042330 0.040217 0.027572
-0.068269 0.021435 -0.085448
-0.068198 0.069843 -0.097729
-0.068568 -0.001540 -0.102939
-0.067779 0.038704 -0.084944
-0.067635 0.078011 -0.076118
-0.067965 0.027956 -0.039208
-0.068042 0.031116 -0.055614
-0.068332 0.041028 -0.102222
-0.067883 0.069904 -0.054351
-0.068747 -0.007238 -0.056748
-0.068298 0.030617 -0.076660
-0.068023 0.061906 -0.069050
-0.068037 0.006124 -0.043794
-0.068085 0.064318 -0.084946
-0.068117 0.016030 -0.053273
-0.068163 0.019475 -0.102011
-0.067445 0.044837 -0.045905
-0.069079 -0.012837 -0.073333
-0.068138 0.029348 -0.094344
-0.068000 0.031230 -0.112750
-0.068502 0.001009 -0.082344
-0.067823 0.052182 -0.093939
-0.068430 0.022007 -0.066195
-0.068045 0.048871 -0.076698
-0.067801 0.039269 -0.067849
-0.068616 0.012709 -0.075400
-0.068270 0.010923 -0.112799
-0.068475 0.003635 -0.065372
-0.068325 -0.010782 -0.091077
-0.068232 0.009718 -0.092759
-0.067776 0.053355 -0.109404
-0.068421 0.052139 -0.059416
-0.064041 0.279238 0.032209
-0.064770 0.292692 -0.005019
-0.060598 0.277670 -0.032683
-0.064549 0.286912 0.028232
-0.062061 0.293814 0.040608
-0.064034 0.285618 0.178533
-0.065382 0.287674 0.109609
-0.048755 0.286570 -0.017143
-0.062168 0.293939 0.126780
-0.053543 0.277814 0.122188
-0.063096 0.286701 0.071287
-0.063317 0.290610 0.080325
-0.062477 0.275994 0.156036
-0.055638 0.292991 0.021997
-0.062206 0.283116 0.129260
-0.064473 0.278839 -0.047139
-0.065038 0.289284 0.140241
-0.055992 0.274875 0.073015
-0.062713 0.286108 0.005682
-0.063451 0.285256 -0.062620
-0.061687 0.277695 0.045948
-0.064980 0.293869 0.037636
-0.064552 0.278190 0.108396
-0.064366 0.291887 0.052722
-0.064157 0.287635 0.091376
-0.037050 0.280565 0.051838
-0.064673 0.280082 -0.079248
-0.064600 0.277946 0.074513
-0.061011 0.274382 0.020488
-0.063616 0.276131 -0.006424
-0.063978 0.288450 -0.027026
-0.051412 0.291505 0.095279
-0.066541 -0.298446 -0.257216
-0.066649 -0.266343 -0.278306
-0.064034 -0.307948 -0.295181
-0.066115 -0.286840 -0.252480
-0.065963 -0.260944 -0.240301
-0.066686 -0.294230 -0.166038
-0.066450 -0.288376 -0.195592
-0.066789 -0.287221 -0.289143
-0.066237 -0.267540 -0.195933
-0.064394 -0.309317 -0.201233
-0.066649 -0.292457 -0.234363
-0.066405 -0.270741 -0.223681
-0.065638 -0.305739 -0.173644
-0.065906 -0.269917 -0.256457
-0.066274 -0.299893 -0.189534
-0.066163 -0.297710 -0.300646
-0.066053 -0.281124 -0.178594
-0.063452 -0.308915 -0.231907
-0.066122 -0.292961 -0.271795
-0.066389 -0.289419 -0.315866
-0.065369 -0.307456 -0.249164
-0.066492 -0.277635 -0.268019
-0.066325 -0.296639 -0.211286
-0.066447 -0.278998 -0.238143
-0.066437 -0.286292 -0.220936
-0.065603 -0.302082 -0.239645
-0.065812 -0.303924 -0.323498
-0.065681 -0.304587 -0.220844
-0.063895 -0.309032 -0.267522
-0.066087 -0.304075 -0.279159
-0.066438 -0.276117 -0.300663
-0.066971 -0.277671 -0.207975
-0.043258 0.303025 0.128881
0.033718 0.313939 0.125395
0.069041 0.286945 0.129996
0.024446 0.306536 0.127896
-0.037060 0.311985 0.129306
0.045490 0.305761 0.149982
0.010462 0.302952 0.131861
0.067448 0.305952 0.130685
0.058167 0.312132 0.136072
0.072994 0.290409 0.137116
0.060695 0.308756 0.130659
-0.099190 0.307508 0.133877
-0.046776 0.298748 0.141528
0.068263 0.312824 0.128188
0.065623 0.302775 0.135877
-0.019680 0.294805 0.127808
0.003503 0.309903 0.142193
0.063263 0.277386 0.130295
0.054996 0.305670 0.127487
0.067666 0.302148 0.127195
0.051597 0.297495 0.129963
-0.011892 0.312224 0.129206
-0.073445 0.302918 0.135378
0.047293 0.313025 0.127744
0.039728 0.310837 0.132472
0.069649 0.293396 0.133343
0.025274 0.293624 0.124621
0.036603 0.289511 0.131969
0.000163 0.281809 0.132025
-0.100985 0.291224 0.131265
-0.070741 0.306014 0.126613
0.068425 0.305993 0.137558
-0.024003 -0.208185 -0.122842
0.004752 -0.126740 -0.122809
0.030608 -0.249617 -0.123121
0.005655 -0.207089 -0.122371
-0.016861 -0.089003 -0.122340
0.019431 -0.187830 -0.122294
-0.004942 -0.225476 -0.122641
0.052569 -0.192095 -0.122928
0.022524 -0.095104 -0.122766
0.041199 -0.263973 -0.122654
0.034645 -0.198112 -0.122469
-0.037642 -0.141172 -0.122816
-0.028110 -0.234871 -0.122867
0.041673 -0.126842 -0.122914
0.035577 -0.231170 -0.122296
-0.022545 -0.255525 -0.123179
-0.009930 -0.193353 -0.122646
0.025269 -0.272754 -0.123526
0.023288 -0.217540 -0.122564
0.044599 -0.213887 -0.123192
0.014994 -0.233333 -0.122538
-0.013351 -0.158222 -0.122710
-0.045187 -0.220522 -0.122066
0.024624 -0.151575 -0.122526
0.008932 -0.170911 -0.122992
0.048849 -0.241334 -0.122913
-0.000728 -0.245905 -0.122649
0.007575 -0.261372 -0.122510
-0.010795 -0.271596 -0.123306
-0.045153 -0.264316 -0.123378
-0.033113 -0.179641 -0.123003
0.046019 -0.168700 -0.123134
-0.033339 -0.138746 -0.123951
-0.013869 -0.101195 -0.125782
0.008490 -0.164401 -0.124790
-0.010712 -0.138877 -0.124073
-0.029860 -0.085091 -0.122829
-0.000023 -0.127492 -0.123752
-0.019914 -0.149439 -0.123583
0.034068 -0.129936 -0.123921
-0.002282 -0.083121 -0.123331
0.021621 -0.174203 -0.124559
0.013696 -0.127822 -0.123692
-0.046345 -0.105693 -0.123247
-0.036650 -0.155117 -0.123976
0.015693 -0.093322 -0.123769
0.016142 -0.151830 -0.123724
-0.030811 -0.167790 -0.125092
-0.021486 -0.130068 -0.123737
0.005111 -0.184541 -0.124837
0.004865 -0.142527 -0.124583
0.022535 -0.139569 -0.127294
-0.002805 -0.153394 -0.123679
-0.026989 -0.113202 -0.123489
-0.051577 -0.141529 -0.123356
0.003767 -0.109618 -0.123638
-0.010118 -0.117495 -0.123662
0.031973 -0.157249 -0.124296
-0.014543 -0.160788 -0.128505
-0.006965 -0.171664 -0.123806
-0.020765 -0.182301 -0.124721
-0.050549 -0.169036 -0.124427
-0.040443 -0.125696 -0.125930
0.024004 -0.113279 -0.124156
-0.042381 0.296721 0.059226
-0.014060 0.296817 0.030711
0.005137 0.296935 0.028430
-0.026743 0.296656 0.036398
-0.038400 0.296742 0.044330
-0.023195 0.296728 0.108200
-0.025321 0.296589 0.077488
0.018770 0.297011 0.039477
-0.006283 0.296884 0.101828
0.012870 0.296707 0.095937
-0.010858 0.296870 0.072262
-0.049951 0.296740 0.072040
-0.044906 0.296790 0.096859
0.008099 0.297053 0.051761
-0.000004 0.296731 0.083095
-0.036714 0.296760 0.024002
-0.031052 0.296716 0.091664
0.002708 0.296917 0.066929
-0.003333 0.296731 0.041593
-0.005884 0.296787 0.016126
-0.007590 0.296767 0.056783
-0.032609 0.296681 0.066796
-0.039076 0.296701 0.080045
-0.017058 0.296695 0.046295
-0.015780 0.296666 0.088173
0.023460 0.296845 0.061427
-0.023997 0.296788 0.014709
-0.019538 0.296721 0.062062
-0.029331 0.296658 0.052954
-0.051353 0.296759 0.049509
-0.048023 0.296693 0.033679
0.016126 0.296851 0.077019
0.055397 -0.308345 -0.176935
0.065722 -0.290648 -0.202594
0.063642 -0.307536 -0.214708
0.065945 -0.304822 -0.178748
0.066589 -0.284241 -0.162547
0.063740 -0.306569 -0.102791
0.064647 -0.305565 -0.138364
0.065415 -0.303882 -0.203725
0.065354 -0.289222 -0.129460
0.062714 -0.309101 -0.132462
0.065167 -0.300544 -0.160167
0.065826 -0.301121 -0.153765
0.059634 -0.308370 -0.115181
0.065595 -0.291965 -0.183286
0.064976 -0.303965 -0.129834
0.063107 -0.307874 -0.227649
0.066335 -0.302828 -0.120242
0.057463 -0.309206 -0.155065
0.064768 -0.306710 -0.192462
0.065485 -0.304057 -0.234960
0.063228 -0.308049 -0.173039
0.066045 -0.301777 -0.183380
0.058752 -0.308170 -0.140704
0.066029 -0.297870 -0.169066
0.065727 -0.305509 -0.149172
0.064228 -0.307079 -0.163821
0.063985 -0.307679 -0.252233
0.064488 -0.307157 -0.155370
0.061515 -0.308726 -0.187679
0.054120 -0.308719 -0.199521
0.066319 -0.304012 -0.211817
0.064895 -0.296547 -0.144542
-0.066649 0.253991 -0.027701
-0.066816 0.289648 -0.047681
-0.066510 0.235103 -0.055298
-0.066355 0.270666 -0.026435
-0.066202 0.292532 -0.014741
-0.066594 0.260314 0.038006
-0.066766 0.266799 0.015862
-0.067037 0.271226 -0.053595
-0.066489 0.288764 0.018135
-0.066650 0.228789 0.013080
-0.066799 0.263026 -0.013909
-0.065959 0.286788 -0.003525
-0.066260 0.240716 0.031787
-0.066830 0.285775 -0.027764
-0.066574 0.251328 0.018967
-0.066848 0.255268 -0.056642
-0.065941 0.274851 0.029287
-0.066681 0.224758 -0.010444
-0.066547 0.262711 -0.040568
-0.066454 0.269020 -0.072669
-0.066647 0.235327 -0.022711
-0.066512 0.278472 -0.038527
-0.066157 0.258193 0.002455
-0.066744 0.277799 -0.014552
-0.066489 0.270389 -0.001871
-0.067344 0.247882 -0.013132
-0.066596 0.248895 -0.073954
-0.066602 0.240939 0.000318
-0.066379 0.225522 -0.036236
-0.066141 0.245992 -0.040543
-0.066302 0.284621 -0.064933
-0.067105 0.279552 0.008824
0.059246 -0.287649 -0.181952
0.063593 -0.269936 -0.208503
0.063863 -0.287682 -0.225911
0.064697 -0.282752 -0.183072
0.063913 -0.261878 -0.169161
0.061014 -0.286130 -0.105040
0.063057 -0.283000 -0.135757
0.064153 -0.284216 -0.214442
0.062375 -0.267234 -0.128200
0.063537 -0.289674 -0.130756
0.063066 -0.282232 -0.160026
0.060301 -0.276853 -0.152757
0.060169 -0.288606 -0.115092
0.063504 -0.271366 -0.186128
0.063155 -0.285123 -0.127885
0.063723 -0.287024 -0.239647
0.063244 -0.280087 -0.119075
0.061437 -0.289640 -0.157079
0.064121 -0.285290 -0.199655
0.064432 -0.283175 -0.251004
0.063538 -0.288495 -0.174800
0.064191 -0.278395 -0.186312
0.058319 -0.287602 -0.138879
0.063930 -0.277558 -0.169023
0.063992 -0.284274 -0.147283
0.063930 -0.287297 -0.166817
0.064294 -0.287048 -0.267280
0.063608 -0.287241 -0.154628
0.063200 -0.288729 -0.191905
0.049741 -0.287642 -0.208498
0.064760 -0.280327 -0.225513
0.062823 -0.277072 -0.142257
-0.067485 0.111338 -0.098464
-0.067577 0.160825 -0.113355
-0.067247 0.088885 -0.119914
-0.067054 0.130280 -0.097606
-0.067076 0.168380 -0.086587
-0.067301 0.118145 -0.047554
-0.067408 0.122914 -0.065031
-0.067405 0.132273 -0.118109
-0.067376 0.160793 -0.064134
-0.067333 0.082568 -0.067035
-0.067340 0.121156 -0.088805
-0.067347 0.153460 -0.079702
-0.066954 0.095616 -0.051840
-0.067285 0.154967 -0.097588
-0.067131 0.106520 -0.062598
-0.067443 0.111356 -0.119300
-0.066764 0.136270 -0.054308
-0.067578 0.077401 -0.085327
-0.067105 0.120004 -0.108821
-0.067125 0.123177 -0.133187
-0.067416 0.090412 -0.094962
-0.067316 0.142841 -0.109396
-0.067469 0.113309 -0.076828
-0.067383 0.140385 -0.088034
-0.067101 0.130385 -0.079222
-0.067695 0.103106 -0.086861
-0.067267 0.102414 -0.133722
-0.067481 0.094708 -0.075855
-0.067117 0.079259 -0.105230
-0.067335 0.100525 -0.107536
-0.067170 0.145500 -0.128330
-0.067681 0.143550 -0.069369
-0.044506 0.047484 -0.013680
0.028439 0.047575 -0.059693
0.061603 0.045822 -0.063521
0.005687 0.047424 -0.045417
-0.025427 0.047652 -0.032079
0.020271 0.047225 0.057817
0.006191 0.047469 0.015110
0.062679 0.042938 -0.044167
0.046826 0.047123 0.044672
0.065134 0.044032 0.032920
0.040099 0.047542 0.005655
-0.052440 0.047035 0.010434
-0.035287 0.047200 0.046680
0.062015 0.046234 -0.028806
0.056634 0.047250 0.019932
-0.013464 0.047700 -0.066554
-0.007280 0.047577 0.038020
0.056160 0.046870 -0.003705
0.046879 0.047367 -0.042900
0.052023 0.047751 -0.081493
0.041357 0.047527 -0.017751
-0.017620 0.047587 -0.000194
-0.028722 0.047344 0.019193
0.025829 0.047374 -0.031325
0.027307 0.047359 0.026736
0.062142 0.041412 -0.014082
0.011671 0.047417 -0.089194
0.020411 0.047403 -0.005614
-0.002203 0.047671 -0.017396
-0.059875 0.046872 -0.028130
-0.048327 0.047217 -0.054090
0.064264 0.042889 0.008024
-0.034447 -0.076383 -0.076276
0.040548 -0.076905 -0.114420
0.063087 -0.078557 -0.119657
0.020713 -0.077044 -0.103351
-0.012163 -0.076452 -0.093924
0.036561 -0.076707 -0.002736
0.019311 -0.077015 -0.048575
0.063531 -0.079387 -0.103838
0.055013 -0.076731 -0.016450
0.066371 -0.079278 -0.029070
0.050592 -0.076889 -0.056265
-0.047643 -0.076534 -0.051772
-0.021560 -0.076478 -0.013450
0.064364 -0.077084 -0.090160
0.062037 -0.077485 -0.042032
-0.000089 -0.076894 -0.121159
0.010477 -0.076698 -0.024684
0.060408 -0.077578 -0.065921
0.054046 -0.077266 -0.101092
0.058949 -0.076962 -0.133963
0.050452 -0.077013 -0.079175
-0.004398 -0.076830 -0.061797
-0.018238 -0.076602 -0.041291
0.038620 -0.076898 -0.090201
0.039821 -0.076722 -0.035731
0.062661 -0.079796 -0.074229
0.027164 -0.077464 -0.143576
0.033945 -0.077225 -0.067431
0.012003 -0.076960 -0.078917
-0.062021 -0.076896 -0.088613
-0.042274 -0.076674 -0.113119
0.064624 -0.078712 -0.053710
-0.067049 0.166911 -0.059558
-0.067033 0.213969 -0.072598
-0.067098 0.138657 -0.077920
-0.066604 0.185669 -0.059470
-0.066473 0.220957 -0.050252
-0.066777 0.174194 -0.012494
-0.066870 0.177074 -0.029905
-0.067061 0.187959 -0.076889
-0.066904 0.214760 -0.027800
-0.067398 0.130802 -0.030482
-0.066939 0.176701 -0.050532
-0.066644 0.208204 -0.042591
-0.066813 0.148650 -0.017429
-0.066868 0.209183 -0.058673
-0.066745 0.160484 -0.027181
-0.067026 0.164488 -0.076730
-0.066218 0.191224 -0.019591
-0.067682 0.116970 -0.047148
-0.066695 0.175898 -0.069001
-0.066772 0.177567 -0.087877
-0.066985 0.141755 -0.056134
-0.066717 0.198283 -0.066959
-0.066924 0.167630 -0.040387
-0.066880 0.195676 -0.050589
-0.066575 0.186110 -0.041246
-0.067379 0.156049 -0.049217
-0.066930 0.154261 -0.087788
-0.067196 0.144481 -0.039203
-0.067180 0.123611 -0.065575
-0.066872 0.153492 -0.066814
-0.066569 0.200910 -0.084530
-0.067038 0.198510 -0.033426
0.055434 -0.215128 -0.127495
0.064687 -0.162503 -0.143102
0.064300 -0.259234 -0.139557
0.065011 -0.204499 -0.133776
0.057684 -0.146375 -0.127154
0.050988 -0.204164 -0.126498
0.062261 -0.220940 -0.128219
0.063861 -0.198028 -0.145311
0.062605 -0.159003 -0.129107
0.061363 -0.261570 -0.129584
0.062373 -0.205490 -0.129341
0.034753 -0.170965 -0.126733
0.047694 -0.236124 -0.126501
0.064360 -0.166886 -0.136742
0.063227 -0.231018 -0.130741
0.064403 -0.229464 -0.135129
0.044561 -0.191106 -0.127115
0.063468 -0.279124 -0.131653
0.065521 -0.213094 -0.138585
0.064299 -0.216644 -0.147305
0.064837 -0.247032 -0.132477
0.063223 -0.174085 -0.128973
0.034239 -0.221769 -0.124875
0.065011 -0.189093 -0.136216
0.058744 -0.195041 -0.128092
0.063728 -0.233427 -0.141376
0.064787 -0.243835 -0.145751
0.060028 -0.250466 -0.127791
0.058717 -0.268357 -0.127151
0.032057 -0.246214 -0.122921
0.060164 -0.180291 -0.137024
0.062289 -0.185388 -0.130400
-0.066049 0.056465 -0.086991
-0.066401 0.123128 -0.099587
-0.066396 0.018857 -0.103358
-0.065916 0.080074 -0.087293
-0.065594 0.134216 -0.079765
-0.066339 0.066457 -0.042047
-0.066057 0.066247 -0.058412
-0.066460 0.084712 -0.103424
-0.066188 0.123654 -0.055843
-0.066750 0.009915 -0.057801
-0.066548 0.068596 -0.077948
-0.065809 0.112378 -0.070532
-0.066262 0.032357 -0.047049
-0.066270 0.115557 -0.086514
-0.066213 0.046677 -0.054634
-0.065937 0.051343 -0.102094
-0.065465 0.087295 -0.048431
-0.066882 -0.004514 -0.074184
-0.066036 0.067359 -0.096366
-0.066225 0.066158 -0.111355
-0.066357 0.024043 -0.083251
-0.065764 0.100403 -0.092851
-0.066098 0.055032 -0.068432
-0.066424 0.094577 -0.078539
-0.065859 0.081476 -0.068175
-0.066792 0.040922 -0.076427
-0.066061 0.037177 -0.110391
-0.066707 0.025507 -0.066424
-0.066286 0.002532 -0.092052
-0.065627 0.036806 -0.092410
-0.065308 0.100342 -0.109165
-0.066396 0.099187 -0.061071
-0.066771 0.289295 -0.031507
-0.066243 0.294505 -0.059750
-0.066678 0.286644 -0.086256
-0.066191 0.293932 -0.023321
-0.065851 0.294278 -0.018067
-0.066366 0.294667 0.105441
-0.066299 0.294033 0.045143
-0.065718 0.294257 -0.075063
-0.065145 0.295321 0.062066
-0.066510 0.285169 0.046035
-0.066284 0.294496 0.008524
-0.065992 0.292690 0.017088
-0.065964 0.285725 0.084024
-0.064668 0.295875 -0.034182
-0.066022 0.293060 0.060677
-0.066403 0.288841 -0.103519
-0.066166 0.294354 0.073960
-0.066787 0.280689 0.003167
-0.065910 0.293982 -0.051039
-0.065640 0.294575 -0.116813
-0.066474 0.286411 -0.018281
-0.066330 0.295706 -0.032416
-0.066529 0.287625 0.038564
-0.065764 0.295569 -0.006535
-0.066108 0.293274 0.025863
-0.066495 0.289907 -0.005808
-0.066410 0.289280 -0.130947
-0.066308 0.285919 0.012846
-0.066396 0.282021 -0.040560
-0.066399 0.284738 -0.064190
-0.066150 0.293277 -0.083716
-0.065374 0.296461 0.030265
-0.058027 0.165264 -0.018142
-0.031528 0.165252 -0.046091
-0.014442 0.165176 -0.048347
-0.042794 0.165057 -0.040505
-0.053565 0.165262 -0.032768
-0.040917 0.165234 0.030701
-0.041671 0.165022 -0.000453
-0.004185 0.165499 -0.036583
-0.025883 0.165293 0.023144
-0.010808 0.165140 0.015448
-0.029407 0.165163 -0.005934
-0.065232 0.165022 -0.005754
-0.059969 0.165037 0.019129
-0.012829 0.165478 -0.025798
-0.020140 0.165189 0.004301
-0.051870 0.165114 -0.052402
-0.047076 0.165120 0.013184
-0.017161 0.165136 -0.010713
-0.022107 0.165064 -0.035500
-0.024127 0.165079 -0.059703
-0.025562 0.165106 -0.020635
-0.048546 0.165250 -0.010640
-0.055042 0.165129 0.002217
-0.034000 0.165114 -0.030687
-0.033599 0.165108 0.009708
-0.001773 0.165312 -0.016735
-0.040651 0.165051 -0.061461
-0.036553 0.165049 -0.015694
-0.045433 0.164997 -0.024403
-0.066631 0.164881 -0.027495
-0.063005 0.165090 -0.043142
-0.006519 0.165411 -0.001548
-0.065047 -0.288917 -0.296060
-0.064377 -0.252838 -0.314372
-0.064307 -0.298364 -0.329664
-0.064176 -0.275308 -0.289690
-0.063509 -0.247493 -0.276986
-0.065036 -0.285641 -0.203178
-0.064745 -0.276527 -0.231224
-0.064776 -0.275855 -0.326389
-0.063970 -0.254671 -0.233529
-0.064395 -0.300250 -0.241233
-0.064862 -0.282453 -0.274369
-0.063749 -0.257829 -0.261947
-0.064504 -0.296344 -0.210434
-0.064229 -0.257884 -0.293357
-0.064756 -0.289975 -0.225345
-0.064828 -0.285790 -0.333665
-0.063987 -0.270622 -0.214168
-0.064535 -0.299858 -0.271998
-0.064411 -0.282570 -0.309120
-0.064215 -0.277263 -0.349057
-0.064538 -0.299023 -0.287868
-0.064645 -0.267617 -0.308707
-0.064331 -0.284379 -0.250367
-0.064453 -0.267868 -0.275151
-0.064716 -0.276073 -0.260446
-0.065314 -0.291272 -0.276461
-0.064624 -0.292749 -0.353603
-0.064503 -0.293757 -0.257538
-0.063749 -0.300863 -0.305252
-0.064207 -0.293547 -0.315260
-0.064168 -0.261792 -0.337390
-0.064865 -0.266926 -0.244598
-0.017787 0.164851 0.012971
0.016566 0.164978 -0.015904
0.036416 0.165083 -0.018119
0.002569 0.164879 -0.010595
-0.012036 0.164823 -0.002848
0.005663 0.164962 0.061443
0.003388 0.164814 0.033222
0.046741 0.165293 -0.005453
0.023763 0.164964 0.056325
0.040262 0.165034 0.049373
0.018597 0.164973 0.026829
-0.029322 0.164821 0.026042
-0.020300 0.164930 0.049509
0.037412 0.165142 0.006021
0.029776 0.165062 0.037840
-0.009410 0.165070 -0.022677
-0.004223 0.164837 0.046845
0.033634 0.165116 0.021797
0.027596 0.164909 -0.004697
0.024903 0.164936 -0.029695
0.023273 0.165017 0.011383
-0.004854 0.164847 0.021258
-0.014134 0.164829 0.033124
0.013160 0.164898 0.000219
0.014198 0.164879 0.043167
0.049013 0.165104 0.015305
0.006133 0.165011 -0.030242
0.010045 0.165041 0.016170
-0.001082 0.164964 0.006366
-0.031507 0.164897 0.003918
-0.024520 0.164840 -0.012844
0.044935 0.165136 0.031811
-0.020517 0.298296 0.079104
0.020794 0.297640 0.027968
0.045196 0.298559 0.022625
0.003954 0.297896 0.041309
-0.012804 0.297959 0.055573
0.009991 0.297725 0.150479
0.006293 0.297865 0.107663
0.055494 0.298291 0.043606
0.032941 0.298163 0.141055
0.052678 0.298234 0.131883
0.025288 0.297931 0.099286
-0.029781 0.298122 0.099998
-0.022103 0.298282 0.137074
0.047425 0.298313 0.062769
0.039534 0.298169 0.114679
-0.008681 0.298141 0.016209
-0.002075 0.298121 0.128863
0.042718 0.298342 0.091291
0.034335 0.297776 0.047045
0.033504 0.298003 0.000510
0.030208 0.298241 0.074424
-0.005574 0.297783 0.091186
-0.015225 0.298284 0.112841
0.017283 0.297833 0.058110
0.019546 0.297955 0.122749
0.056367 0.298573 0.080822
0.006968 0.298017 -0.005320
0.014134 0.297741 0.084176
0.000362 0.297931 0.070338
-0.031712 0.298559 0.058478
-0.026283 0.297836 0.031737
0.055375 0.297991 0.105946
-0.015701 -0.299600 -0.234547
0.049412 -0.271749 -0.304322
0.059972 -0.298547 -0.299602
0.034398 -0.280028 -0.263729
0.001775 -0.267921 -0.245009
0.057196 -0.288072 -0.150137
0.009457 -0.289238 -0.199121
0.063429 -0.272422 -0.289696
0.067674 -0.272235 -0.171628
0.062715 -0.297903 -0.167263
0.061906 -0.276061 -0.221353
-0.025107 -0.278753 -0.211546
0.017620 -0.299702 -0.158760
0.065102 -0.271658 -0.261713
0.057656 -0.302101 -0.187192
0.018647 -0.298815 -0.310015
0.018498 -0.268043 -0.168578
0.063651 -0.298157 -0.210972
0.059082 -0.279143 -0.283729
0.065172 -0.285322 -0.326720
0.056395 -0.301766 -0.254802
0.012525 -0.273504 -0.257415
-0.015501 -0.301724 -0.184989
0.050931 -0.271677 -0.241586
0.046013 -0.276918 -0.197031
0.060730 -0.290298 -0.247285
0.045657 -0.300007 -0.337081
0.029524 -0.298807 -0.221728
0.017579 -0.298044 -0.260980
-0.027951 -0.297599 -0.279682
-0.006548 -0.279369 -0.306905
0.065407 -0.277457 -0.198960
0.063334 -0.208323 -0.159386
0.063581 -0.152449 -0.176145
0.063740 -0.236053 -0.179821
0.063880 -0.187508 -0.159022
0.063742 -0.145338 -0.151726
0.060107 -0.200192 -0.127725
0.062909 -0.199187 -0.133962
0.064055 -0.183851 -0.177509
0.063223 -0.153047 -0.132425
0.062379 -0.244314 -0.134330
0.063513 -0.197793 -0.149415
0.063931 -0.161455 -0.141132
0.061846 -0.228400 -0.129126
0.063640 -0.160161 -0.158783
0.062914 -0.215675 -0.132656
0.063328 -0.210428 -0.180865
0.061998 -0.181190 -0.129162
0.062858 -0.250643 -0.146235
0.064060 -0.198392 -0.170221
0.064038 -0.196248 -0.193431
0.063746 -0.234280 -0.155271
0.063857 -0.171780 -0.164654
0.063870 -0.207119 -0.140118
0.063568 -0.176682 -0.149228
0.064168 -0.187225 -0.140515
0.063028 -0.219217 -0.148461
0.063648 -0.221906 -0.194913
0.062901 -0.231638 -0.140387
0.063483 -0.246872 -0.165573
0.064177 -0.222284 -0.169837
0.063661 -0.168845 -0.186890
0.062800 -0.172045 -0.135479
-0.015247 0.300004 0.099333
0.043206 0.299463 0.056907
0.065254 0.295715 0.051775
0.027249 0.299237 0.069279
0.001454 0.299193 0.080154
0.039965 0.298665 0.149282
0.026696 0.299423 0.121876
0.064280 0.293255 0.070329
0.057765 0.299733 0.142547
0.068185 0.295005 0.134480
0.051767 0.299500 0.114718
-0.027278 0.297666 0.119387
-0.010214 0.298371 0.143314
0.065463 0.298580 0.084839
0.063205 0.298547 0.125001
0.009176 0.299823 0.046370
0.014679 0.299659 0.138208
0.062866 0.297981 0.107834
0.056696 0.298311 0.072512
0.060132 0.299238 0.033738
0.053494 0.299557 0.095180
0.009654 0.300059 0.110140
-0.005361 0.299275 0.125691
0.042564 0.299921 0.083499
0.043359 0.299947 0.130992
0.063543 0.292089 0.099366
0.031979 0.298873 0.024606
0.038692 0.299550 0.104566
0.017906 0.299648 0.095800
-0.031441 0.297150 0.084332
-0.019501 0.297775 0.059116
0.066289 0.294040 0.118082
0.064665 -0.259884 -0.179217
0.064661 -0.222291 -0.191832
0.065048 -0.275455 -0.199399
0.065090 -0.245474 -0.179255
0.064675 -0.215865 -0.169287
0.064158 -0.255918 -0.139506
0.064530 -0.250156 -0.150993
0.064743 -0.244740 -0.197037
0.064436 -0.222415 -0.150800
0.064348 -0.279819 -0.152917
0.064571 -0.252640 -0.170858
0.064790 -0.227480 -0.162922
0.064485 -0.271537 -0.141934
0.064623 -0.226683 -0.178080
0.064552 -0.263276 -0.150093
0.064990 -0.259512 -0.199635
0.064741 -0.240828 -0.143086
0.064412 -0.281952 -0.167219
0.065138 -0.253653 -0.188515
0.065271 -0.250067 -0.211259
0.064949 -0.274589 -0.175963
0.064884 -0.236904 -0.187313
0.065028 -0.257723 -0.160629
0.064768 -0.238057 -0.170773
0.064927 -0.245561 -0.162445
0.064258 -0.265436 -0.169408
0.065059 -0.266424 -0.213508
0.064657 -0.271054 -0.160404
0.065246 -0.281385 -0.185141
0.065277 -0.267668 -0.188417
0.065074 -0.232947 -0.204984
0.064135 -0.236308 -0.154799
-0.066820 0.160053 -0.078600
-0.062131 0.164947 -0.118437
-0.053823 0.164132 -0.130028
-0.064235 0.163729 -0.106701
-0.065142 0.164977 -0.094379
-0.063410 0.163731 0.001802
-0.064033 0.164180 -0.050530
-0.044760 0.164363 -0.113107
-0.059503 0.165417 -0.022993
-0.050512 0.164560 -0.034186
-0.059515 0.164828 -0.060541
-0.065480 0.155893 -0.057831
-0.064442 0.157641 -0.015609
-0.050609 0.164297 -0.093295
-0.055149 0.164822 -0.043970
-0.064643 0.161731 -0.137567
-0.064167 0.162729 -0.030153
-0.054936 0.162028 -0.062131
-0.056624 0.164357 -0.104847
-0.058436 0.164361 -0.146637
-0.057848 0.164396 -0.079109
-0.066527 0.164180 -0.064713
-0.066538 0.160639 -0.041135
-0.060613 0.164553 -0.089339
-0.061616 0.164206 -0.042325
-0.040964 0.164982 -0.073822
-0.064608 0.163347 -0.161833
-0.062660 0.163488 -0.071761
-0.064183 0.160991 -0.086814
-0.065421 0.154240 -0.102408
-0.065857 0.159949 -0.121194
-0.045725 0.164514 -0.054373
-0.083766 -0.073138 -0.081102
-0.019379 -0.074707 -0.129030
0.032701 -0.072721 -0.130832
-0.050654 -0.075536 -0.116951
-0.073673 -0.073928 -0.101736
-0.042349 -0.074832 0.010914
-0.043465 -0.075384 -0.042948
0.045228 -0.071678 -0.113013
0.004241 -0.075101 -0.001394
0.039621 -0.073023 -0.014267
-0.010554 -0.076138 -0.053725
-0.080060 -0.072269 -0.057066
-0.086277 -0.071838 -0.006772
0.035209 -0.072830 -0.096158
0.019423 -0.074142 -0.035512
-0.070226 -0.075725 -0.136045
-0.061782 -0.074442 -0.015435
0.023106 -0.073372 -0.069899
0.008310 -0.075119 -0.111101
0.008352 -0.075335 -0.146851
-0.003026 -0.074908 -0.085542
-0.067569 -0.075255 -0.066483
-0.075136 -0.073859 -0.038944
-0.028629 -0.075818 -0.103134
-0.021746 -0.075504 -0.026340
0.042622 -0.071852 -0.079644
-0.046947 -0.076911 -0.149650
-0.030771 -0.075499 -0.071164
-0.053747 -0.074588 -0.087319
-0.082596 -0.072517 -0.101887
-0.086355 -0.073455 -0.123660
0.039070 -0.072690 -0.051709
-0.002598 0.165884 0.010027
0.041944 0.166253 -0.028202
0.060389 0.164690 -0.033146
0.028286 0.165748 -0.017737
0.008882 0.166044 -0.006844
0.038614 0.165860 0.071203
0.027560 0.165760 0.032976
0.061437 0.164071 -0.017662
0.053329 0.166144 0.059362
0.063894 0.163922 0.049629
0.048330 0.166141 0.024932
-0.013435 0.165542 0.028553
0.000885 0.165550 0.059568
0.061248 0.165906 -0.004697
0.058432 0.165932 0.037405
0.015911 0.166159 -0.034934
0.021068 0.165983 0.052169
0.057652 0.165581 0.018643
0.052543 0.166025 -0.015509
0.056073 0.166453 -0.046773
0.049856 0.166137 0.005415
0.014441 0.166016 0.020759
0.005007 0.165959 0.037757
0.040505 0.166002 -0.005317
0.041064 0.166090 0.043362
0.061655 0.162921 0.009818
0.033674 0.165921 -0.052020
0.037128 0.165904 0.014428
0.023035 0.165960 0.004237
-0.015938 0.165409 -0.002175
-0.005738 0.165781 -0.022384
0.063157 0.164258 0.028258
-0.036855 -0.282921 -0.208578
0.043005 -0.282756 -0.258899
0.066444 -0.282993 -0.266982
0.022485 -0.283095 -0.246791
-0.011794 -0.282909 -0.232112
0.037293 -0.283378 -0.136875
0.019090 -0.283182 -0.177379
0.066003 -0.283186 -0.247281
0.056639 -0.282376 -0.146420
0.067695 -0.283497 -0.159266
0.050887 -0.282928 -0.186381
-0.064191 -0.282938 -0.178986
-0.029215 -0.283009 -0.142907
0.066370 -0.282441 -0.227902
0.062758 -0.283150 -0.172541
0.002422 -0.282931 -0.269783
0.011095 -0.282383 -0.153032
0.063426 -0.283276 -0.196522
0.056741 -0.283170 -0.241376
0.060861 -0.282919 -0.283580
0.053609 -0.283246 -0.213160
-0.005366 -0.282802 -0.191332
-0.027524 -0.283005 -0.170051
0.041042 -0.283097 -0.228718
0.040999 -0.283102 -0.163520
0.065835 -0.283351 -0.207449
0.033682 -0.283105 -0.292094
0.035918 -0.283272 -0.198975
0.015658 -0.282866 -0.211494
-0.072823 -0.283109 -0.226977
-0.042125 -0.282875 -0.254816
0.067898 -0.283090 -0.183410
0.002667 -0.072424 -0.124119
0.026605 -0.035875 -0.124079
0.046287 -0.099950 -0.124692
0.027541 -0.073152 -0.124237
0.007312 -0.022250 -0.123720
0.037768 -0.060679 -0.123819
0.017274 -0.083176 -0.123828
