-0.099682 -0.016132 -0.246259
-0.103774 -0.021749 -0.247396
-0.099994 -0.016114 -0.246089
-0.100576 -0.016138 -0.246377
-0.100106 -0.011200 -0.246287
-0.104192 -0.017493 -0.246513
-0.099058 -0.016571 -0.242913
-0.101724 -0.019342 -0.250953
-0.099433 -0.021772 -0.247279
0.085067 0.008438 -0.094317
0.089111 0.010321 -0.095631
0.091112 0.009455 -0.096469
0.089089 0.010700 -0.098457
0.084782 0.008332 -0.094051
0.087501 0.007822 -0.094424
0.090405 0.011880 -0.098564
0.086683 0.009596 -0.094919
0.088257 0.009755 -0.095778
0.082581 0.003174 -0.091697
0.086034 0.008414 -0.094283
0.084568 0.005858 -0.091867
0.085912 0.009197 -0.094728
0.087001 0.010121 -0.096030
0.087709 0.013509 -0.098484
0.086725 0.009084 -0.094847
0.084605 0.001403 -0.092149
0.084026 0.009674 -0.095077
0.086252 0.009671 -0.095239
0.087504 0.011595 -0.098446
0.084391 0.007613 -0.093490
0.083525 0.006682 -0.092321
0.087802 0.010312 -0.096250
0.083894 0.008897 -0.093803
0.082875 0.005286 -0.092592
0.085480 0.009312 -0.094243
0.086719 0.008672 -0.094324
0.085740 0.010970 -0.096398
0.081954 0.007240 -0.092726
0.084445 0.007790 -0.092467
0.086818 0.008396 -0.095645
0.086769 0.005553 -0.094600
0.310526 -0.026041 0.051415
0.313922 -0.026875 0.059051
0.319264 -0.028361 0.054454
0.318529 -0.028312 0.045333
0.318937 -0.031299 0.058395
0.317193 -0.032392 0.063451
0.310961 -0.014145 0.053221
0.305385 -0.024535 0.066959
0.316356 -0.023859 0.049481
0.318629 -0.041905 0.062614
0.322388 -0.035441 0.055507
0.316566 -0.037016 0.068983
0.308435 -0.019673 0.057829
0.314570 -0.022090 0.053792
0.303819 -0.006711 0.056771
0.319630 -0.028701 0.052038
0.326272 -0.041012 0.059736
0.298723 -0.012929 0.058794
0.307739 -0.018586 0.063642
0.309047 -0.014489 0.047890
0.317644 -0.033555 0.062378
0.303996 -0.036003 0.069195
0.311663 -0.019720 0.058382
0.298062 -0.022547 0.070659
0.311146 -0.036107 0.059693
0.312331 -0.027039 0.060545
0.317907 -0.029984 0.057726
0.298610 -0.010703 0.064593
0.299538 -0.028548 0.065176
0.306227 -0.031838 0.072846
0.317402 -0.032361 0.048404
0.323928 -0.035557 0.051418
0.030832 0.017281 -0.131958
0.028481 0.018763 -0.130460
0.029779 0.017786 -0.132129
0.032246 0.020895 -0.139999
0.029835 0.017207 -0.129188
0.027892 0.016257 -0.127614
0.030250 0.025811 -0.137137
0.026536 0.018970 -0.128430
0.031472 0.019803 -0.133298
0.029340 0.012871 -0.125233
0.030633 0.016818 -0.129499
0.028270 0.013658 -0.124217
0.028737 0.018691 -0.130128
0.029613 0.020343 -0.132741
0.027822 0.031050 -0.137329
0.030143 0.017496 -0.130289
0.030982 0.010824 -0.127457
0.027355 0.021555 -0.131451
0.027369 0.019669 -0.129423
0.029839 0.025808 -0.139739
0.028845 0.015372 -0.127714
0.028149 0.015485 -0.125599
0.028312 0.021189 -0.131189
0.027182 0.017689 -0.128410
0.029444 0.014566 -0.127567
0.029491 0.017327 -0.128866
0.028844 0.016302 -0.128457
0.027387 0.023894 -0.132531
0.027527 0.016167 -0.126877
0.027515 0.015611 -0.125163
0.032915 0.016651 -0.134358
0.031889 0.014223 -0.131136
-0.083989 -0.001838 -0.214805
-0.078892 0.004617 -0.201322
-0.080965 0.001959 -0.207181
-0.084534 -0.000675 -0.217895
-0.081014 -0.000111 -0.207424
-0.077612 0.002673 -0.201591
-0.082493 0.006464 -0.205906
-0.077127 0.008191 -0.195306
-0.083141 0.000799 -0.212274
-0.079769 -0.002564 -0.207323
-0.082994 -0.001089 -0.212243
-0.078563 -0.000015 -0.204367
-0.081007 0.004098 -0.206176
-0.081554 0.003653 -0.208198
-0.079968 0.009501 -0.199149
-0.081801 0.000234 -0.210374
-0.082253 -0.005647 -0.213854
-0.082038 0.005610 -0.204725
-0.078720 0.006237 -0.199676
-0.084050 0.003838 -0.211717
-0.079361 0.000763 -0.205319
-0.078880 0.001953 -0.202684
-0.080791 0.005273 -0.202393
-0.077723 0.005531 -0.198993
-0.082492 -0.002613 -0.210485
-0.080423 0.002305 -0.206300
-0.079549 0.000854 -0.205137
-0.078074 0.008029 -0.196705
-0.080032 0.002260 -0.203651
-0.076675 0.006763 -0.194487
-0.085980 -0.005669 -0.221341
-0.082719 -0.004955 -0.216696
0.014119 0.038065 -0.182642
0.021637 0.053451 -0.151181
0.022977 0.045769 -0.161723
0.016652 0.037499 -0.184838
0.023894 0.044825 -0.166604
0.021206 0.049885 -0.154476
0.014070 0.059569 -0.151502
0.017796 0.063407 -0.139240
0.018465 0.045152 -0.169382
0.027190 0.037282 -0.172143
0.022320 0.039023 -0.175199
0.023669 0.043780 -0.160748
0.018837 0.053175 -0.161173
0.021198 0.053935 -0.159836
0.011579 0.071433 -0.139246
0.021909 0.044246 -0.168360
0.026872 0.025834 -0.183286
0.004051 0.061928 -0.156063
0.018660 0.061796 -0.148964
0.014763 0.053900 -0.164097
0.024611 0.047376 -0.161574
0.022812 0.048969 -0.156688
0.015493 0.057187 -0.152120
0.019571 0.060941 -0.144032
0.020027 0.035599 -0.176905
0.024254 0.049925 -0.161650
0.019853 0.044585 -0.162016
0.016079 0.068182 -0.139593
0.016935 0.049738 -0.156716
0.022209 0.058272 -0.133636
0.016991 0.025079 -0.194582
0.027322 0.032909 -0.182493
0.083952 0.008333 -0.098984
0.088499 0.010345 -0.100830
0.090195 0.009349 -0.101334
0.088084 0.010500 -0.102742
0.083993 0.008143 -0.099159
0.087077 0.007579 -0.099254
0.089456 0.012211 -0.103775
0.086020 0.009490 -0.100099
0.087173 0.009765 -0.100542
0.081852 0.003484 -0.096703
0.085122 0.008122 -0.099195
0.083911 0.005978 -0.096911
0.084918 0.009144 -0.099897
0.085977 0.009962 -0.101126
0.086665 0.014063 -0.104112
0.085847 0.008769 -0.099682
0.083869 0.002051 -0.096872
0.082930 0.009874 -0.100338
0.085429 0.009727 -0.100501
0.086248 0.011731 -0.103554
0.083519 0.007389 -0.098427
0.082701 0.006556 -0.097348
0.087011 0.010255 -0.101431
0.082973 0.008898 -0.099055
0.081977 0.005129 -0.097336
0.084608 0.009208 -0.099307
0.085988 0.008373 -0.099323
0.084582 0.011147 -0.101913
0.081107 0.007244 -0.097921
0.083472 0.007774 -0.097523
0.085705 0.008093 -0.100033
0.086112 0.005581 -0.099045
0.091223 0.002607 -0.105096
0.094989 0.006944 -0.105359
0.099352 0.003142 -0.107078
0.096951 0.007605 -0.111926
0.089808 0.000237 -0.102467
0.092461 -0.001882 -0.099517
0.096593 0.013506 -0.114295
0.089555 0.004968 -0.101522
0.094531 0.007314 -0.107331
0.088079 -0.011037 -0.093113
0.092297 -0.001143 -0.103021
0.089076 -0.008363 -0.093478
0.088879 0.006544 -0.105056
0.090999 0.008637 -0.108845
0.089925 0.016841 -0.113196
0.092081 0.002316 -0.104403
0.091463 -0.016792 -0.094679
0.085156 0.010896 -0.108161
0.088706 0.007500 -0.104235
0.091357 0.014025 -0.115350
0.089011 -0.002948 -0.098271
0.087660 -0.004414 -0.094204
0.092059 0.008447 -0.107888
0.086359 0.004345 -0.099110
0.089161 -0.004895 -0.097751
0.089711 0.003394 -0.102448
0.092334 0.000044 -0.102007
0.086714 0.011563 -0.106202
0.087671 0.000765 -0.099803
0.087022 -0.001882 -0.095110
0.093760 0.001354 -0.104504
0.094617 -0.006287 -0.100924
-0.101200 -0.042569 -0.258872
-0.087108 -0.039203 -0.242359
-0.080282 -0.042174 -0.248935
-0.083043 -0.042126 -0.268732
-0.088853 -0.043709 -0.245329
-0.090915 -0.043911 -0.241801
-0.081170 -0.026785 -0.251922
-0.094778 -0.038816 -0.238893
-0.081480 -0.037937 -0.255311
-0.093147 -0.055311 -0.244897
-0.086575 -0.050277 -0.249877
-0.093326 -0.048634 -0.242044
-0.091637 -0.038091 -0.242643
-0.086655 -0.037490 -0.248212
-0.091333 -0.020241 -0.245482
-0.083110 -0.044612 -0.250113
-0.085911 -0.060213 -0.253516
-0.105917 -0.034557 -0.243315
-0.091494 -0.035340 -0.239892
-0.090314 -0.028207 -0.262365
-0.090705 -0.045500 -0.242164
-0.100536 -0.047912 -0.238425
-0.086188 -0.033274 -0.243294
-0.100939 -0.038418 -0.235517
-0.102524 -0.053840 -0.250015
-0.091121 -0.041968 -0.238275
-0.087169 -0.043116 -0.243978
-0.097380 -0.029195 -0.238876
-0.105000 -0.044999 -0.237580
-0.097168 -0.044501 -0.236975
-0.092227 -0.053547 -0.265173
-0.078941 -0.052397 -0.258402
0.121162 0.070098 -0.037757
0.145542 0.064754 -0.037679
0.154288 0.060396 -0.039027
0.139891 0.064416 -0.039743
0.132993 0.064112 -0.039149
0.149550 0.059587 -0.036138
0.140920 0.067484 -0.036703
0.139439 0.067971 -0.032874
0.131891 0.069006 -0.039342
0.138583 0.053298 -0.040830
0.139411 0.061144 -0.041371
0.139806 0.061695 -0.035401
0.122456 0.073838 -0.037309
0.131862 0.071682 -0.037738
0.131096 0.072715 -0.035037
0.137090 0.068002 -0.039193
0.149956 0.048133 -0.041041
0.110550 0.075779 -0.035979
0.130042 0.072550 -0.032855
0.126966 0.073592 -0.037370
0.137583 0.066490 -0.038630
0.126010 0.065889 -0.035656
0.137244 0.068748 -0.036858
0.121928 0.075249 -0.031830
0.121815 0.060135 -0.038479
0.127160 0.072218 -0.038134
0.143577 0.064340 -0.040302
0.118688 0.076305 -0.034285
0.114945 0.072412 -0.035984
0.130136 0.071525 -0.029414
0.129487 0.064749 -0.039834
0.148832 0.058079 -0.041315
-0.102328 -0.000184 -0.252205
-0.099789 0.005236 -0.247313
-0.098167 0.003099 -0.249644
-0.098719 0.002262 -0.254586
-0.102822 -0.000467 -0.250228
-0.099285 -0.000965 -0.248778
-0.099728 0.006183 -0.248071
-0.100663 0.005353 -0.246679
-0.100629 0.003463 -0.250539
-0.103586 -0.012902 -0.251675
-0.100756 -0.001139 -0.251148
-0.101358 -0.006225 -0.249241
-0.101308 0.004904 -0.248111
-0.100730 0.004690 -0.248343
-0.101761 0.008135 -0.246701
-0.101620 0.003056 -0.249293
-0.101047 -0.021684 -0.255126
-0.104976 0.004609 -0.248570
-0.101501 0.005470 -0.247823
-0.100498 0.005677 -0.250219
-0.102019 -0.002829 -0.250889
-0.102994 -0.000984 -0.248262
-0.101196 0.005387 -0.248252
-0.101861 0.004307 -0.248388
-0.105641 -0.008593 -0.252798
-0.101136 0.004445 -0.248523
-0.100935 0.002138 -0.248726
-0.102079 0.005978 -0.247145
-0.104784 0.000567 -0.248687
-0.101252 0.003008 -0.246041
-0.101517 -0.004127 -0.255957
-0.098188 -0.008870 -0.253973
0.296622 -0.057181 0.028438
0.322110 -0.050289 0.034123
0.322817 -0.055845 0.033527
0.316420 -0.054428 0.030315
0.308998 -0.058759 0.032007
0.324047 -0.060355 0.041000
0.320071 -0.045692 0.032063
0.318110 -0.053295 0.050667
0.315722 -0.053331 0.031672
0.304228 -0.070640 0.038530
0.313459 -0.061447 0.033003
0.313153 -0.064606 0.049164
0.303001 -0.051938 0.029418
0.311365 -0.054100 0.029516
0.311821 -0.039598 0.031728
0.314273 -0.057409 0.032702
0.314758 -0.068630 0.039847
0.281155 -0.050099 0.030792
0.311907 -0.051126 0.036941
0.308479 -0.044902 0.028365
0.312525 -0.062553 0.036105
0.299340 -0.066360 0.042952
0.316927 -0.051662 0.031418
0.291794 -0.057000 0.050046
0.292952 -0.067676 0.035614
0.304470 -0.057169 0.033376
0.316865 -0.058631 0.034423
0.296322 -0.042882 0.035239
0.277732 -0.063270 0.038289
0.306979 -0.060620 0.064901
0.307920 -0.061445 0.031598
0.317377 -0.060448 0.036438
0.124360 0.030158 -0.148896
0.126004 0.037777 -0.143465
0.132438 0.032528 -0.148927
0.134286 0.031080 -0.159588
0.122726 0.030661 -0.143561
0.125991 0.028925 -0.143177
0.125980 0.044255 -0.144784
0.119337 0.039202 -0.131388
0.131035 0.035197 -0.150817
0.121099 0.016298 -0.140763
0.128362 0.028593 -0.147064
0.120480 0.021235 -0.131153
0.120728 0.037347 -0.140490
0.126246 0.037911 -0.144390
0.118995 0.051042 -0.138532
0.128718 0.033283 -0.146999
0.131096 0.007490 -0.148137
0.113506 0.042364 -0.139247
0.117715 0.040154 -0.140230
0.125770 0.042639 -0.148559
0.122093 0.027621 -0.144683
0.113304 0.028316 -0.136217
0.123505 0.040757 -0.141376
0.106758 0.037223 -0.132066
0.117857 0.022519 -0.143830
0.121610 0.033887 -0.140663
0.124482 0.030720 -0.145140
0.111870 0.047948 -0.134289
0.108649 0.030184 -0.137177
0.112885 0.031142 -0.114479
0.130744 0.025782 -0.157123
0.134403 0.022298 -0.154217
0.105178 0.021147 -0.122840
0.122301 0.024394 -0.111762
0.127085 0.022972 -0.119009
0.121937 0.025648 -0.134032
0.108607 0.017814 -0.111139
0.118014 0.020354 -0.107273
0.122175 0.027479 -0.121518
0.114144 0.022666 -0.104150
0.118694 0.024736 -0.123590
0.108451 0.012573 -0.106375
0.112813 0.020298 -0.116428
0.109361 0.014961 -0.101242
0.108695 0.022501 -0.114376
0.114066 0.024812 -0.118313
0.113790 0.030434 -0.117210
0.115670 0.023208 -0.118476
0.114250 0.007715 -0.113011
0.102181 0.021923 -0.114642
0.110385 0.022616 -0.110332
0.111539 0.028461 -0.123857
0.111959 0.020896 -0.108027
0.105238 0.016309 -0.101941
0.115288 0.024142 -0.115834
0.102421 0.020529 -0.100522
0.102771 0.012953 -0.113754
0.109199 0.022122 -0.110729
0.117711 0.021139 -0.113259
0.106341 0.025784 -0.110564
0.099055 0.016368 -0.104820
0.108006 0.018806 -0.096937
0.110545 0.017588 -0.132625
0.121761 0.019678 -0.122984
-0.080614 0.007787 -0.200639
-0.073547 0.014413 -0.180878
-0.077316 0.011673 -0.190174
-0.082586 0.008543 -0.203119
-0.077195 0.009689 -0.190511
-0.071611 0.013147 -0.178098
-0.079022 0.015449 -0.190043
-0.071537 0.018765 -0.172866
-0.081343 0.009713 -0.197723
-0.075303 0.008143 -0.187259
-0.081150 0.008385 -0.198033
-0.073234 0.010310 -0.182407
-0.078088 0.013215 -0.190010
-0.078697 0.013674 -0.192452
-0.075817 0.019179 -0.181502
-0.079220 0.009946 -0.195306
-0.078888 0.004807 -0.196171
-0.078453 0.014673 -0.188751
-0.073914 0.016402 -0.179806
-0.081271 0.012411 -0.196312
-0.073735 0.011315 -0.184227
-0.074484 0.012139 -0.182501
-0.077182 0.015252 -0.185538
-0.071625 0.015963 -0.176682
-0.079079 0.008099 -0.193876
-0.076920 0.012714 -0.188657
-0.075640 0.011103 -0.186285
-0.073247 0.018065 -0.176572
-0.075661 0.013208 -0.185275
-0.068285 0.017216 -0.169663
-0.083648 0.004140 -0.206338
-0.080524 0.004344 -0.201732
0.322427 -0.050063 0.034526
0.332085 -0.047543 0.049170
0.331283 -0.047847 0.044268
0.322973 -0.046582 0.034439
0.330713 -0.051327 0.043535
0.331722 -0.049965 0.050431
0.328791 -0.037511 0.044430
0.327583 -0.043637 0.058105
0.329791 -0.047848 0.041278
0.321133 -0.063277 0.050255
0.329006 -0.051615 0.042539
0.326162 -0.056399 0.054653
0.330318 -0.045475 0.044448
0.331700 -0.044189 0.042730
0.327023 -0.029912 0.047045
0.332102 -0.049174 0.041893
0.323234 -0.064169 0.043208
0.318594 -0.038000 0.044481
0.330604 -0.042170 0.050415
0.326041 -0.039574 0.037923
0.331773 -0.052798 0.047246
0.320041 -0.055246 0.057337
0.331471 -0.043234 0.045384
0.321561 -0.046486 0.059511
0.319561 -0.060556 0.041017
0.330954 -0.048596 0.046666
0.332407 -0.048811 0.046834
0.325658 -0.036091 0.054605
0.316329 -0.053472 0.051624
0.326326 -0.051031 0.065514
0.322176 -0.057128 0.034881
0.325694 -0.054536 0.040674
-0.115536 -0.067718 -0.296453
-0.079294 -0.058101 -0.273168
-0.077381 -0.064489 -0.272690
-0.095811 -0.064527 -0.293009
-0.094347 -0.070373 -0.280215
-0.076223 -0.072730 -0.271389
-0.080678 -0.054652 -0.275161
-0.082150 -0.062941 -0.271200
-0.085549 -0.061823 -0.281926
-0.104761 -0.086967 -0.276751
-0.093272 -0.073971 -0.283268
-0.084694 -0.079020 -0.269372
-0.098830 -0.060243 -0.283119
-0.088812 -0.061093 -0.280666
-0.088583 -0.049680 -0.277327
-0.085586 -0.066281 -0.277309
-0.089369 -0.086088 -0.274669
-0.131208 -0.060855 -0.286713
-0.086110 -0.059502 -0.272937
-0.094793 -0.053614 -0.287225
-0.088484 -0.074116 -0.275427
-0.108056 -0.080816 -0.270548
-0.084530 -0.060721 -0.277475
-0.107166 -0.065826 -0.267081
-0.122234 -0.086357 -0.283434
-0.095669 -0.065414 -0.277245
-0.083309 -0.067485 -0.273698
-0.102089 -0.053267 -0.278812
-0.130771 -0.075351 -0.274890
-0.091495 -0.070729 -0.263533
-0.106850 -0.079645 -0.296782
-0.087569 -0.073298 -0.281334
-0.106828 -0.023578 -0.245562
-0.092961 -0.015429 -0.224113
-0.094382 -0.018506 -0.231727
-0.103681 -0.024112 -0.251666
-0.100016 -0.021156 -0.236001
-0.092403 -0.019933 -0.226144
-0.098218 -0.011279 -0.229665
-0.092779 -0.011766 -0.220258
-0.100234 -0.019057 -0.239454
-0.101249 -0.030101 -0.236939
-0.102002 -0.025394 -0.242500
-0.095258 -0.025355 -0.231255
-0.099670 -0.015523 -0.231151
-0.100083 -0.016274 -0.233706
-0.097525 -0.006111 -0.222917
-0.098542 -0.020852 -0.236573
-0.100864 -0.035777 -0.246293
-0.104959 -0.013504 -0.232090
-0.094792 -0.013445 -0.224205
-0.104043 -0.013893 -0.239168
-0.096565 -0.021772 -0.232149
-0.098069 -0.021414 -0.230108
-0.097444 -0.014047 -0.227116
-0.094505 -0.015127 -0.225116
-0.106423 -0.028723 -0.243146
-0.097962 -0.018129 -0.232073
-0.096410 -0.020346 -0.230163
-0.096449 -0.009973 -0.221967
-0.100973 -0.019064 -0.231540
-0.091895 -0.015686 -0.220266
-0.108743 -0.032497 -0.255461
-0.098528 -0.030409 -0.247980
-0.094500 -0.003004 -0.218539
-0.087143 0.004473 -0.201117
-0.089082 0.001348 -0.208369
-0.093765 -0.001970 -0.223153
-0.090282 -0.000636 -0.209751
-0.085261 0.001200 -0.201353
-0.091250 0.006006 -0.206867
-0.086028 0.008083 -0.196007
-0.092944 0.000165 -0.214702
-0.089227 -0.004666 -0.209085
-0.092345 -0.002853 -0.215630
-0.086592 -0.001801 -0.205056
-0.091435 0.003679 -0.208003
-0.091429 0.003709 -0.209780
-0.089797 0.010045 -0.200279
-0.091170 -0.000323 -0.212541
-0.090581 -0.009080 -0.216590
-0.093449 0.004980 -0.207634
-0.087662 0.006497 -0.200690
-0.094267 0.003701 -0.213380
-0.087484 -0.000419 -0.206481
-0.088320 0.000937 -0.204888
-0.090595 0.005292 -0.204326
-0.086445 0.005516 -0.199939
-0.093017 -0.004357 -0.214164
-0.089844 0.002449 -0.208328
-0.088573 -0.000173 -0.206350
-0.088031 0.008438 -0.198006
-0.090039 0.002230 -0.206205
-0.084140 0.005728 -0.194295
-0.096322 -0.007784 -0.225898
-0.090841 -0.007603 -0.220086
0.090081 0.006472 -0.100920
0.095362 0.009897 -0.102260
0.096646 0.008182 -0.103197
0.094531 0.009925 -0.104918
0.090152 0.006320 -0.100491
0.093368 0.006328 -0.100703
0.096839 0.012833 -0.106288
0.092365 0.008943 -0.101502
0.093470 0.009315 -0.101904
0.088118 0.002828 -0.097946
0.091682 0.006229 -0.100982
0.090251 0.004633 -0.098246
0.090176 0.008375 -0.101592
0.091745 0.009532 -0.103037
0.092995 0.015616 -0.106312
0.091839 0.007418 -0.101061
0.090707 0.001428 -0.098054
0.087853 0.009228 -0.102665
0.091372 0.009440 -0.102136
0.091631 0.012518 -0.106284
0.089846 0.005801 -0.099682
0.088892 0.004520 -0.098683
0.093240 0.010274 -0.103275
0.088348 0.008110 -0.100263
0.087843 0.003494 -0.098688
0.090522 0.007907 -0.100797
0.092219 0.006718 -0.100638
0.089890 0.011965 -0.103918
0.087224 0.005464 -0.099105
0.089178 0.006122 -0.098927
0.092164 0.005980 -0.101505
0.092847 0.004546 -0.100255
0.037262 0.034669 -0.166333
0.033152 0.037019 -0.161140
0.034426 0.035662 -0.164908
0.037702 0.034764 -0.172347
0.035668 0.037334 -0.163754
0.033161 0.035800 -0.161317
0.034393 0.038320 -0.164210
0.032885 0.037680 -0.158288
0.036508 0.036136 -0.166090
0.035587 0.032591 -0.162367
0.036003 0.035514 -0.165030
0.034256 0.033627 -0.158750
0.035479 0.036713 -0.162648
0.036265 0.037318 -0.163865
0.033785 0.040876 -0.160929
0.036028 0.035968 -0.164795
0.036578 0.029809 -0.166175
0.035124 0.037846 -0.162539
0.033519 0.037603 -0.160801
0.036416 0.037760 -0.166579
0.034756 0.035459 -0.162167
0.034405 0.036302 -0.159540
0.033969 0.037766 -0.162020
0.033757 0.037183 -0.160092
0.036682 0.035097 -0.163548
0.035561 0.036420 -0.162163
0.033834 0.034713 -0.162600
0.033699 0.038802 -0.159207
0.034756 0.035685 -0.161322
0.033149 0.036034 -0.154560
0.037840 0.033264 -0.170954
0.037502 0.033452 -0.168294
0.088487 0.012118 -0.097619
0.098262 0.016507 -0.099438
0.100855 0.014526 -0.101621
0.096851 0.015380 -0.102308
0.089773 0.012197 -0.097707
0.095880 0.012773 -0.098598
0.098532 0.018615 -0.102335
0.093507 0.015124 -0.098692
0.095061 0.015611 -0.099193
0.087752 0.008481 -0.095212
0.092533 0.012347 -0.098671
0.090670 0.011085 -0.095586
0.089288 0.014201 -0.098291
0.091844 0.015458 -0.099773
0.093546 0.020667 -0.101998
0.092639 0.013916 -0.098423
0.091709 0.007157 -0.096103
0.085962 0.013856 -0.098831
0.091175 0.015218 -0.099327
0.091778 0.017700 -0.101804
0.089801 0.012484 -0.097094
0.088085 0.010179 -0.095796
0.093873 0.016056 -0.100394
0.086662 0.014261 -0.096822
0.085846 0.008621 -0.095895
0.089721 0.014208 -0.097735
0.093965 0.013122 -0.098249
0.088595 0.017552 -0.100433
0.084428 0.010725 -0.095732
0.088585 0.012258 -0.095775
0.092458 0.011172 -0.099678
0.095392 0.010665 -0.098812
0.287201 -0.011643 0.035335
0.308883 -0.002214 0.043402
0.310923 -0.007986 0.039744
0.304411 -0.007837 0.037256
0.301143 -0.012719 0.036392
0.313188 -0.015744 0.047244
0.305984 -0.001524 0.043287
0.306142 -0.000728 0.052777
0.302951 -0.003887 0.037543
0.296195 -0.039952 0.040009
0.306868 -0.020048 0.037087
0.306178 -0.029515 0.051354
0.291847 -0.000637 0.036216
0.301366 -0.002579 0.036962
0.299862 0.003075 0.045288
0.303283 -0.008199 0.036990
0.309033 -0.043684 0.040000
0.273700 -0.001185 0.040058
0.301745 0.000669 0.046828
0.296275 0.002181 0.038981
0.304078 -0.021999 0.040013
0.288980 -0.022747 0.049630
0.303461 -0.002824 0.039437
0.286015 -0.001794 0.054352
0.282895 -0.031454 0.040254
0.294978 -0.005248 0.038833
0.306780 -0.011061 0.039084
0.286221 0.003444 0.047102
0.272921 -0.011192 0.044134
0.299396 -0.008445 0.060695
0.297574 -0.018997 0.036133
0.309300 -0.028593 0.039216
-0.096163 -0.026964 -0.267139
-0.088866 -0.021813 -0.265866
-0.086717 -0.025491 -0.267809
-0.088962 -0.024918 -0.268308
-0.090231 -0.025248 -0.270861
-0.084864 -0.029804 -0.271167
-0.093090 -0.015174 -0.263930
-0.090091 -0.022658 -0.269068
-0.091882 -0.022555 -0.268300
-0.090142 -0.037340 -0.273438
-0.088969 -0.027977 -0.271785
-0.086721 -0.030946 -0.273823
-0.094807 -0.018709 -0.266219
-0.092496 -0.021007 -0.268195
-0.097360 -0.007376 -0.263054
-0.090335 -0.024398 -0.269868
-0.085405 -0.040510 -0.274846
-0.103848 -0.016281 -0.262253
-0.092220 -0.018060 -0.267235
-0.095408 -0.015247 -0.265349
-0.089761 -0.031263 -0.272995
-0.094738 -0.028908 -0.270211
-0.091750 -0.020546 -0.267382
-0.099666 -0.020145 -0.265177
-0.098282 -0.035441 -0.267866
-0.092166 -0.022704 -0.268782
-0.088860 -0.026852 -0.271281
-0.099381 -0.010805 -0.263458
-0.104125 -0.025928 -0.263523
-0.094493 -0.023255 -0.267364
-0.090359 -0.027334 -0.270688
-0.085419 -0.033346 -0.272799
0.041034 0.028068 -0.160636
0.036559 0.034480 -0.151288
0.040173 0.031031 -0.157444
0.044304 0.028087 -0.167680
0.039435 0.030935 -0.155793
0.036164 0.030851 -0.153265
0.037634 0.037930 -0.152420
0.034801 0.036796 -0.145050
0.042170 0.031622 -0.158307
0.041196 0.025683 -0.157369
0.041377 0.026807 -0.159718
0.037801 0.028618 -0.153047
0.038332 0.034536 -0.152256
0.040385 0.034485 -0.154276
0.035462 0.042009 -0.145662
0.040397 0.030641 -0.157658
0.042923 0.021757 -0.163265
0.037166 0.037565 -0.149626
0.035680 0.036853 -0.147912
0.040479 0.035154 -0.157398
0.038526 0.030442 -0.154894
0.036892 0.031196 -0.150064
0.036356 0.036304 -0.149683
0.035634 0.036125 -0.147153
0.040839 0.026966 -0.157137
0.038527 0.032392 -0.153418
0.038044 0.029391 -0.155326
0.034860 0.039966 -0.144364
0.038091 0.033090 -0.150181
0.035034 0.035138 -0.142155
0.043863 0.023453 -0.167660
0.045071 0.024128 -0.165761
0.042642 0.030176 -0.186131
0.038987 0.037060 -0.171584
0.042823 0.032720 -0.178988
0.046054 0.028914 -0.191768
0.042680 0.034169 -0.178651
0.040020 0.034456 -0.173083
0.038037 0.041788 -0.173404
0.037236 0.041219 -0.163226
0.043789 0.033569 -0.181648
0.047303 0.027303 -0.180821
0.044905 0.029295 -0.183835
0.042638 0.031648 -0.173191
0.040339 0.038292 -0.174169
0.042901 0.038012 -0.176092
0.036042 0.047518 -0.165536
0.043020 0.033160 -0.181193
0.048471 0.021239 -0.189507
0.039129 0.042627 -0.170707
0.038110 0.041585 -0.167877
0.041714 0.037163 -0.178975
0.042976 0.033883 -0.176376
0.041725 0.035794 -0.169935
0.037882 0.040593 -0.170139
0.039110 0.040857 -0.166853
0.045082 0.029169 -0.181954
0.042068 0.036138 -0.174992
0.041453 0.031994 -0.177195
0.037388 0.045394 -0.164295
0.041746 0.037349 -0.171298
0.038897 0.039650 -0.160312
0.045841 0.023425 -0.194702
0.049835 0.024880 -0.191670
0.292848 -0.045347 0.018778
0.321651 -0.039313 0.029266
0.321986 -0.043617 0.025478
0.316518 -0.043415 0.024682
0.308844 -0.045338 0.020032
0.324867 -0.046680 0.028342
0.316370 -0.035183 0.031703
0.318589 -0.037765 0.043189
0.311609 -0.042151 0.022866
0.304454 -0.058645 0.023172
0.312161 -0.048674 0.020509
0.313346 -0.051348 0.029965
0.298231 -0.039663 0.021577
0.308552 -0.041333 0.021606
0.307348 -0.024737 0.035058
0.313180 -0.044440 0.022050
0.314183 -0.059426 0.024339
0.280045 -0.036550 0.026721
0.309789 -0.037640 0.030671
0.303335 -0.034649 0.025520
0.311024 -0.049241 0.021435
0.296408 -0.050147 0.026263
0.314807 -0.041246 0.025490
0.286873 -0.039347 0.039405
0.292052 -0.054943 0.023352
0.301303 -0.043609 0.021656
0.316702 -0.045689 0.022952
0.290225 -0.031390 0.035607
0.277934 -0.044976 0.026363
0.302840 -0.039565 0.055539
0.305800 -0.047893 0.020149
0.317661 -0.051532 0.024930
0.147304 0.038906 -0.046506
0.175028 0.036563 -0.052781
0.184844 0.029045 -0.055310
0.174594 0.029734 -0.053398
0.163554 0.036074 -0.050700
0.186633 0.024408 -0.057324
0.162912 0.046902 -0.047684
0.170499 0.036031 -0.053201
0.160330 0.041071 -0.051038
0.171206 0.023785 -0.055711
0.171742 0.029035 -0.055070
0.177040 0.028899 -0.055060
0.144153 0.051972 -0.044476
0.154697 0.044450 -0.048286
0.148384 0.058682 -0.044779
0.168363 0.035510 -0.052187
0.183564 0.022088 -0.058807
0.132014 0.059273 -0.040740
0.155648 0.049413 -0.046558
0.146619 0.053586 -0.045436
0.168160 0.029903 -0.052580
0.156547 0.032266 -0.050100
0.163532 0.042195 -0.048871
0.142771 0.049231 -0.044505
0.153682 0.029564 -0.048969
0.154406 0.042331 -0.048513
0.176646 0.027947 -0.055852
0.138109 0.064350 -0.042942
0.139970 0.044994 -0.042944
0.152480 0.039768 -0.048387
0.161509 0.032771 -0.052191
0.184302 0.024725 -0.059576
-0.087033 -0.042898 -0.280663
-0.074377 -0.037510 -0.270227
-0.072793 -0.041709 -0.270831
-0.080779 -0.039943 -0.278413
-0.075862 -0.044318 -0.274285
-0.071216 -0.046327 -0.271607
-0.077883 -0.030868 -0.270000
-0.076035 -0.037998 -0.268825
-0.077101 -0.039372 -0.273628
-0.078319 -0.057027 -0.275937
-0.075417 -0.046230 -0.275473
-0.072771 -0.051682 -0.272228
-0.082344 -0.037151 -0.274538
-0.077705 -0.036793 -0.273487
-0.082730 -0.022412 -0.270444
-0.075471 -0.042318 -0.274015
-0.073261 -0.061965 -0.275894
-0.098073 -0.033871 -0.276249
-0.077675 -0.034569 -0.270013
-0.082868 -0.032524 -0.275758
-0.074711 -0.049169 -0.274791
-0.080932 -0.048609 -0.272270
-0.077078 -0.035696 -0.271916
-0.082842 -0.038726 -0.270160
-0.088224 -0.054788 -0.277414
-0.078521 -0.040949 -0.274195
-0.074285 -0.042945 -0.272611
-0.085393 -0.029942 -0.270258
-0.095322 -0.043065 -0.273820
-0.077014 -0.042767 -0.266435
-0.081111 -0.049450 -0.280297
-0.074032 -0.052738 -0.275937
0.107553 0.014860 -0.115177
0.107074 0.016787 -0.112197
0.111361 0.016009 -0.116415
0.114295 0.019569 -0.126155
0.105166 0.014044 -0.111452
0.103523 0.014075 -0.109000
0.113306 0.024146 -0.120783
0.101596 0.016919 -0.104988
0.112161 0.016870 -0.117238
0.100609 0.007646 -0.107278
0.107700 0.013807 -0.112175
0.100321 0.009492 -0.104968
0.107203 0.015063 -0.112384
0.109253 0.017597 -0.115610
0.107655 0.030352 -0.118446
0.108788 0.014930 -0.113663
0.104304 0.005475 -0.110176
0.102476 0.018290 -0.112880
0.104411 0.016354 -0.111003
0.110751 0.022519 -0.122919
0.102728 0.013109 -0.109802
0.099502 0.011606 -0.104979
0.108237 0.018749 -0.114135
0.099119 0.014501 -0.104807
0.102689 0.010514 -0.109691
0.105453 0.014784 -0.110524
0.105396 0.014260 -0.111987
0.103598 0.021177 -0.110334
0.098685 0.011685 -0.106428
0.098614 0.012729 -0.099005
0.110891 0.015216 -0.117372
0.108834 0.011875 -0.114796
0.163482 0.029447 -0.052302
0.187437 0.026554 -0.061244
0.196245 0.020160 -0.064347
0.185975 0.022265 -0.061760
0.175800 0.026109 -0.055921
0.194878 0.016926 -0.063398
0.176732 0.035824 -0.057570
0.181151 0.025989 -0.058829
0.174614 0.030019 -0.058504
0.182529 0.015293 -0.059815
0.182446 0.020942 -0.059809
0.185493 0.021013 -0.059917
0.160836 0.037672 -0.050889
0.169835 0.031940 -0.054385
0.163069 0.045880 -0.053263
0.179699 0.025570 -0.058231
0.193663 0.012014 -0.062798
0.148128 0.043330 -0.047310
0.168559 0.036797 -0.053437
0.164017 0.039033 -0.054307
0.178982 0.023025 -0.057220
0.171135 0.025213 -0.054750
0.175591 0.031438 -0.056425
0.158986 0.035713 -0.050420
0.168496 0.022396 -0.053590
0.169244 0.030418 -0.053763
0.186320 0.021043 -0.061110
0.154525 0.047415 -0.049659
0.156204 0.032472 -0.048811
0.167590 0.029679 -0.052747
0.175389 0.024913 -0.058591
0.193641 0.017500 -0.064832
0.039266 0.041406 -0.164491
0.037002 0.047581 -0.155221
0.041115 0.042887 -0.162709
0.040635 0.040042 -0.175351
0.037423 0.046809 -0.162416
0.034068 0.045369 -0.157649
0.034608 0.059232 -0.156024
0.031703 0.052967 -0.147231
0.039186 0.043154 -0.164207
0.039747 0.036977 -0.164511
0.039082 0.043878 -0.164565
0.035635 0.042324 -0.159167
0.035317 0.045583 -0.157543
0.036034 0.045738 -0.159912
0.030355 0.074223 -0.146402
0.037110 0.043683 -0.162181
0.041815 0.028115 -0.172752
0.030838 0.054265 -0.152990
0.031970 0.050358 -0.155019
0.035738 0.048843 -0.163135
0.034589 0.045689 -0.161522
0.034219 0.048213 -0.158296
0.032736 0.050132 -0.154607
0.031492 0.048818 -0.153266
0.040551 0.043200 -0.164138
0.035812 0.044424 -0.159617
0.033384 0.043857 -0.160521
0.029813 0.058884 -0.145252
0.035322 0.045453 -0.157961
0.030474 0.049051 -0.142506
0.041187 0.038047 -0.173692
0.043279 0.039444 -0.172535
0.049365 -0.016976 -0.262744
0.053461 -0.003260 -0.216019
0.056574 -0.009151 -0.236284
0.053325 -0.016499 -0.274773
0.054691 -0.009717 -0.238960
0.058460 -0.004790 -0.215910
0.045359 0.005560 -0.228226
0.050796 0.010870 -0.195983
0.052464 -0.010914 -0.256538
0.063466 -0.020952 -0.235658
0.056717 -0.016468 -0.253943
0.058534 -0.013846 -0.218944
0.049422 0.002063 -0.230463
0.051242 0.001078 -0.239360
0.044211 0.015487 -0.205546
0.054097 -0.010416 -0.248461
0.063444 -0.031181 -0.260411
0.046381 0.011996 -0.222973
0.049477 0.008053 -0.208711
0.047579 -0.001209 -0.249300
0.058439 -0.011227 -0.227620
0.055935 -0.006946 -0.212204
0.047682 0.004662 -0.218403
0.053894 0.006169 -0.205614
0.055534 -0.020132 -0.248253
0.054224 -0.003372 -0.230037
0.057364 -0.011040 -0.231491
0.048896 0.014924 -0.200244
0.055920 -0.002525 -0.220612
0.054454 0.004700 -0.194203
0.052147 -0.029869 -0.282440
0.063457 -0.028543 -0.270337
0.056879 0.027282 -0.122509
0.058063 0.030436 -0.120918
0.061985 0.028645 -0.125002
0.064300 0.028637 -0.130708
0.056964 0.028692 -0.121075
0.057112 0.027373 -0.119162
0.060476 0.032873 -0.124251
0.055263 0.030136 -0.117503
0.060560 0.030272 -0.124316
0.055317 0.025645 -0.120019
0.058482 0.026893 -0.122023
0.055491 0.026831 -0.117638
0.057119 0.029935 -0.120780
0.058798 0.030389 -0.122152
0.056852 0.035971 -0.121460
0.059591 0.028541 -0.122787
0.058682 0.024256 -0.122553
0.053558 0.031064 -0.120282
0.055863 0.031142 -0.119688
0.058763 0.033125 -0.125109
0.055831 0.027616 -0.119464
0.054536 0.026818 -0.116781
0.057707 0.031225 -0.122147
0.052741 0.030326 -0.116066
0.055225 0.025882 -0.119684
0.056653 0.029429 -0.119252
0.057864 0.027274 -0.121309
0.053514 0.032796 -0.118190
0.053492 0.027364 -0.117601
0.053412 0.027741 -0.114059
0.059220 0.025811 -0.126266
0.063119 0.026284 -0.125188
0.041773 0.036696 -0.175552
0.037271 0.044148 -0.163373
0.041832 0.039194 -0.170259
0.045077 0.034282 -0.182667
0.040620 0.041336 -0.168697
0.037049 0.041459 -0.164921
0.037470 0.047556 -0.163875
0.034479 0.047376 -0.154855
0.042839 0.040078 -0.172025
0.044738 0.034015 -0.172392
0.043051 0.035845 -0.174389
0.039187 0.039458 -0.164663
0.038752 0.045122 -0.164819
0.041422 0.043990 -0.166682
0.034475 0.053496 -0.156162
0.041552 0.039652 -0.171776
0.046687 0.027509 -0.180944
0.036829 0.048463 -0.161140
0.036072 0.048227 -0.158819
0.040318 0.043674 -0.169327
0.040587 0.041134 -0.167492
0.038122 0.042919 -0.161882
0.036440 0.046943 -0.161117
0.035811 0.047816 -0.157293
0.042981 0.036689 -0.172327
0.039435 0.042864 -0.165513
0.039829 0.038468 -0.168435
0.034531 0.051761 -0.155344
0.039114 0.044653 -0.162069
0.034817 0.046179 -0.151184
0.044847 0.030077 -0.183647
0.048132 0.031917 -0.182440
0.105821 0.019865 -0.112277
0.114233 0.023589 -0.114130
0.118128 0.020510 -0.117923
0.114984 0.021743 -0.118513
0.107210 0.019752 -0.111810
0.112841 0.019461 -0.113262
0.113717 0.027766 -0.115871
0.108986 0.023092 -0.110764
0.112567 0.023242 -0.114997
0.106535 0.015174 -0.109981
0.110799 0.018731 -0.113936
0.107941 0.017915 -0.109507
0.105237 0.022609 -0.111892
0.108741 0.023072 -0.114367
0.107561 0.031774 -0.112565
0.110833 0.020932 -0.114785
0.111986 0.013874 -0.112292
0.101032 0.023462 -0.110372
0.106505 0.023813 -0.111087
0.108021 0.025830 -0.115069
0.107175 0.019582 -0.110613
0.103643 0.017619 -0.107714
0.110154 0.024024 -0.114107
0.099996 0.022861 -0.106626
0.103453 0.016233 -0.109374
0.105484 0.021759 -0.110945
0.111584 0.019502 -0.113912
0.102240 0.028020 -0.109609
0.099372 0.018995 -0.107127
0.102641 0.020530 -0.106610
0.110848 0.018689 -0.114905
0.114674 0.017251 -0.116091
0.035923 0.034119 -0.164372
0.031033 0.038797 -0.158189
0.035270 0.035369 -0.163853
0.040155 0.031014 -0.173428
0.034925 0.038197 -0.160903
0.030382 0.036855 -0.158994
0.032487 0.040416 -0.158563
0.028883 0.040486 -0.153403
0.037143 0.036177 -0.163888
0.036809 0.033156 -0.164355
0.036278 0.033711 -0.164449
0.032444 0.037181 -0.158795
0.034489 0.039238 -0.157943
0.035898 0.038016 -0.159601
0.030015 0.044781 -0.152999
0.036292 0.035650 -0.163283
0.039143 0.027546 -0.170686
0.031466 0.041025 -0.155832
0.031174 0.041619 -0.154918
0.035382 0.039023 -0.161753
0.033858 0.037548 -0.160136
0.032385 0.038891 -0.157298
0.031468 0.040686 -0.156855
0.030578 0.041434 -0.153365
0.036294 0.035250 -0.162747
0.034123 0.038088 -0.157687
0.033232 0.034633 -0.161473
0.029569 0.043234 -0.152085
0.033007 0.039276 -0.156333
0.029395 0.039746 -0.149367
0.038431 0.029601 -0.170910
0.041734 0.031446 -0.171592
-0.100113 -0.013929 -0.236702
-0.091977 -0.002787 -0.212099
-0.093582 -0.007174 -0.224609
-0.098532 -0.013468 -0.243956
-0.097282 -0.010735 -0.223958
-0.092496 -0.007669 -0.211382
-0.096925 -0.002857 -0.221598
-0.092956 0.000627 -0.203936
-0.097974 -0.009612 -0.232715
-0.095723 -0.015560 -0.221781
-0.098417 -0.013944 -0.233719
-0.095250 -0.011861 -0.215524
-0.097940 -0.004601 -0.220493
-0.097501 -0.005896 -0.225537
-0.096494 0.003433 -0.210221
-0.097450 -0.009760 -0.229523
-0.097068 -0.020821 -0.233798
-0.100812 -0.004448 -0.220054
-0.094568 -0.002407 -0.210762
-0.100143 -0.006755 -0.231481
-0.093987 -0.009513 -0.218655
-0.097597 -0.009244 -0.215395
-0.097176 -0.003208 -0.215653
-0.094140 -0.003183 -0.208758
-0.101122 -0.015968 -0.230127
-0.096268 -0.006628 -0.221753
-0.094860 -0.009086 -0.219729
-0.095477 0.000850 -0.207448
-0.098038 -0.006656 -0.219014
-0.091088 -0.002754 -0.200485
-0.100544 -0.019605 -0.245580
-0.095487 -0.018729 -0.242048
0.098162 0.014161 -0.113237
0.106099 0.018314 -0.114936
0.110326 0.015812 -0.118156
0.106086 0.016355 -0.118186
0.099068 0.014447 -0.113235
0.104302 0.014369 -0.114690
0.105347 0.020448 -0.116044
0.101123 0.017948 -0.112449
0.102938 0.017696 -0.115394
0.098761 0.011013 -0.112259
0.101564 0.013299 -0.115057
0.099776 0.013019 -0.111974
0.097409 0.017203 -0.112854
0.100184 0.017608 -0.114935
0.100046 0.023051 -0.113227
0.101919 0.015636 -0.115490
0.102588 0.009450 -0.114376
0.094385 0.017871 -0.111881
0.098798 0.018281 -0.112747
0.099566 0.019476 -0.115189
0.098929 0.014204 -0.112367
0.096475 0.012852 -0.110617
0.101292 0.018146 -0.114960
0.094118 0.017547 -0.109350
0.096387 0.011517 -0.111494
0.097808 0.016333 -0.112368
0.102837 0.014536 -0.114789
0.095610 0.020527 -0.110908
0.094400 0.014154 -0.109884
0.095665 0.015159 -0.108808
0.101530 0.013450 -0.114993
0.106090 0.012075 -0.117051
0.183468 0.025508 -0.061461
0.204227 0.021338 -0.065464
0.215380 0.015383 -0.067404
0.202628 0.019133 -0.066832
0.195305 0.022354 -0.064026
0.214252 0.012037 -0.068053
0.195168 0.029691 -0.062028
0.199117 0.023426 -0.064731
0.191805 0.026964 -0.064695
0.202788 0.008904 -0.068010
0.201751 0.016705 -0.067487
0.205813 0.015904 -0.066497
0.181467 0.034438 -0.060058
0.188482 0.029571 -0.062464
0.183207 0.038940 -0.059685
0.197751 0.022781 -0.065131
0.214416 0.004567 -0.069764
0.172146 0.039652 -0.057672
0.188770 0.032939 -0.060619
0.182738 0.035336 -0.060893
0.199043 0.018019 -0.065830
0.190400 0.020580 -0.063406
0.194555 0.027105 -0.062724
0.180424 0.033361 -0.059959
0.187932 0.016373 -0.063600
0.188453 0.028389 -0.062643
0.205016 0.016940 -0.067852
0.176925 0.042452 -0.058824
0.177806 0.029827 -0.059073
0.188119 0.026685 -0.061305
0.193380 0.020585 -0.065513
0.212743 0.011903 -0.070573
0.040392 0.032288 -0.186982
0.036282 0.038239 -0.175243
0.037590 0.035446 -0.182249
0.041037 0.029672 -0.195992
0.039844 0.038865 -0.183275
0.035575 0.038415 -0.178244
0.034629 0.046732 -0.174596
0.032856 0.044333 -0.168826
0.039892 0.035265 -0.186438
0.043591 0.026179 -0.187355
0.041350 0.034392 -0.187029
0.038409 0.035133 -0.181351
0.037046 0.039343 -0.176876
0.037566 0.037760 -0.180053
0.031205 0.056005 -0.165490
0.039164 0.035263 -0.184128
0.043687 0.016056 -0.198526
0.033532 0.044871 -0.172443
0.034541 0.043351 -0.172721
0.036273 0.039442 -0.183094
0.037667 0.037426 -0.181956
0.037307 0.041033 -0.178783
0.034438 0.042350 -0.172753
0.034462 0.041236 -0.173579
0.042604 0.033527 -0.186472
0.037664 0.036823 -0.179204
0.036440 0.034656 -0.180838
0.031776 0.048397 -0.165834
0.037975 0.038800 -0.177308
0.032124 0.042142 -0.167320
0.042213 0.026573 -0.196063
0.044455 0.028922 -0.194846
0.047454 -0.017194 -0.260197
0.046593 -0.005957 -0.231868
0.049729 -0.011540 -0.244999
0.048984 -0.015655 -0.265114
0.046479 -0.013139 -0.246504
0.047428 -0.010610 -0.232013
0.045007 -0.001236 -0.239677
0.045224 0.001342 -0.217689
0.048405 -0.012271 -0.255282
0.051477 -0.020971 -0.244507
0.048735 -0.018854 -0.255384
0.047582 -0.016610 -0.234969
0.045414 -0.004760 -0.240971
0.047892 -0.004370 -0.246563
0.044390 0.004511 -0.223981
0.046980 -0.012328 -0.251620
0.051765 -0.027382 -0.259323
0.046581 0.000983 -0.235117
0.044474 -0.001276 -0.226010
0.047289 -0.005726 -0.252480
0.048125 -0.013524 -0.239674
0.046170 -0.011658 -0.227893
0.044090 -0.002052 -0.231662
0.045957 -0.002573 -0.225651
0.048231 -0.020402 -0.250541
0.046812 -0.008610 -0.240843
0.047744 -0.013434 -0.241031
0.046336 0.003465 -0.221377
0.048219 -0.008145 -0.233427
0.045884 -0.002022 -0.216993
0.049643 -0.025948 -0.271072
0.052062 -0.026490 -0.265111
0.047186 -0.004525 -0.240037
0.045537 0.002851 -0.228976
0.045859 0.000434 -0.235588
0.047108 -0.005819 -0.243235
0.046703 -0.001798 -0.234866
0.043671 -0.000146 -0.233000
0.044714 0.007577 -0.230096
0.044034 0.008407 -0.222480
0.047339 -0.000563 -0.237584
0.047556 -0.008129 -0.237389
0.047180 -0.005031 -0.238707
0.045570 -0.005135 -0.233024
0.044883 0.003142 -0.230615
0.046336 0.001869 -0.234182
0.043359 0.011623 -0.220765
0.047218 -0.003003 -0.237178
0.048168 -0.012704 -0.243684
0.043198 0.006789 -0.229031
0.044054 0.005214 -0.225491
0.045753 0.004200 -0.235192
0.046028 -0.003509 -0.234492
0.045458 -0.000639 -0.230186
0.045161 0.004764 -0.228436
0.044241 0.004235 -0.226849
0.048050 -0.005744 -0.238289
0.046283 -0.000211 -0.231713
0.045728 -0.003615 -0.234240
0.043327 0.010464 -0.219416
0.045252 -0.000228 -0.230943
0.044209 0.004017 -0.221254
0.048653 -0.008736 -0.244676
0.048583 -0.009260 -0.243947
0.055347 -0.004903 -0.192483
0.053705 0.003416 -0.174856
0.055235 0.000331 -0.185392
0.058663 -0.004626 -0.203063
0.055283 -0.000672 -0.183041
0.051665 0.000656 -0.176354
0.054859 0.007701 -0.180758
0.052199 0.008302 -0.167543
0.056492 -0.001558 -0.191243
0.054809 -0.005911 -0.184402
0.055392 -0.004501 -0.188787
0.052960 -0.002149 -0.180358
0.054667 0.002787 -0.179529
0.055820 0.002155 -0.183899
0.053266 0.012601 -0.169293
0.055866 -0.002800 -0.187528
0.055668 -0.009904 -0.193259
0.053017 0.006195 -0.177113
0.053210 0.005542 -0.172044
0.055504 0.004392 -0.190103
0.053673 -0.001635 -0.180471
0.053069 0.000474 -0.175836
0.053705 0.005009 -0.175127
0.053556 0.004573 -0.171897
0.055195 -0.004118 -0.186247
0.054965 0.000130 -0.179851
0.053861 -0.002809 -0.180405
0.052424 0.009924 -0.166422
0.054461 0.001090 -0.176863
0.051963 0.005512 -0.166799
0.056340 -0.009153 -0.201813
0.057857 -0.007911 -0.197658
0.210085 -0.001367 -0.070133
0.228628 -0.000847 -0.078195
0.234323 -0.006101 -0.080928
0.226657 -0.005111 -0.079101
0.218882 -0.003425 -0.073549
0.233255 -0.009795 -0.079874
0.220172 0.006455 -0.075352
0.222713 -0.001749 -0.075694
0.218640 0.000666 -0.075671
0.224370 -0.011818 -0.076160
0.224032 -0.006660 -0.076035
0.226099 -0.007549 -0.076535
0.207772 0.006078 -0.069522
0.214665 0.001801 -0.072212
0.210313 0.013074 -0.071644
0.221781 -0.003326 -0.075293
0.232176 -0.013634 -0.078676
0.198449 0.009935 -0.066557
0.212972 0.006534 -0.072048
0.211276 0.007581 -0.072647
0.221101 -0.006169 -0.074626
0.215555 -0.003588 -0.072541
0.218538 0.002867 -0.074404
0.206129 0.004309 -0.069372
0.214572 -0.006095 -0.071340
0.213690 0.000598 -0.071584
0.226863 -0.006816 -0.077556
0.203186 0.013779 -0.068959
0.204127 0.001448 -0.067984
0.212878 -0.000260 -0.070981
0.219609 -0.004134 -0.076100
0.232947 -0.010678 -0.080686
-0.102399 -0.007963 -0.261924
-0.098714 0.002127 -0.250361
-0.097221 -0.002248 -0.255702
-0.101563 -0.005488 -0.262551
-0.101040 -0.008412 -0.257163
-0.095834 -0.010847 -0.252401
-0.101780 0.004154 -0.252510
-0.102033 0.003117 -0.248607
-0.101948 -0.000578 -0.257503
-0.098220 -0.022695 -0.258081
-0.098089 -0.012006 -0.260930
-0.097607 -0.016954 -0.254184
-0.103581 0.002298 -0.253614
-0.102448 0.001618 -0.255857
-0.104824 0.007838 -0.248376
-0.102075 -0.003729 -0.257212
-0.094363 -0.031054 -0.263649
-0.108195 0.002436 -0.254658
-0.102333 0.003728 -0.250272
-0.104713 0.003310 -0.257500
-0.098958 -0.012643 -0.256660
-0.101522 -0.009884 -0.254455
-0.103422 0.003860 -0.251921
-0.102060 0.000565 -0.251612
-0.102596 -0.018339 -0.261654
-0.101209 -0.001026 -0.255478
-0.100582 -0.006151 -0.254171
-0.104347 0.005870 -0.248183
-0.104496 -0.003867 -0.254898
-0.099840 -0.003526 -0.248753
-0.100438 -0.014233 -0.264567
-0.094583 -0.021499 -0.264563
0.134564 0.018256 -0.152638
0.136017 0.023814 -0.145944
0.142334 0.017209 -0.151610
0.139241 0.016606 -0.157792
0.135796 0.019479 -0.149040
0.138513 0.016884 -0.148952
0.131577 0.029821 -0.144689
0.130372 0.026680 -0.140809
0.136456 0.022843 -0.150404
0.142922 0.009139 -0.151435
0.140267 0.014417 -0.153320
0.137085 0.014174 -0.146324
0.128235 0.026310 -0.145564
0.133653 0.026146 -0.147943
0.124219 0.037886 -0.140095
0.136426 0.020090 -0.151197
0.147544 0.004041 -0.157176
0.124522 0.032273 -0.141913
0.127708 0.029321 -0.141670
0.129699 0.027310 -0.148018
0.137067 0.017588 -0.148473
0.131641 0.017762 -0.143142
0.130407 0.026946 -0.145271
0.125591 0.028341 -0.138970
0.135491 0.012228 -0.150368
0.131988 0.023254 -0.146208
0.138360 0.016662 -0.150714
0.122876 0.034960 -0.138383
0.128575 0.023307 -0.141772
0.128625 0.023046 -0.137816
0.139220 0.010897 -0.157472
0.146141 0.009843 -0.158735
0.127314 0.036264 -0.142389
0.123416 0.045145 -0.129949
0.128543 0.040238 -0.135051
0.128442 0.036260 -0.149275
0.124662 0.038635 -0.135868
0.126439 0.036811 -0.130949
0.122943 0.048542 -0.132077
0.117666 0.047430 -0.122979
0.126931 0.043023 -0.140774
0.129608 0.013403 -0.137175
0.130210 0.033760 -0.141531
0.124346 0.026624 -0.128388
0.122869 0.048161 -0.131752
0.124378 0.045738 -0.134520
0.117597 0.052416 -0.125910
0.125963 0.042207 -0.137633
0.133535 -0.004471 -0.150676
0.118797 0.049600 -0.129504
0.119109 0.049041 -0.127636
0.123561 0.046911 -0.139412
0.124981 0.033863 -0.134410
0.119547 0.036992 -0.126466
0.121222 0.048567 -0.129362
0.115358 0.046883 -0.124420
0.125740 0.024792 -0.140495
0.122202 0.045113 -0.131007
0.124523 0.038982 -0.134084
0.116204 0.051426 -0.124071
0.118884 0.040601 -0.127533
0.115475 0.041279 -0.117499
0.128995 0.027448 -0.150104
0.134551 0.021761 -0.147655
0.051441 -0.043961 -0.290000
0.048706 -0.027207 -0.264099
0.049694 -0.031528 -0.275078
0.053732 -0.045184 -0.297593
0.051338 -0.032980 -0.277364
0.046554 -0.030099 -0.269495
0.048106 -0.016300 -0.264700
0.046349 -0.019725 -0.252372
0.052464 -0.034726 -0.283052
0.053975 -0.051369 -0.284768
0.052166 -0.042764 -0.286049
0.048854 -0.040724 -0.274310
0.049565 -0.025453 -0.267191
0.050440 -0.028627 -0.272552
0.045675 -0.009552 -0.249560
0.052064 -0.037334 -0.280097
0.050695 -0.066323 -0.303031
0.047782 -0.018621 -0.263142
0.047426 -0.021947 -0.256648
0.049338 -0.025981 -0.279995
0.050512 -0.037570 -0.275269
0.049414 -0.031381 -0.267442
0.048425 -0.021619 -0.259248
0.048203 -0.025713 -0.259883
0.051638 -0.044817 -0.286575
0.049508 -0.033333 -0.269032
0.050255 -0.038257 -0.272788
0.046122 -0.014178 -0.248553
0.050417 -0.031733 -0.266288
0.045322 -0.026434 -0.253237
0.053479 -0.056127 -0.302651
0.055265 -0.051683 -0.296695
0.048121 0.000788 -0.240317
0.046074 0.005839 -0.230250
0.046200 0.004210 -0.236411
0.047529 -0.000288 -0.244068
0.047201 0.002959 -0.235228
0.044316 0.004538 -0.232263
0.046146 0.008555 -0.232893
0.045052 0.009728 -0.224844
0.047582 0.002817 -0.239007
0.047490 -0.000902 -0.236274
0.047213 0.000883 -0.238807
0.045715 0.001314 -0.232257
0.046849 0.005710 -0.232541
0.047740 0.005101 -0.235539
0.045586 0.011620 -0.225422
0.047595 0.001703 -0.237981
0.047455 -0.003744 -0.242024
0.046370 0.007833 -0.231364
0.045650 0.007255 -0.227439
0.047426 0.006303 -0.237163
0.046504 0.002049 -0.233567
0.046221 0.004222 -0.230026
0.046312 0.007097 -0.230299
0.045966 0.006980 -0.227759
0.048460 0.000604 -0.237753
0.047341 0.004014 -0.232601
0.046423 0.001557 -0.234131
0.045823 0.010497 -0.223612
0.047145 0.003920 -0.231498
0.045202 0.007375 -0.223571
0.048514 -0.002230 -0.244818
0.047900 -0.002108 -0.243420
-0.092707 -0.050498 -0.286485
-0.072112 -0.040315 -0.266643
-0.071172 -0.047857 -0.273250
-0.084464 -0.051772 -0.284556
-0.083285 -0.054795 -0.280178
-0.067788 -0.056389 -0.268121
-0.080372 -0.034544 -0.267977
-0.076942 -0.040930 -0.262566
-0.080252 -0.044807 -0.278480
-0.084999 -0.068534 -0.278087
-0.080748 -0.058670 -0.285655
-0.075362 -0.064830 -0.268983
-0.091864 -0.041630 -0.275972
-0.084247 -0.042705 -0.277717
-0.086641 -0.024192 -0.265247
-0.079123 -0.049823 -0.278298
-0.073931 -0.072540 -0.280087
-0.102285 -0.038255 -0.275451
-0.082086 -0.039617 -0.266490
-0.090169 -0.038051 -0.278069
-0.078246 -0.057776 -0.274704
-0.089937 -0.060189 -0.271820
-0.080533 -0.040173 -0.270589
-0.091326 -0.044096 -0.268699
-0.095564 -0.065107 -0.284288
-0.085565 -0.047975 -0.277614
-0.076183 -0.051311 -0.273088
-0.093051 -0.031439 -0.266005
-0.098680 -0.050565 -0.276652
-0.080912 -0.050499 -0.260125
-0.087047 -0.061784 -0.289691
-0.073270 -0.063180 -0.284792
0.242463 -0.026168 -0.083361
0.259146 -0.028587 -0.088727
0.266603 -0.034425 -0.091596
0.257612 -0.031094 -0.092744
0.248941 -0.030135 -0.084111
0.263683 -0.037974 -0.088465
0.251024 -0.022082 -0.087408
0.252032 -0.028768 -0.085295
0.248962 -0.026095 -0.088136
0.256262 -0.038396 -0.086656
0.254441 -0.033769 -0.087099
0.255795 -0.034165 -0.085532
0.238603 -0.021519 -0.081654
0.244943 -0.024826 -0.083702
0.240167 -0.015712 -0.084394
0.250832 -0.030019 -0.085744
0.264227 -0.041737 -0.088163
0.229345 -0.017307 -0.080210
0.242240 -0.021509 -0.083059
0.242844 -0.019877 -0.087021
0.251077 -0.032072 -0.084875
0.246501 -0.028692 -0.083740
0.247870 -0.024938 -0.084860
0.237785 -0.022147 -0.081896
0.246552 -0.031173 -0.083483
0.244240 -0.026017 -0.083351
0.256450 -0.033448 -0.086872
0.233691 -0.015025 -0.082110
0.236562 -0.023881 -0.081954
0.244681 -0.026427 -0.082297
0.251735 -0.030030 -0.089653
0.263664 -0.037568 -0.091355
0.251461 -0.056082 -0.097548
0.277994 -0.053899 -0.076499
0.284239 -0.061330 -0.081216
0.266889 -0.059915 -0.106256
0.266007 -0.061335 -0.083260
0.284052 -0.067120 -0.076949
0.272336 -0.047354 -0.081151
0.276788 -0.055937 -0.074675
0.267863 -0.055926 -0.090227
0.270751 -0.069679 -0.087321
0.267751 -0.065909 -0.091187
0.279477 -0.066537 -0.078413
0.258495 -0.052341 -0.081350
0.263379 -0.053478 -0.082957
0.264366 -0.041681 -0.080193
0.270863 -0.059019 -0.082114
0.281705 -0.076523 -0.086984
0.245592 -0.048111 -0.088800
0.268480 -0.051077 -0.076980
0.256276 -0.047518 -0.093190
0.271808 -0.061505 -0.078870
0.263584 -0.061178 -0.084245
0.270995 -0.053258 -0.077776
0.262914 -0.053501 -0.079926
0.257440 -0.065745 -0.094005
0.265657 -0.055866 -0.079705
0.275280 -0.060752 -0.077091
0.257612 -0.046493 -0.081599
0.253812 -0.056204 -0.088043
0.271031 -0.056837 -0.076545
0.258923 -0.066724 -0.103070
0.278878 -0.070006 -0.096559
0.049059 0.002185 -0.240959
0.046646 0.006909 -0.230235
0.047424 0.005497 -0.237038
0.048938 0.001376 -0.245714
0.047633 0.004250 -0.235541
0.044397 0.006332 -0.231628
0.046869 0.010423 -0.233237
0.044926 0.012037 -0.222768
0.048904 0.003864 -0.240447
