-0.021760 -0.501434 0.008355
-0.037847 -0.478547 0.006332
-0.026460 -0.508318 -0.000803
-0.035255 -0.496593 -0.001929
-0.045660 -0.497082 -0.013238
-0.037847 -0.468311 0.006332
-0.035255 -0.486406 -0.001929
-0.037847 -0.458074 0.006332
-0.040156 -0.485881 -0.010942
0.006370 -0.505514 0.013156
-0.045660 -0.476689 -0.013238
0.000063 -0.501869 0.008394
-0.036734 -0.475566 -0.007149
-0.037847 -0.442720 0.006332
-0.045660 -0.466493 -0.013238
-0.036734 -0.465393 -0.007149
0.013300 -0.488700 0.017107
-0.035255 -0.450754 -0.001929
-0.045660 -0.456296 -0.013238
-0.037847 -0.427365 0.006332
-0.035255 -0.435474 -0.001929
-0.040156 -0.445179 -0.010942
-0.018161 -0.478550 -0.011554
-0.037847 -0.412011 0.006332
-0.045660 -0.435903 -0.013238
0.001848 -0.469012 0.004929
-0.013578 -0.460055 -0.003422
-0.007855 -0.475016 -0.006047
-0.037847 -0.401775 0.006332
0.000681 -0.489877 -0.008465
-0.035255 -0.420194 -0.001929
0.022221 -0.509968 -0.003656
-0.045660 -0.420608 -0.013238
-0.037847 -0.391538 0.006332
-0.018161 -0.422625 0.004083
-0.026257 -0.395907 0.009920
-0.037847 -0.381302 0.006332
-0.035255 -0.399821 -0.001929
-0.040156 -0.409565 -0.010942
-0.045660 -0.400215 -0.013238
-0.037847 -0.371066 0.006332
0.028546 -0.480122 0.001174
0.020855 -0.450350 0.009012
-0.036734 -0.389099 -0.007149
-0.045660 -0.384920 -0.013238
-0.001100 -0.410381 0.007969
-0.037847 -0.355711 0.006332
-0.023541 -0.390912 -0.001589
-0.045660 -0.374724 -0.013238
-0.009290 -0.412243 -0.004308
-0.037847 -0.345475 0.006332
-0.036734 -0.373841 -0.007149
-0.037847 -0.335239 0.006332
0.021184 -0.441553 -0.001658
-0.045660 -0.359429 -0.013238
-0.004781 -0.389585 0.001948
-0.036734 -0.358582 -0.007149
-0.037847 -0.325002 0.006332
-0.036734 -0.348409 -0.007149
0.021211 -0.426038 -0.001243
-0.021188 -0.361041 -0.001645
0.007529 -0.411616 -0.004456
-0.045660 -0.344134 -0.013238
-0.037847 -0.314766 0.006332
-0.036734 -0.338237 -0.007149
-0.035255 -0.328515 -0.001929
-0.025402 -0.334497 0.001282
-0.037847 -0.304530 0.006332
-0.006630 -0.365554 0.000155
0.007116 -0.392077 -0.003238
-0.026642 -0.313580 0.008146
-0.040156 -0.328161 -0.010942
-0.035255 -0.313236 -0.001929
-0.045660 -0.318642 -0.013238
0.029145 -0.385118 0.010916
-0.037847 -0.289175 0.006332
-0.016667 -0.327449 0.003241
-0.045660 -0.308446 -0.013238
-0.037847 -0.278939 0.006332
0.015612 -0.393133 -0.008865
-0.036734 -0.302633 -0.007149
-0.015008 -0.341252 -0.010549
-0.037847 -0.268703 0.006332
-0.036734 -0.292460 -0.007149
-0.026611 -0.305282 -0.006896
-0.045660 -0.288053 -0.013238
-0.037847 -0.258466 0.006332
-0.027834 -0.265055 0.008972
-0.012535 -0.316765 -0.004640
0.024232 -0.371796 -0.004504
0.021704 -0.351141 0.002383
0.004270 -0.345168 -0.007600
-0.020496 -0.284668 0.002069
-0.036734 -0.277202 -0.007149
-0.045660 -0.272758 -0.013238
0.020740 -0.353121 -0.002012
-0.037847 -0.243112 0.006332
-0.009299 -0.296632 -0.001189
-0.036734 -0.261943 -0.007149
0.005962 -0.317564 -0.001754
-0.035255 -0.252116 -0.001929
-0.026422 -0.240647 0.010142
-0.045660 -0.257463 -0.013238
-0.037847 -0.227758 0.006332
-0.019090 -0.278496 -0.004586
0.026575 -0.322953 0.005563
0.022148 -0.343035 -0.007833
-0.040156 -0.246756 -0.010942
-0.045660 -0.237070 -0.013238
-0.037847 -0.207285 0.006332
-0.036734 -0.236511 -0.007149
-0.026876 -0.243142 -0.004419
-0.004754 -0.263387 0.001087
0.008924 -0.299157 -0.005601
0.022731 -0.320442 -0.006183
-0.033289 -0.209923 0.004015
-0.037847 -0.197049 0.006332
-0.013108 -0.242914 0.001465
-0.040156 -0.226405 -0.010942
-0.024439 -0.255227 -0.013482
0.018384 -0.290128 0.001147
-0.036734 -0.216166 -0.007149
-0.021982 -0.207073 0.007327
-0.045660 -0.211579 -0.013238
-0.037847 -0.181694 0.006332
0.023870 -0.303625 -0.005725
0.010593 -0.267297 -0.002120
-0.045660 -0.201382 -0.013238
-0.036734 -0.200908 -0.007149
-0.037847 -0.171458 0.006332
-0.035255 -0.190997 -0.001929
-0.027307 -0.199133 -0.004288
0.025319 -0.268923 0.002859
-0.037847 -0.161222 0.006332
0.024195 -0.269998 0.000453
-0.029780 -0.189530 -0.002178
0.020669 -0.285539 -0.010308
-0.002836 -0.231684 -0.002732
-0.045660 -0.186087 -0.013238
0.017238 -0.251196 0.001718
-0.028529 -0.173432 0.004300
-0.036734 -0.180562 -0.007149
0.015111 -0.254278 -0.006076
-0.045660 -0.170792 -0.013238
-0.036734 -0.170390 -0.007149
-0.007669 -0.225130 -0.012572
-0.037847 -0.135631 0.006332
0.030034 -0.249945 0.003027
-0.036734 -0.160217 -0.007149
-0.035255 -0.150251 -0.001929
-0.045660 -0.155498 -0.013238
0.001326 -0.213108 -0.005646
-0.018248 -0.164446 0.002802
-0.037847 -0.120276 0.006332
-0.035255 -0.140065 -0.001929
-0.033469 -0.150184 -0.006399
0.020090 -0.222573 -0.000221
-0.025410 -0.160546 -0.006979
0.013503 -0.211486 -0.001615
-0.004969 -0.179855 -0.000223
-0.021449 -0.132527 0.009081
-0.037847 -0.110040 0.006332
-0.040156 -0.139913 -0.010942
0.022725 -0.226064 -0.004658
-0.035255 -0.124785 -0.001929
-0.045660 -0.130006 -0.013238
0.029345 -0.206221 0.005187
0.024833 -0.174577 0.016996
-0.031246 -0.115154 -0.000004
-0.045660 -0.119810 -0.013238
-0.037847 -0.089568 0.006332
0.026622 -0.217710 -0.006264
-0.027318 -0.109132 0.003116
-0.000307 -0.169822 -0.005935
0.021077 -0.186486 0.000952
-0.045660 -0.109613 -0.013238
-0.036734 -0.109355 -0.007149
-0.016688 -0.141546 -0.007833
-0.035255 -0.099319 -0.001929
-0.025061 -0.116371 -0.004126
-0.022433 -0.080577 0.013484
-0.045660 -0.099416 -0.013238
-0.037847 -0.069095 0.006332
0.013872 -0.150446 0.004872
-0.045660 -0.089220 -0.013238
0.018460 -0.142277 0.009432
0.026653 -0.160152 0.006779
-0.036734 -0.089010 -0.007149
0.018264 -0.191080 -0.014403
-0.033979 -0.078469 -0.001362
0.031474 -0.181081 -0.001272
-0.037847 -0.053741 0.006332
-0.000080 -0.130959 -0.002581
-0.033342 -0.098377 -0.012184
0.023113 -0.178730 -0.007737
-0.045660 -0.079023 -0.013238
-0.036734 -0.073751 -0.007149
-0.007426 -0.091732 0.004760
-0.037847 -0.038386 0.006332
-0.045660 -0.063729 -0.013238
-0.028029 -0.045457 0.006442
-0.036734 -0.058492 -0.007149
-0.035255 -0.048386 -0.001929
0.002267 -0.124925 -0.009925
-0.031954 -0.066571 -0.008268
-0.045660 -0.053532 -0.013238
0.026687 -0.124397 0.007426
-0.037847 -0.023032 0.006332
0.022147 -0.144862 -0.008379
-0.045660 -0.043335 -0.013238
0.015085 -0.111278 -0.001056
0.032516 -0.160116 -0.011861
-0.007127 -0.097854 -0.013146
-0.036734 -0.033061 -0.007149
0.013699 -0.107053 -0.004587
-0.024525 -0.080440 -0.021341
-0.037847 0.002559 0.006332
0.016641 -0.089686 0.003959
0.032884 -0.129820 -0.003447
-0.045660 -0.022942 -0.013238
-0.036734 -0.022888 -0.007149
-0.007784 -0.046904 0.003063
-0.035255 -0.012733 -0.001929
-0.037847 0.012795 0.006332
-0.031124 -0.034183 -0.011504
-0.028434 -0.021335 -0.005600
0.008859 -0.073542 -0.001279
-0.035255 -0.002547 -0.001929
-0.012666 -0.024977 0.002149
-0.017842 -0.050073 -0.013697
-0.040156 -0.007632 -0.010942
-0.037847 0.028150 0.006332
-0.008425 -0.046089 -0.006736
0.015149 -0.060252 0.004399
0.035088 -0.098686 0.000550
-0.045660 0.002549 -0.013238
-0.023943 -0.000218 0.000792
-0.026747 -0.023883 -0.013915
-0.037847 0.038386 0.006332
-0.036734 0.007629 -0.007149
-0.035255 0.017826 -0.001929
0.004443 -0.064618 -0.011525
-0.045660 0.012746 -0.013238
0.028616 -0.073261 0.001416
0.012249 -0.036772 0.003006
-0.045660 0.022942 -0.013238
-0.037847 0.053741 0.006332
-0.023214 0.013394 -0.004056
0.027477 -0.035242 0.010150
0.010466 -0.010674 0.008791
-0.037847 0.063977 0.006332
-0.003729 -0.016072 -0.005495
-0.036734 0.033061 -0.007149
-0.016732 0.001689 -0.007631
-0.045660 0.038237 -0.013238
-0.026429 0.010260 -0.012729
-0.035255 0.048386 -0.001929
-0.007961 0.021716 0.004954
0.022015 -0.062472 -0.011639
-0.045660 0.048434 -0.013238
-0.022367 0.046723 0.001726
-0.037847 0.084449 0.006332
0.031971 -0.076966 -0.016305
-0.045660 0.058630 -0.013238
0.007766 0.002416 0.000498
-0.036734 0.058492 -0.007149
0.015622 -0.034007 -0.010973
0.032596 -0.048144 -0.006252
-0.014893 0.066177 0.011007
0.011407 0.012529 0.005997
-0.037847 0.094686 0.006332
0.030073 -0.023756 0.002070
-0.035255 0.073852 -0.001929
-0.033049 0.041987 -0.015746
-0.020824 0.025437 -0.013602
-0.045660 0.068827 -0.013238
-0.045660 0.079023 -0.013238
-0.037847 0.110040 0.006332
-0.026047 0.074226 -0.001950
-0.035255 0.089132 -0.001929
0.031283 -0.030459 -0.010706
-0.024643 0.061983 -0.010571
-0.037847 0.120277 0.006332
-0.035255 0.099319 -0.001929
-0.040156 0.089036 -0.010942
0.022407 0.021824 0.003612
0.012933 0.044261 0.005861
-0.001539 0.064328 0.003974
-0.037847 0.130513 0.006332
0.015889 -0.012179 -0.019640
-0.045660 0.104515 -0.013238
0.033523 0.001368 -0.001767
-0.019189 0.075194 -0.008124
-0.022359 0.081960 -0.009869
-0.037847 0.145867 0.006332
-0.045660 0.114711 -0.013238
0.011883 0.028380 -0.010503
-0.036734 0.114441 -0.007149
-0.035255 0.124785 -0.001929
0.019538 0.057275 0.006238
0.009337 0.078552 0.007634
-0.017354 0.106061 0.000231
-0.006477 0.043095 -0.020017
0.022775 0.014841 -0.012713
-0.037847 0.156103 0.006332
-0.025387 0.113510 -0.004840
-0.040156 0.124650 -0.010942
0.035582 0.021084 -0.004832
-0.029497 0.149057 0.004224
-0.000409 0.043922 -0.021863
-0.037847 0.166340 0.006332
-0.036734 0.134786 -0.007149
-0.006897 0.104498 0.000230
-0.045660 0.140203 -0.013238
-0.036734 0.144959 -0.007149
0.030589 0.051488 0.000376
-0.011647 0.133854 0.006334
-0.035255 0.160438 -0.001929
-0.001552 0.099816 -0.005334
0.010446 0.081500 -0.005524
-0.013899 0.127232 -0.003282
-0.029178 0.133119 -0.012169
-0.040156 0.155177 -0.010942
0.026288 0.064067 -0.006432
-0.035255 0.175718 -0.001929
-0.029905 0.179629 0.002313
-0.045660 0.170792 -0.013238
-0.037847 0.202167 0.006332
0.032073 0.052081 -0.010400
0.008014 0.113971 -0.002313
0.025461 0.096105 0.001523
-0.045660 0.180989 -0.013238
-0.035255 0.190997 -0.001929
0.021499 0.081998 -0.010842
-0.016019 0.188429 0.009058
-0.002999 0.160951 0.005344
0.013033 0.109541 -0.006753
-0.037847 0.222639 0.006332
-0.040156 0.190791 -0.010942
0.018068 0.128173 0.002931
-0.045660 0.201382 -0.013238
-0.022759 0.183063 -0.004700
-0.036734 0.200907 -0.007149
-0.035255 0.211370 -0.001929
0.028350 0.105308 -0.005363
0.004104 0.148167 -0.004796
-0.037847 0.243112 0.006332
0.022580 0.133882 0.001184
-0.040156 0.211142 -0.010942
0.037594 0.111216 0.000265
-0.029605 0.210597 -0.005189
-0.007783 0.159765 -0.011957
-0.045660 0.221775 -0.013238
-0.034200 0.231669 -0.000561
-0.035255 0.231743 -0.001929
-0.036734 0.221253 -0.007149
-0.037847 0.253348 0.006332
-0.045660 0.231972 -0.013238
-0.037847 0.263585 0.006332
0.005575 0.175418 -0.001068
-0.008110 0.206522 0.000261
0.023316 0.158022 0.000535
-0.045660 0.247267 -0.013238
-0.037847 0.278939 0.006332
-0.036734 0.246684 -0.007149
-0.035255 0.257210 -0.001929
0.019151 0.170083 -0.005662
-0.040156 0.256932 -0.010942
0.034704 0.168658 0.004777
0.008240 0.212509 0.004108
-0.012022 0.230939 -0.002970
0.030149 0.188312 0.007398
-0.032060 0.261356 -0.005705
-0.027985 0.272812 0.002396
-0.037847 0.299412 0.006332
-0.045660 0.267660 -0.013238
-0.036734 0.267029 -0.007149
-0.015465 0.237724 -0.006638
-0.006528 0.232715 -0.004722
-0.035255 0.287769 -0.001929
-0.037847 0.309648 0.006332
-0.040156 0.277283 -0.010942
-0.037847 0.325002 0.006332
-0.045660 0.293151 -0.013238
-0.035797 0.295339 -0.006312
-0.036734 0.297547 -0.007149
0.007985 0.220769 -0.009603
-0.045660 0.303348 -0.013238
-0.037847 0.335239 0.006332
-0.013243 0.292730 0.004461
-0.036734 0.307719 -0.007149
0.003188 0.257335 -0.000209
-0.035255 0.318329 -0.001929
0.027067 0.227770 0.002590
-0.037847 0.345475 0.006332
-0.014380 0.288853 -0.002398
-0.001083 0.259138 -0.005287
-0.045660 0.318642 -0.013238
-0.035973 0.348639 0.004147
-0.037847 0.360829 0.006332
0.034724 0.206723 -0.010407
-0.036734 0.333150 -0.007149
-0.045660 0.333937 -0.013238
-0.019769 0.323508 0.000512
-0.045660 0.344134 -0.013238
-0.037847 0.376184 0.006332
-0.036734 0.343323 -0.007149
0.032549 0.260082 0.003556
-0.024481 0.326172 -0.009424
-0.045660 0.354330 -0.013238
0.003492 0.311030 0.003139
-0.037847 0.386420 0.006332
-0.036734 0.353496 -0.007149
-0.045660 0.364527 -0.013238
-0.036734 0.363668 -0.007149
0.038790 0.261265 0.000715
0.028252 0.262484 -0.008399
-0.037847 0.406893 0.006332
0.019575 0.310875 0.005837
0.012444 0.291042 -0.009215
-0.045660 0.379822 -0.013238
-0.036734 0.378927 -0.007149
-0.037847 0.417129 0.006332
0.008490 0.333820 0.002840
-0.045660 0.390018 -0.013238
-0.036734 0.389099 -0.007149
-0.027465 0.364365 -0.011803
-0.037847 0.427365 0.006332
-0.036734 0.399272 -0.007149
-0.014833 0.391163 0.003527
-0.045660 0.405313 -0.013238
0.008166 0.325151 -0.010584
-0.020675 0.385986 -0.005009
-0.037847 0.442720 0.006332
-0.036734 0.409444 -0.007149
0.037771 0.310433 0.003688
-0.035255 0.420194 -0.001929
-0.045660 0.415510 -0.013238
-0.003783 0.357717 -0.008237
-0.026735 0.448558 0.010257
-0.035255 0.435474 -0.001929
-0.037847 0.458074 0.006332
0.034993 0.333363 0.004002
-0.034296 0.424040 -0.006932
-0.040156 0.429916 -0.010942
-0.035255 0.450754 -0.001929
0.035445 0.350305 0.005676
-0.045660 0.446099 -0.013238
0.024934 0.378871 0.008442
-0.028381 0.455888 0.002208
0.034450 0.335168 -0.004138
-0.041707 0.467378 -0.003511
-0.045513 0.477885 -0.007052
-0.040156 0.460442 -0.010942
-0.033330 0.467309 -0.003772
0.029284 0.374029 0.000282
-0.036269 0.481732 -0.001181
-0.013914 0.478831 0.013779
0.018123 0.375857 -0.009150
0.002902 0.402764 -0.009928
-0.020058 0.478835 0.005733
-0.011876 0.429981 -0.010561
0.004911 0.422565 -0.003725
-0.021315 0.453461 -0.010871
-0.024666 0.465214 -0.015772
0.001082 0.478835 0.008620
-0.001287 0.465333 0.000194
0.038682 0.396404 -0.002917
0.038893 0.417273 0.005774
-0.008037 0.478841 -0.003323
0.043876 0.405650 0.002151
0.012688 0.432478 -0.009673
0.025524 0.447048 0.005473
-0.018581 0.479442 -0.014216
0.023223 0.431642 -0.005450
0.008261 0.460866 -0.005130
0.018779 0.478835 0.007505
0.040133 0.433778 0.002688
-0.018581 0.494503 -0.014216
0.006778 0.479349 -0.002737
-0.010187 0.487193 -0.014202
0.009751 0.478843 -0.004312
-0.020461 0.484523 -0.024938
0.034160 0.445200 -0.001824
-0.001870 0.479950 -0.014189
-0.002143 0.492689 -0.010938
0.043857 0.437608 -0.001099
0.042062 0.478834 0.014216
-0.001870 0.494871 -0.014189
0.036112 0.478836 0.006413
0.026798 0.482725 -0.000829
0.035055 0.444436 -0.014230
0.027175 0.478844 -0.005280
0.042560 0.463565 -0.003716
0.014533 0.485377 -0.014163
0.021238 0.478841 -0.013093
0.058982 0.478835 0.013068
0.039879 0.464435 -0.010275
0.038786 0.475499 -0.008582
0.027987 0.474811 -0.016528
0.042550 0.447548 -0.017846
0.050144 0.478840 0.001486
0.059692 0.488234 0.012489
0.022621 0.497863 -0.014150
0.059692 0.497950 0.012489
-0.005391 0.487475 -0.040636
0.030636 0.490705 -0.014137
0.038364 0.478844 -0.013959
0.040136 0.475025 -0.016764
0.059675 0.480740 0.000051
0.048251 0.465102 -0.015515
0.042886 0.447888 -0.028678
