-0.307602 -0.082440 0.174064
-0.184300 -0.087356 0.254428
-0.161793 -0.077960 0.267677
-0.186019 -0.024040 0.272090
-0.295602 -0.103545 0.146953
-0.284821 -0.085509 0.161583
-0.293248 -0.060826 0.164154
-0.168702 -0.049598 0.249223
-0.269697 -0.072367 0.152127
-0.293782 -0.027392 0.151519
-0.028185 -0.051125 0.336293
-0.289774 -0.091306 0.118476
-0.275006 -0.081564 0.130214
-0.283374 -0.056867 0.128395
-0.299035 -0.023440 0.129270
-0.291913 -0.070393 0.109406
-0.007434 -0.050186 0.328842
-0.156133 -0.023825 0.225971
-0.029722 -0.023460 0.318566
-0.252363 -0.047377 0.122726
-0.017962 -0.061273 0.280724
-0.067135 -0.009370 0.266428
-0.013469 -0.023297 0.296211
-0.015601 0.004658 0.301947
-0.136819 -0.012734 0.200428
0.002120 -0.050653 0.285993
-0.014219 -0.042418 0.272069
-0.233259 -0.018310 0.114777
0.000993 -0.006435 0.289225
-0.020776 -0.023797 0.265110
-0.099685 0.020665 0.225794
0.151700 -0.083505 0.353095
0.135308 -0.062558 0.347575
-0.123255 0.019858 0.188572
-0.019966 -0.001594 0.252845
0.145434 -0.103262 0.326550
-0.034125 0.012882 0.245603
-0.046744 0.013493 0.233520
-0.165259 0.014113 0.140943
-0.118793 0.017151 0.175427
0.034261 -0.000199 0.278498
-0.201300 0.009971 0.098183
-0.149013 0.018159 0.141575
-0.017528 0.008012 0.234440
0.156585 -0.056528 0.327436
-0.277569 -0.045794 0.007052
-0.106590 0.023314 0.166819
0.172198 -0.082738 0.321639
-0.051855 0.016702 0.203152
0.141510 -0.021784 0.326238
-0.071367 0.016935 0.186572
0.145925 -0.042376 0.311951
0.129374 -0.048935 0.295120
-0.018166 0.022359 0.218219
-0.268657 -0.067580 -0.012860
-0.080656 0.010952 0.166671
-0.069746 0.008582 0.171258
0.158930 -0.062094 0.305955
-0.041168 0.018229 0.194207
0.152821 -0.081134 0.290436
-0.101871 0.044749 0.160656
-0.108010 -0.006136 0.131776
0.023924 0.009991 0.234849
0.005083 -0.011514 0.210116
0.121354 -0.049906 0.275946
-0.256613 -0.040936 -0.004228
-0.126471 0.024129 0.125207
-0.013818 0.017773 0.206449
-0.133457 0.013026 0.112801
0.034169 -0.001420 0.230229
-0.087029 0.014717 0.146342
-0.170178 0.021471 0.086367
-0.050842 -0.037182 0.145557
-0.274744 -0.006574 -0.014931
-0.129018 0.007947 0.101019
0.111852 -0.031611 0.261212
-0.031429 -0.002924 0.167732
-0.080842 0.005325 0.133211
-0.008783 0.008277 0.187370
-0.269856 -0.063935 -0.045744
-0.044755 0.014667 0.160242
-0.245970 -0.049460 -0.023242
-0.263040 -0.023970 -0.024706
-0.140842 0.027192 0.092619
-0.161337 0.048467 0.084849
0.063935 0.006039 0.229748
-0.143925 0.014273 0.079623
-0.080843 0.030173 0.133211
-0.011735 0.043828 0.190695
0.029894 0.025598 0.208928
-0.075690 -0.053542 0.094089
-0.002995 0.040773 0.188335
0.109505 -0.009715 0.247228
0.054835 0.013984 0.216879
-0.075455 0.035089 0.130235
-0.235712 -0.023444 -0.019591
-0.062445 -0.029949 0.109202
-0.262631 -0.032915 -0.047752
-0.042659 0.008469 0.137695
0.056696 0.005550 0.206287
-0.067022 0.005295 0.115170
-0.122425 0.001887 0.068658
-0.138563 0.043951 0.071616
-0.130541 -0.011528 0.051216
-0.037347 0.029890 0.139537
-0.033721 -0.018625 0.118009
-0.095420 -0.002146 0.079502
-0.122429 0.024529 0.068657
0.097310 0.012804 0.225419
-0.044321 -0.061204 0.085546
-0.087222 0.015969 0.087746
-0.214194 0.006283 -0.016365
0.035189 -0.005217 0.166059
-0.008356 0.063781 0.165183
0.035036 0.013671 0.173840
-0.011287 -0.110354 0.081851
-0.080516 0.045292 0.099937
-0.075218 0.030508 0.096819
-0.081321 0.004751 0.078587
0.014032 0.030585 0.159014
-0.038319 -0.030564 0.090837
-0.090689 -0.020290 0.055454
-0.104468 0.008389 0.056673
-0.047741 -0.094237 0.051078
-0.103329 0.040041 0.069915
0.093823 0.025997 0.205442
0.001209 -0.071802 0.093013
-0.043205 0.032806 0.107278
-0.161653 0.027827 0.014829
-0.140703 0.039822 0.034112
0.090395 0.030467 0.200893
0.061624 0.013237 0.171955
-0.070307 -0.045436 0.046976
-0.014424 -0.094242 0.066427
-0.003190 0.018194 0.126189
-0.125364 0.011408 0.030759
0.063531 0.003635 0.167991
0.001830 -0.092310 0.079169
-0.001440 -0.011622 0.112995
-0.030525 -0.074968 0.060823
-0.004926 0.057671 0.139285
0.024428 -0.109803 0.083408
-0.036683 0.006307 0.087104
-0.040614 -0.004974 0.078755
0.033305 0.037396 0.150914
-0.004562 0.080594 0.142757
-0.004763 0.031008 0.117720
0.072102 0.017455 0.167367
0.001226 0.049053 0.128817
0.002093 -0.045171 0.086300
-0.047745 -0.069752 0.035956
-0.000565 0.008317 0.106358
-0.046482 -0.098819 0.021141
0.016283 -0.017527 0.104711
-0.002319 0.048057 0.119604
0.073121 0.037508 0.169727
0.059368 -0.017016 0.134553
0.058018 -0.056920 0.113936
0.069471 0.004559 0.150155
0.077476 -0.047522 0.131374
-0.081414 0.028414 0.047705
-0.159085 0.034001 -0.009251
-0.005006 0.061312 0.117995
0.053480 -0.042421 0.113273
0.043025 -0.072194 0.089809
-0.096295 -0.005401 0.013308
0.036813 -0.089392 0.073970
0.012011 -0.095846 0.050786
-0.056898 -0.048598 0.016519
-0.263956 -0.079583 -0.159593
0.054037 -0.110412 0.069992
0.274555 -0.098299 0.233778
-0.124162 0.008327 -0.011350
0.270975 -0.066573 0.244350
-0.014436 0.047111 0.087138
-0.089992 -0.016933 0.000415
0.000383 -0.094240 0.031802
-0.058497 0.048467 0.052593
0.289943 -0.082217 0.246401
-0.036121 -0.016320 0.037614
-0.142294 0.061115 -0.007205
0.047393 0.018029 0.114123
-0.056809 -0.056636 0.001548
0.024434 -0.036303 0.068659
-0.064961 -0.034954 0.002244
0.027511 0.023590 0.098021
-0.105906 0.024813 -0.001670
-0.014271 -0.063136 0.024934
-0.021569 0.049898 0.070915
-0.008236 0.033718 0.072802
-0.053412 0.012291 0.025291
-0.087818 0.016752 0.000335
-0.108489 0.043243 -0.003694
-0.091955 0.034501 0.003813
0.049710 0.029164 0.107039
0.082175 0.011746 0.122314
-0.078051 -0.063280 -0.031620
-0.082433 0.013090 -0.000657
0.076899 0.026270 0.122436
-0.075679 -0.006756 -0.006676
0.124964 0.017067 0.152709
-0.120186 0.075378 -0.003018
-0.022708 -0.094244 -0.007761
0.305219 -0.083248 0.232444
-0.066859 -0.025507 -0.013292
-0.029679 0.029248 0.039105
0.065971 0.010140 0.100579
-0.250869 -0.056554 -0.173423
0.014020 -0.048716 0.033762
-0.097749 0.054988 -0.002594
0.086854 0.028168 0.121512
-0.064378 0.052895 0.019956
0.063664 -0.081406 0.053181
0.011128 -0.094241 0.006611
0.276296 -0.025988 0.229618
0.291563 -0.056469 0.226676
-0.104257 0.020362 -0.028818
0.009328 0.066328 0.077845
-0.128210 -0.008607 -0.060645
0.043914 -0.018120 0.064199
-0.029470 -0.099256 -0.030220
0.080351 -0.067079 0.066491
-0.026141 -0.033310 0.002677
0.009051 -0.066780 0.013163
0.029443 0.016769 0.065001
0.076819 -0.109231 0.041387
0.042249 0.011564 0.069653
0.232195 -0.040696 0.183498
-0.227287 -0.073468 -0.176815
0.253750 -0.048807 0.194941
-0.125026 0.028942 -0.049716
-0.040252 0.001447 0.001979
0.078344 0.014098 0.095219
0.038999 0.019938 0.067431
0.062589 0.034708 0.087815
0.297527 -0.085886 0.200900
-0.077619 0.033295 -0.019675
0.009051 -0.035958 0.013163
-0.208006 -0.041453 -0.157508
0.087809 -0.035556 0.069384
0.221628 -0.016330 0.175098
0.091697 -0.064803 0.057783
-0.074461 0.002590 -0.035693
0.202434 -0.011672 0.161067
0.109467 -0.025472 0.087412
0.120345 0.017526 0.113904
0.106116 -0.015808 0.086544
0.284673 -0.060537 0.192227
-0.049806 0.039100 -0.007436
0.039476 -0.043855 0.020999
-0.044450 0.018284 -0.012727
0.121364 -0.015978 0.094089
-0.196034 -0.015085 -0.146875
0.187226 0.003992 0.147847
0.120713 0.024635 0.107616
0.113577 0.004465 0.092131
-0.032404 -0.032573 -0.033729
-0.245096 -0.024951 -0.195774
0.022740 -0.024374 0.008939
0.050385 0.053784 0.064582
0.077325 -0.084610 0.020868
-0.178723 0.002118 -0.133798
-0.013918 -0.080592 -0.046791
0.052903 -0.094244 -0.004356
-0.021266 0.006919 -0.014334
-0.033511 0.067198 0.004712
0.176367 0.028407 0.141399
0.083302 -0.110023 0.009579
0.126958 0.024804 0.103319
0.113696 0.009517 0.085877
-0.152438 0.014422 -0.112063
-0.101333 0.036184 -0.063590
-0.110404 0.009863 -0.083549
0.081784 0.025645 0.066047
0.125811 0.027894 0.097834
-0.077618 -0.061259 -0.096211
0.009051 0.032534 0.013163
-0.052334 0.028622 -0.035563
0.012430 -0.096123 -0.045947
-0.077901 0.043039 -0.049746
0.163412 0.042865 0.128324
0.146879 0.038332 0.113581
-0.014045 -0.059199 -0.050810
-0.001011 -0.019702 -0.023857
0.071193 -0.029791 0.023437
-0.071434 0.018749 -0.062164
0.093345 -0.067524 0.021082
-0.025450 -0.003303 -0.038899
-0.121418 0.037943 -0.093038
-0.078643 0.025406 -0.066592
-0.044304 0.045836 -0.032720
0.036886 0.063700 0.036806
-0.080199 0.008221 -0.078037
0.096227 0.006025 0.053332
0.038346 -0.029236 -0.006385
0.009051 0.063355 0.013163
0.066129 0.023907 0.036211
-0.110779 0.012956 -0.102282
0.087141 -0.039498 0.021751
0.077252 -0.108775 -0.018163
0.028788 0.045004 0.014973
-0.021881 -0.056429 -0.070631
0.016013 -0.068095 -0.051955
0.084235 0.018053 0.037278
0.040322 0.000096 -0.006840
0.062608 -0.108054 -0.040083
0.036656 -0.094241 -0.053214
-0.094007 0.036258 -0.092137
0.051018 -0.082320 -0.038440
0.016223 -0.040562 -0.045763
0.010111 0.031455 -0.019294
0.009051 0.104450 0.013163
-0.043339 0.019095 -0.067509
0.053328 0.031424 0.011251
0.067541 0.049151 0.028297
0.097590 -0.010935 0.022992
0.084121 -0.079015 -0.018389
0.054362 0.052684 0.019522
0.081065 0.048891 0.037487
0.077084 -0.050262 -0.014645
-0.026100 -0.023845 -0.080869
-0.006827 0.022683 -0.045995
0.004195 -0.053306 -0.077856
-0.002706 0.072648 -0.024464
-0.026536 0.009147 -0.072925
0.111218 -0.001004 0.024057
0.022906 0.006021 -0.038690
-0.022654 0.038919 -0.059401
-0.048255 0.030844 -0.083867
0.144395 0.016023 0.052219
0.110278 0.014065 0.026367
0.117355 0.023393 0.031894
0.120327 0.007614 0.026550
0.076700 0.002312 -0.009118
0.013879 0.046957 -0.036579
0.011708 0.035267 -0.045620
0.046851 0.029933 -0.022285
0.112087 0.029193 0.026149
-0.058179 0.008356 -0.114389
-0.022478 0.053879 -0.069010
0.026781 -0.003870 -0.061433
-0.055098 0.030755 -0.107102
-0.045620 0.026841 -0.102774
-0.001094 0.054800 -0.057168
-0.028231 0.038666 -0.086045
0.073943 -0.066916 -0.059524
0.131164 0.037604 0.028213
0.100580 -0.027031 -0.024423
0.101635 0.008785 -0.008792
-0.084716 0.030009 -0.139812
-0.105520 0.023827 -0.158944
0.033703 0.039235 -0.045940
0.045486 0.017788 -0.046980
0.092849 -0.001600 -0.021206
0.083615 -0.011535 -0.036299
-0.003734 0.012028 -0.091642
-0.035926 0.002489 -0.122590
0.126208 0.068016 0.029246
0.127249 -0.017089 -0.012149
-0.034544 0.068692 -0.093388
0.055979 0.039051 -0.040795
0.072766 -0.010166 -0.052479
-0.008615 0.020695 -0.100039
0.153160 0.054241 0.031938
0.092479 0.040332 -0.019529
0.016443 0.046358 -0.075603
0.093636 0.031458 -0.025014
0.045614 -0.013632 -0.083152
-0.059467 0.024827 -0.147191
0.180758 0.032632 0.035548
0.289917 -0.042387 0.080342
0.016337 0.009810 -0.098257
-0.060380 0.014174 -0.155769
0.065728 0.030210 -0.053567
0.057817 -0.002564 -0.076330
-0.033864 0.035007 -0.127214
0.111206 0.004737 -0.033133
-0.048419 0.043873 -0.134619
0.117567 0.041165 -0.012116
-0.014448 0.049621 -0.107304
0.113239 0.026593 -0.022565
0.206631 0.015120 0.038932
-0.045457 0.066348 -0.124411
-0.057290 0.029015 -0.152613
0.002863 0.057798 -0.094705
0.300198 -0.071249 0.061245
0.230936 -0.003999 0.042109
0.099437 0.006022 -0.050812
0.108215 0.042657 -0.027597
-0.096494 -0.047114 -0.225855
-0.099755 -0.068145 -0.242199
-0.113052 -0.031233 -0.235970
-0.070511 0.021706 -0.177982
0.057282 0.029118 -0.079122
0.263273 -0.021711 0.047181
-0.011360 -0.046716 -0.170793
0.060304 0.035815 -0.078197
0.323658 -0.049919 0.073845
0.029688 -0.012416 -0.124115
-0.087220 0.018994 -0.200430
-0.082323 -0.022214 -0.217197
-0.005060 0.041427 -0.129186
-0.067505 0.004528 -0.195247
0.096980 0.035656 -0.056551
0.089324 -0.021491 -0.089360
-0.077210 0.002003 -0.204795
0.115754 0.064364 -0.030731
0.120244 -0.047182 -0.079850
0.060624 0.018748 -0.096841
0.082213 0.017829 -0.081054
0.029691 0.012416 -0.124114
0.034741 0.037079 -0.111149
0.033848 -0.001920 -0.132657
-0.086874 -0.030628 -0.238899
0.041018 0.022550 -0.119377
0.036348 0.022760 -0.122767
0.302105 0.003611 0.062269
0.091334 0.004955 -0.091979
-0.099874 -0.014480 -0.247088
0.084428 0.011329 -0.094457
0.316776 -0.024861 0.056779
0.041019 0.023147 -0.123756
-0.082105 0.009197 -0.224929
-0.028509 0.029158 -0.176548
0.083253 0.011582 -0.102208
0.070330 -0.024759 -0.130657
-0.071287 -0.042480 -0.247946
0.135092 0.072544 -0.037895
-0.100931 0.006212 -0.247754
0.316784 -0.061243 0.032179
0.107904 0.032110 -0.077518
0.062915 0.028442 -0.114885
-0.046968 0.012525 -0.206244
0.333904 -0.050058 0.045164
-0.082617 -0.059730 -0.274635
-0.064693 -0.011166 -0.239370
-0.064794 0.003947 -0.233400
0.078785 0.005303 -0.124212
0.033218 0.023224 -0.150753
0.066447 0.017710 -0.129336
0.306500 -0.001214 0.037207
-0.090522 -0.022763 -0.270146
0.011289 0.016894 -0.173269
-0.000752 0.016262 -0.186635
0.316459 -0.042323 0.020814
0.162486 0.052767 -0.050182
-0.074098 -0.038860 -0.273770
0.107267 0.014763 -0.112778
0.176132 0.028300 -0.055858
0.034999 0.048291 -0.157956
-0.016131 0.007612 -0.216962
0.064304 0.011428 -0.155415
0.011359 0.019086 -0.193900
0.082439 0.016224 -0.144656
0.033833 0.012774 -0.184202
-0.027139 0.002520 -0.237252
0.081537 0.001872 -0.156320
0.195990 0.027797 -0.064124
0.036797 0.041385 -0.177775
-0.012683 -0.002172 -0.239195
0.059700 -0.007342 -0.187448
0.074591 -0.006060 -0.181704
0.218286 -0.001433 -0.073403
-0.047566 0.005947 -0.272149
0.078769 0.010136 -0.177300
0.119761 0.053804 -0.127739
0.037196 -0.031241 -0.236617
0.058914 -0.002575 -0.206446
-0.021084 -0.017211 -0.276536
0.243495 -0.026583 -0.082983
0.269088 -0.055518 -0.077810
0.055345 0.008510 -0.207008
0.236695 -0.007044 -0.081058
0.042528 0.009100 -0.221035
0.290497 -0.051208 -0.068531
0.268771 -0.031160 -0.078041
0.028847 -0.001571 -0.243024
0.050152 0.016469 -0.218491
-0.033082 -0.004735 -0.292857
0.075971 -0.003680 -0.209671
0.049114 -0.007875 -0.239216
0.140407 0.024248 -0.156032
0.029816 0.003965 -0.251626
0.046778 -0.020188 -0.253126
0.005443 0.004758 -0.273290
0.293746 -0.070399 -0.098238
0.053597 0.009143 -0.239597
0.153772 -0.008035 -0.173483
0.274655 -0.006768 -0.090057
0.054442 0.003277 -0.252582
0.087107 -0.007486 -0.234879
0.051771 0.010522 -0.254708
0.053817 -0.102516 -0.311071
0.070294 -0.019065 -0.258863
0.048909 0.008528 -0.261247
0.303729 -0.030104 -0.093553
0.314203 -0.050504 -0.097962
0.036615 0.000562 -0.289356
0.064506 0.014965 -0.262704
0.047723 0.005538 -0.284440
0.064815 -0.009287 -0.281419
0.301403 -0.030532 -0.115021
0.293846 0.003998 -0.104710
0.072761 -0.097429 -0.318356
0.306641 -0.051680 -0.123864
0.083605 -0.081506 -0.304655
0.093525 0.001521 -0.263929
0.194866 -0.080445 -0.226920
0.062648 -0.032491 -0.305558
0.079616 -0.004376 -0.281537
0.191744 -0.055257 -0.221674
0.072989 -0.000300 -0.284999
