-0.038047 -0.289629 -0.008794
-0.040205 -0.250898 -0.006481
-0.037503 -0.311445 -0.007829
-0.033379 -0.371686 -0.006047
-0.047572 -0.279982 -0.010831
-0.035190 -0.286233 -0.001532
-0.041072 -0.281870 -0.010892
-0.033170 -0.339129 -0.005666
-0.037102 -0.329450 -0.004750
-0.036058 -0.281875 -0.005454
-0.036201 -0.303358 -0.004375
-0.039800 -0.345188 -0.009295
-0.038523 -0.307083 -0.008625
-0.035045 -0.318745 -0.003405
-0.038449 -0.272999 -0.005325
-0.042156 -0.308079 -0.008253
-0.032795 -0.314714 0.000060
-0.038695 -0.327757 -0.007757
-0.037347 -0.350953 -0.007064
-0.041086 -0.270339 -0.004851
-0.043578 -0.243415 -0.000020
-0.041701 -0.247779 -0.003900
-0.043644 -0.255553 -0.007063
-0.041742 -0.277885 -0.001213
-0.043646 -0.275508 0.003304
-0.043607 -0.201026 -0.004011
-0.045620 -0.241559 0.004691
-0.042459 -0.241142 -0.005328
-0.040704 -0.315866 0.001365
-0.040857 -0.289675 -0.003878
-0.042740 -0.297843 0.003898
-0.044915 -0.237832 -0.000801
-0.042693 -0.230066 -0.004534
-0.045660 -0.184937 -0.000356
-0.042527 -0.261059 -0.003646
-0.040079 -0.335869 -0.001601
-0.045847 -0.218106 -0.002601
-0.043470 -0.229317 0.003099
-0.043265 -0.221053 -0.006724
-0.040682 -0.291756 0.000811
-0.044294 -0.282525 0.004565
-0.043153 -0.220399 0.000106
-0.044415 -0.249908 0.003131
-0.041617 -0.301510 -0.002066
-0.043282 -0.255236 -0.002204
-0.042129 -0.268048 -0.000049
-0.044431 -0.209233 0.003243
-0.044297 -0.259418 0.001606
-0.043526 -0.265324 0.006328
-0.040440 -0.280626 -0.004877
-0.042794 -0.308815 -0.004390
-0.043851 -0.199364 -0.011204
-0.045659 -0.188783 -0.008476
-0.045195 -0.191571 -0.012753
-0.043671 -0.192563 -0.010373
-0.046303 -0.204141 -0.011313
-0.046090 -0.200142 -0.005106
-0.045142 -0.171967 -0.011796
-0.047009 -0.185706 0.006844
-0.044676 -0.187892 -0.011336
-0.046551 -0.219895 -0.007505
-0.045333 -0.208815 -0.012269
-0.047406 -0.212521 0.002509
-0.045357 -0.187157 -0.010569
-0.044894 -0.183383 -0.012229
-0.046702 -0.168351 -0.008343
-0.045799 -0.195777 -0.011933
-0.046487 -0.226280 -0.011610
-0.044177 -0.176743 -0.011219
-0.046447 -0.185756 -0.003329
-0.042609 -0.179496 -0.011418
-0.046909 -0.208205 -0.005961
-0.046902 -0.202900 0.001932
-0.046541 -0.180784 -0.009104
-0.046373 -0.191489 0.001972
-0.044630 -0.213535 -0.010732
-0.046063 -0.192254 -0.009696
-0.046057 -0.198433 -0.010079
-0.045883 -0.176117 0.000847
-0.045293 -0.196212 -0.005095
-0.046437 -0.197169 0.008096
-0.041989 -0.203623 -0.011041
-0.045128 -0.216352 -0.011560
-0.032668 -0.281647 -0.003299
-0.034981 -0.261520 0.000602
-0.032304 -0.263474 -0.004121
-0.033054 -0.270528 -0.008797
-0.033479 -0.286860 -0.000410
-0.035701 -0.285450 0.003483
-0.033921 -0.231598 -0.002955
-0.037960 -0.259134 0.004524
-0.032599 -0.259477 -0.006125
-0.033915 -0.321543 0.002589
-0.032093 -0.297501 -0.003297
-0.035200 -0.304796 0.003732
-0.036979 -0.257700 0.000381
-0.033881 -0.252209 -0.004118
-0.036792 -0.218616 0.001846
-0.033569 -0.273431 -0.003988
-0.031110 -0.338083 -0.001258
-0.039735 -0.244651 -0.000184
-0.035472 -0.251243 0.003303
-0.033865 -0.245511 -0.006305
-0.033684 -0.299223 0.001784
-0.038347 -0.290963 0.004467
-0.034771 -0.244930 0.000264
-0.038566 -0.265274 0.004151
-0.035375 -0.308445 -0.000478
-0.035400 -0.269255 -0.000427
-0.033757 -0.278825 0.000307
-0.037339 -0.237263 0.005176
-0.039478 -0.273795 0.003087
-0.037048 -0.277715 0.006092
-0.031129 -0.288596 -0.005776
-0.033600 -0.314092 -0.005441
-0.036639 -0.176356 -0.001432
-0.039568 -0.149221 0.003291
-0.038933 -0.151816 -0.001490
-0.038233 -0.162070 -0.003110
-0.038429 -0.183424 0.000670
-0.040615 -0.178312 0.004582
-0.038563 -0.102616 -0.000115
-0.040587 -0.145409 0.008537
-0.038044 -0.145900 -0.002891
-0.038419 -0.211969 0.003400
-0.037877 -0.193776 -0.001097
-0.039599 -0.199217 0.006152
-0.039698 -0.141585 0.001900
-0.038300 -0.134130 -0.000431
-0.039969 -0.088193 0.003467
-0.038513 -0.167757 -0.000930
-0.038198 -0.225537 0.001088
-0.039499 -0.117666 0.001764
-0.039329 -0.134094 0.005005
-0.037933 -0.125169 -0.002275
-0.038963 -0.192284 0.002686
-0.040760 -0.186500 0.006613
-0.038556 -0.123400 0.002646
-0.040875 -0.154841 0.005683
-0.038171 -0.201343 0.001401
-0.039221 -0.160631 0.001274
-0.039339 -0.172267 0.001730
-0.038989 -0.111928 0.005462
-0.039715 -0.165187 0.004473
-0.039976 -0.170605 0.009616
-0.037025 -0.186109 -0.003153
-0.039299 -0.207958 -0.001652
-0.035729 -0.190218 -0.007337
-0.036878 -0.181903 -0.005354
-0.038651 -0.183452 -0.007156
-0.038650 -0.185636 -0.007485
-0.036712 -0.193621 -0.007469
-0.035659 -0.192269 -0.004311
-0.038720 -0.166609 -0.006990
-0.034920 -0.181336 -0.002034
-0.037983 -0.182102 -0.007622
-0.035319 -0.209053 -0.006267
-0.038129 -0.198011 -0.007509
-0.035041 -0.201465 -0.004188
-0.035281 -0.180450 -0.006441
-0.036790 -0.178224 -0.006978
-0.037033 -0.161722 -0.006369
-0.037267 -0.188906 -0.007341
-0.037435 -0.216994 -0.006899
-0.034512 -0.171535 -0.006928
-0.035116 -0.178225 -0.004870
-0.037494 -0.175724 -0.007666
-0.036128 -0.198811 -0.005955
-0.034269 -0.194544 -0.004041
-0.036210 -0.175204 -0.005837
-0.033951 -0.184489 -0.004073
-0.034549 -0.202781 -0.006394
-0.035981 -0.185767 -0.006949
-0.036735 -0.190014 -0.006038
-0.034240 -0.171537 -0.004333
-0.033343 -0.186980 -0.005767
-0.033870 -0.188202 -0.000821
-0.037895 -0.194870 -0.007741
-0.038216 -0.206584 -0.007041
-0.040670 -0.287567 -0.010331
-0.037476 -0.266650 -0.003785
-0.035938 -0.273710 -0.004888
-0.042654 -0.274927 -0.011002
-0.038414 -0.292610 -0.005475
-0.035654 -0.294030 0.000548
-0.039474 -0.238295 -0.007110
-0.037159 -0.268378 -0.000455
-0.039177 -0.268306 -0.007625
-0.036802 -0.326029 -0.005139
-0.038149 -0.301570 -0.007629
-0.035042 -0.311694 -0.000605
-0.043406 -0.265417 -0.007272
-0.039858 -0.259699 -0.008902
-0.041874 -0.222194 -0.006337
-0.039684 -0.281190 -0.007572
-0.035847 -0.342762 -0.005453
-0.046765 -0.250581 -0.010757
-0.036975 -0.257679 -0.001269
-0.042754 -0.252256 -0.011502
-0.035100 -0.307895 -0.004991
-0.038357 -0.298508 -0.003481
-0.038319 -0.252651 -0.004901
-0.037391 -0.273711 -0.003413
-0.040102 -0.314619 -0.008876
-0.039689 -0.277067 -0.008224
-0.037585 -0.288160 -0.003432
-0.039305 -0.243978 -0.004192
-0.041758 -0.278585 -0.007025
-0.034610 -0.284717 0.000930
-0.040256 -0.297091 -0.008042
-0.040412 -0.320649 -0.007178
-0.043790 -0.187147 -0.010878
-0.043677 -0.175462 -0.010233
-0.042776 -0.180697 -0.012513
-0.042902 -0.180132 -0.010382
-0.046303 -0.192220 -0.011381
-0.044119 -0.189278 -0.008141
-0.044473 -0.160191 -0.011743
-0.046929 -0.173478 0.003643
-0.044464 -0.176520 -0.011164
-0.046398 -0.208815 -0.008491
-0.044864 -0.197193 -0.012088
-0.047258 -0.200959 -0.000001
-0.045415 -0.175772 -0.010646
-0.044805 -0.171768 -0.012203
-0.046821 -0.156123 -0.009625
-0.045966 -0.182905 -0.011897
-0.046215 -0.215619 -0.011580
-0.044143 -0.164918 -0.011249
-0.046519 -0.173476 -0.005239
-0.042193 -0.167812 -0.011388
-0.046864 -0.196891 -0.007237
-0.046825 -0.191139 -0.001026
-0.046672 -0.168802 -0.010062
-0.046288 -0.179317 -0.001171
-0.044431 -0.202494 -0.010974
-0.046155 -0.179832 -0.009754
-0.045748 -0.186059 -0.011189
-0.045815 -0.163966 -0.001928
-0.045301 -0.184903 -0.006152
-0.046028 -0.184895 0.004313
-0.041553 -0.191288 -0.010872
-0.044268 -0.205178 -0.011335
-0.035678 -0.179496 -0.007330
-0.036829 -0.171281 -0.005396
-0.038479 -0.173052 -0.007114
-0.038575 -0.175074 -0.007533
-0.036675 -0.182859 -0.007484
-0.035627 -0.181680 -0.004359
-0.038643 -0.156564 -0.007043
-0.035008 -0.170930 -0.002178
-0.037920 -0.171759 -0.007585
-0.035295 -0.198257 -0.006340
-0.038061 -0.187217 -0.007521
-0.035084 -0.190704 -0.004184
-0.035284 -0.169981 -0.006499
-0.036754 -0.167927 -0.006992
-0.036996 -0.151879 -0.006497
-0.037218 -0.178281 -0.007330
-0.037360 -0.206067 -0.006947
-0.034521 -0.161319 -0.006970
-0.035197 -0.167890 -0.004927
-0.037426 -0.165468 -0.007644
-0.036110 -0.188080 -0.005956
-0.034399 -0.183763 -0.004069
-0.036211 -0.164945 -0.005865
-0.034109 -0.173968 -0.004154
-0.034522 -0.191989 -0.006406
-0.035978 -0.175146 -0.006997
-0.036708 -0.179439 -0.006018
-0.034370 -0.161311 -0.004468
-0.033450 -0.176371 -0.005850
-0.034005 -0.177595 -0.001029
-0.037813 -0.184137 -0.007768
-0.038134 -0.195716 -0.007048
-0.050779 -0.254471 -0.009862
-0.046167 -0.219951 -0.002394
-0.044401 -0.235445 -0.002117
-0.052835 -0.234744 -0.009608
-0.047281 -0.261249 -0.004554
-0.043465 -0.264161 0.001433
-0.048534 -0.182035 -0.004035
-0.045128 -0.227393 0.000717
-0.048563 -0.224495 -0.004887
-0.045358 -0.300831 -0.006195
-0.046032 -0.271489 -0.006216
-0.041890 -0.285615 0.000355
-0.054643 -0.220148 -0.006329
-0.048751 -0.211305 -0.006979
-0.052185 -0.163975 -0.005888
-0.048072 -0.246412 -0.006033
-0.043661 -0.320055 -0.004270
-0.055561 -0.196157 -0.009739
-0.046312 -0.204718 0.000490
-0.052578 -0.201072 -0.009573
-0.043089 -0.282366 -0.004915
-0.046339 -0.270096 -0.003773
-0.046386 -0.200556 -0.003396
-0.046078 -0.232123 -0.004019
-0.048806 -0.287727 -0.008669
-0.049383 -0.239179 -0.008064
-0.045213 -0.254840 -0.001626
-0.048564 -0.188463 -0.004556
-0.050158 -0.240283 -0.007433
-0.042523 -0.249051 0.000909
-0.050300 -0.268292 -0.007111
-0.047959 -0.296041 -0.004959
-0.043954 -0.134018 0.002195
-0.038925 -0.097865 0.007137
-0.038339 -0.118170 0.007078
-0.042158 -0.120570 0.009227
-0.040931 -0.138671 0.008293
-0.038757 -0.146396 0.007213
-0.038890 -0.056101 0.009132
-0.039378 -0.110086 0.007044
-0.041681 -0.104134 0.009402
-0.044312 -0.183265 0.005971
-0.039305 -0.153897 0.008497
-0.037512 -0.163692 0.006865
-0.045610 -0.095820 0.006830
-0.039532 -0.089743 0.008535
-0.044155 -0.034065 0.007703
-0.039896 -0.125364 0.008154
-0.042021 -0.200166 0.008350
-0.045847 -0.070245 0.003292
-0.040611 -0.073357 0.008003
-0.045408 -0.084634 0.008860
-0.043674 -0.163896 0.007628
-0.046044 -0.151620 0.005618
-0.037172 -0.076319 0.008029
-0.045295 -0.107408 0.004807
-0.045800 -0.169672 0.004068
-0.040935 -0.115291 0.007637
-0.038896 -0.135117 0.008836
-0.044311 -0.060941 0.005079
-0.044947 -0.120037 0.003039
-0.043912 -0.127259 0.005874
-0.044482 -0.145972 0.008027
-0.039707 -0.178276 0.009772
-0.026013 -0.270330 -0.007453
-0.024518 -0.237927 0.003712
-0.019058 -0.251128 -0.003769
-0.026002 -0.256638 -0.014051
-0.027162 -0.279524 0.000114
-0.024337 -0.281335 0.008560
-0.025313 -0.192479 -0.004338
-0.028090 -0.241120 0.011231
-0.025010 -0.241168 -0.008863
-0.025703 -0.321598 0.004379
-0.023530 -0.291859 -0.005484
-0.025630 -0.306393 0.009516
-0.031877 -0.236322 0.000809
-0.027484 -0.228929 -0.005392
-0.029513 -0.171665 0.003150
-0.027312 -0.261966 -0.005064
-0.022342 -0.337518 -0.002382
-0.033940 -0.210683 -0.001171
-0.028949 -0.226181 0.007901
-0.026380 -0.217940 -0.010428
-0.025872 -0.296202 0.003497
-0.031049 -0.286020 0.008792
-0.025899 -0.214397 0.001993
-0.031488 -0.248630 0.008066
-0.028618 -0.306863 -0.001160
-0.028616 -0.253622 0.000206
-0.025972 -0.269276 0.003277
-0.028810 -0.202675 0.008764
-0.033074 -0.261810 0.005229
-0.027256 -0.266962 0.012936
-0.024717 -0.283971 -0.011062
-0.024522 -0.313646 -0.009075
-0.035583 -0.164013 -0.007259
-0.036923 -0.155528 -0.005158
-0.038725 -0.157470 -0.006893
-0.038586 -0.159796 -0.007344
-0.036650 -0.167237 -0.007462
-0.035796 -0.165778 -0.004201
-0.038595 -0.139136 -0.006774
-0.035024 -0.155269 -0.001697
-0.037979 -0.156245 -0.007454
-0.035379 -0.180590 -0.006253
-0.038152 -0.171219 -0.007425
-0.035151 -0.173984 -0.003962
-0.035304 -0.154064 -0.006504
-0.036793 -0.151837 -0.006781
-0.037032 -0.133613 -0.006325
-0.037242 -0.163083 -0.007275
-0.037407 -0.187902 -0.006666
-0.034523 -0.144289 -0.006965
-0.035256 -0.151715 -0.004655
-0.037448 -0.149563 -0.007397
-0.036148 -0.171861 -0.005824
-0.034329 -0.167725 -0.003716
-0.036203 -0.148146 -0.005802
-0.034041 -0.158439 -0.003936
-0.034488 -0.174939 -0.006319
-0.035995 -0.159859 -0.006866
-0.036838 -0.163915 -0.005787
-0.034427 -0.144361 -0.004280
-0.033321 -0.160809 -0.005731
-0.033923 -0.162238 -0.000487
-0.037880 -0.168351 -0.007695
-0.038275 -0.178412 -0.006699
-0.033576 -0.148402 -0.003654
-0.035771 -0.139782 0.000083
-0.036941 -0.140900 -0.002760
-0.036185 -0.144185 -0.004220
-0.035118 -0.151757 -0.002695
-0.035258 -0.149665 0.001178
-0.036490 -0.121220 -0.002895
-0.034956 -0.138140 0.003952
-0.035979 -0.139728 -0.003781
-0.034255 -0.163200 -0.000628
-0.036106 -0.155703 -0.003103
-0.034746 -0.157425 0.001740
-0.033982 -0.137207 -0.001592
-0.035106 -0.134571 -0.002526
-0.035642 -0.115734 -0.001025
-0.035568 -0.147029 -0.002920
-0.035934 -0.169274 -0.001977
-0.033143 -0.126632 -0.002294
-0.034571 -0.135405 0.000956
-0.035313 -0.131987 -0.004205
-0.035007 -0.155064 -0.000591
-0.033898 -0.151815 0.002482
-0.035059 -0.130496 -0.000560
-0.033555 -0.142383 0.001596
-0.033104 -0.158123 -0.001443
-0.034646 -0.143973 -0.001831
-0.035766 -0.147942 -0.000595
-0.033665 -0.126612 0.001542
-0.032707 -0.145029 -0.000038
-0.033858 -0.146679 0.004662
-0.035351 -0.152664 -0.004562
-0.036514 -0.161295 -0.002708
-0.043670 -0.172568 -0.010994
-0.046436 -0.161984 -0.007530
-0.045847 -0.164029 -0.012466
-0.043756 -0.165439 -0.010259
-0.046490 -0.177677 -0.010572
-0.046846 -0.173600 -0.003962
-0.045657 -0.142787 -0.011451
-0.047024 -0.158584 0.006434
-0.044709 -0.160009 -0.011150
-0.046787 -0.193985 -0.006454
-0.045566 -0.182629 -0.011880
-0.047527 -0.186390 0.002791
-0.045453 -0.159219 -0.009823
-0.045087 -0.155075 -0.011869
-0.046964 -0.138977 -0.007441
-0.045845 -0.168996 -0.011497
-0.046880 -0.200084 -0.011022
-0.044224 -0.148232 -0.010602
-0.046464 -0.158029 -0.002541
-0.042746 -0.151056 -0.011251
-0.047066 -0.181690 -0.005241
-0.046956 -0.176616 0.002479
-0.046753 -0.152485 -0.007994
-0.046331 -0.164360 0.002226
-0.044799 -0.187700 -0.009878
-0.046172 -0.165088 -0.009163
-0.046361 -0.171766 -0.009074
-0.045840 -0.147731 0.001134
-0.045380 -0.169131 -0.004244
-0.046423 -0.170365 0.007686
-0.041913 -0.177391 -0.010826
-0.045457 -0.190574 -0.011341
-0.046845 -0.241526 -0.006007
-0.046263 -0.211360 -0.000902
-0.044733 -0.219704 -0.003542
-0.048157 -0.225688 -0.007605
-0.045628 -0.249108 -0.002029
-0.045029 -0.248783 0.003165
-0.047098 -0.165838 -0.004563
-0.047053 -0.213216 0.004017
-0.046732 -0.211855 -0.005579
-0.044936 -0.291109 -0.000975
-0.044879 -0.261540 -0.004917
-0.044573 -0.271494 0.003121
-0.050505 -0.207581 -0.002541
-0.046747 -0.200000 -0.005650
-0.050039 -0.144757 -0.002565
-0.046293 -0.232650 -0.004342
-0.043515 -0.313367 -0.002283
-0.052792 -0.185683 -0.005617
-0.046667 -0.197065 0.002642
-0.048292 -0.189122 -0.007693
-0.043709 -0.266143 -0.000775
-0.048048 -0.255254 0.002539
-0.045929 -0.188235 -0.001017
-0.047721 -0.220465 0.001204
-0.047218 -0.275666 -0.004017
-0.047336 -0.225716 -0.003847
-0.045093 -0.240846 -0.000414
-0.048531 -0.175236 0.000666
-0.049773 -0.230049 -0.001270
-0.045499 -0.236204 0.005903
-0.045924 -0.253185 -0.005107
-0.046964 -0.283428 -0.004510
-0.038240 -0.178185 -0.005178
-0.041939 -0.155735 0.000949
-0.040557 -0.156873 -0.004579
-0.040100 -0.165430 -0.007943
-0.040271 -0.184477 -0.001914
-0.043372 -0.179998 0.003226
-0.040305 -0.122238 -0.003820
-0.043955 -0.151215 0.007186
-0.039980 -0.153158 -0.006738
-0.040097 -0.215055 0.001516
-0.039619 -0.194085 -0.004301
-0.042263 -0.201063 0.004578
-0.041770 -0.150009 -0.000554
-0.040159 -0.143766 -0.003978
-0.041928 -0.112874 0.001092
-0.040569 -0.170069 -0.004323
-0.039666 -0.229210 -0.002354
-0.041596 -0.133402 -0.000683
-0.041574 -0.144606 0.003434
-0.039533 -0.136566 -0.006694
-0.040513 -0.194088 0.000837
-0.043282 -0.187561 0.005889
-0.040988 -0.136593 0.000360
-0.043289 -0.160000 0.004879
-0.039472 -0.202535 -0.001509
-0.041271 -0.164684 -0.001424
-0.041333 -0.174557 -0.000173
-0.041673 -0.128309 0.004991
-0.041708 -0.168504 0.003154
-0.042757 -0.172907 0.008573
-0.038311 -0.186541 -0.006981
-0.040962 -0.209215 -0.005778
-0.043525 -0.111620 0.002430
-0.038629 -0.075663 0.006870
-0.037769 -0.096932 0.006629
-0.041216 -0.098987 0.009200
-0.040487 -0.115566 0.008338
-0.038148 -0.123725 0.006862
-0.038532 -0.030999 0.009005
-0.039133 -0.088327 0.006844
-0.041398 -0.081706 0.009460
-0.043655 -0.157447 0.006173
-0.038525 -0.130301 0.008413
-0.036997 -0.139177 0.006840
-0.045248 -0.072961 0.006875
-0.039052 -0.066628 0.008506
-0.043947 -0.006941 0.007707
-0.039631 -0.103060 0.008188
-0.041094 -0.173176 0.008410
-0.045253 -0.045266 0.003423
-0.040415 -0.049175 0.008079
-0.045220 -0.061989 0.009116
-0.043173 -0.139945 0.007755
-0.045821 -0.128332 0.005926
-0.036802 -0.052070 0.007944
-0.045082 -0.084789 0.004740
-0.045204 -0.144937 0.004310
-0.040487 -0.092711 0.007695
-0.038321 -0.112992 0.008917
-0.043825 -0.036452 0.005107
-0.044512 -0.097543 0.003167
-0.043717 -0.105226 0.005937
-0.043869 -0.122818 0.008176
-0.038847 -0.152938 0.009692
-0.034039 -0.144843 -0.004705
-0.035724 -0.136845 -0.000150
-0.036636 -0.137653 -0.003695
-0.036620 -0.140259 -0.005577
-0.035132 -0.148408 -0.002904
-0.035269 -0.146318 0.001315
-0.036651 -0.120434 -0.003996
-0.034989 -0.134742 0.004164
-0.036052 -0.136361 -0.004752
-0.034249 -0.161514 -0.000748
-0.036027 -0.152439 -0.003872
-0.034776 -0.155155 0.002051
-0.034179 -0.134346 -0.001913
-0.035158 -0.131647 -0.003383
-0.035629 -0.115784 -0.001413
-0.035625 -0.143214 -0.003571
-0.035955 -0.167370 -0.002964
-0.033500 -0.125189 -0.002578
-0.034487 -0.132708 0.001011
-0.035604 -0.129357 -0.005460
-0.035000 -0.152127 -0.000631
-0.034003 -0.148740 0.002839
-0.035117 -0.128627 -0.000638
-0.033697 -0.138998 0.001972
-0.033330 -0.155863 -0.001853
-0.034772 -0.140355 -0.002173
-0.035630 -0.144648 -0.000906
-0.033638 -0.125031 0.001730
-0.032983 -0.141582 0.000091
-0.034018 -0.142724 0.005030
-0.035509 -0.149400 -0.005749
-0.036695 -0.159167 -0.004191
-0.033710 -0.155008 -0.006605
-0.034586 -0.142668 -0.003657
-0.036287 -0.144533 -0.006019
-0.036531 -0.148082 -0.006621
-0.034339 -0.158670 -0.006004
-0.033812 -0.156311 -0.002655
-0.036350 -0.116444 -0.005816
-0.032732 -0.141131 0.000313
-0.035745 -0.141856 -0.006745
-0.033185 -0.175081 -0.004772
-0.035665 -0.163595 -0.006314
-0.032898 -0.166961 -0.002417
-0.033413 -0.139247 -0.005241
-0.034672 -0.135447 -0.005755
-0.035013 -0.106896 -0.004669
-0.034986 -0.152641 -0.006198
-0.035089 -0.184544 -0.005302
-0.032895 -0.124700 -0.005968
-0.032864 -0.135377 -0.002832
-0.035667 -0.132007 -0.006867
-0.033887 -0.164102 -0.004583
-0.031989 -0.160100 -0.001828
-0.033807 -0.129593 -0.004138
-0.031663 -0.146140 -0.002369
-0.032683 -0.168288 -0.005383
-0.033870 -0.148573 -0.005612
-0.034460 -0.153903 -0.004538
-0.031956 -0.124015 -0.002678
-0.031275 -0.149966 -0.003955
-0.031599 -0.152149 0.001346
-0.035793 -0.160356 -0.006880
-0.036388 -0.172726 -0.005752
-0.033951 -0.247114 -0.007291
-0.033361 -0.227642 -0.000705
-0.031292 -0.230610 -0.005197
-0.034477 -0.235961 -0.011280
-0.033203 -0.252411 -0.002748
-0.033546 -0.251468 0.003259
-0.033323 -0.199108 -0.005563
-0.035370 -0.226168 0.004671
-0.032875 -0.226994 -0.007957
-0.032829 -0.284951 0.000187
-0.032075 -0.261662 -0.005935
-0.033169 -0.270081 0.003249
-0.037084 -0.224523 -0.002540
-0.034068 -0.219395 -0.006730
-0.035879 -0.186168 -0.001111
-0.033643 -0.240146 -0.005947
-0.030751 -0.300871 -0.003333
-0.040126 -0.211482 -0.004560
-0.033955 -0.218682 0.002223
-0.034971 -0.212327 -0.009530
-0.032071 -0.264819 -0.000472
-0.036546 -0.256640 0.003154
-0.033650 -0.212079 -0.001590
-0.036340 -0.232537 0.002637
-0.035392 -0.272545 -0.004000
-0.034886 -0.235953 -0.003610
-0.032833 -0.245476 -0.000734
-0.035762 -0.204924 0.003026
-0.038561 -0.239884 0.000086
-0.034389 -0.243829 0.006427
-0.032620 -0.254743 -0.008459
-0.033722 -0.278468 -0.007385
-0.040283 -0.181925 -0.007357
-0.039003 -0.161739 -0.001537
-0.040071 -0.165000 -0.004867
-0.043419 -0.167853 -0.008777
-0.039427 -0.187634 -0.003956
-0.038573 -0.183761 0.000727
-0.040975 -0.125901 -0.005661
-0.036650 -0.159303 0.003111
-0.041389 -0.159856 -0.006539
-0.037444 -0.214953 -0.002707
-0.040325 -0.195189 -0.005896
-0.036782 -0.202213 0.000638
-0.039862 -0.156442 -0.003236
-0.040145 -0.149890 -0.005220
-0.039852 -0.112968 -0.003191
-0.040573 -0.176237 -0.005576
-0.039828 -0.228514 -0.004733
-0.039428 -0.137699 -0.004815
-0.036856 -0.149882 0.000094
-0.041850 -0.144222 -0.008200
-0.037701 -0.197368 -0.002584
-0.036286 -0.190701 0.001540
-0.038116 -0.141866 -0.001472
-0.036298 -0.166493 0.000623
-0.038359 -0.204542 -0.004994
-0.039370 -0.170491 -0.004492
-0.038866 -0.179767 -0.002166
-0.035989 -0.134596 -0.000013
-0.036477 -0.173286 -0.001211
-0.035461 -0.176437 0.003824
-0.041656 -0.190416 -0.007837
-0.042528 -0.211460 -0.006316
-0.039052 -0.243387 -0.004479
-0.038981 -0.220357 -0.000520
-0.036984 -0.224318 -0.004378
-0.038889 -0.230902 -0.008197
-0.037876 -0.249437 -0.001557
-0.039313 -0.248547 0.002723
-0.038638 -0.183419 -0.004212
-0.041492 -0.219574 0.003094
-0.038055 -0.218912 -0.005808
-0.038069 -0.287504 0.000839
-0.037018 -0.261039 -0.004106
-0.038749 -0.268240 0.002418
-0.042650 -0.216511 -0.001053
-0.038784 -0.210285 -0.005273
-0.041794 -0.165811 -0.000684
-0.038301 -0.234828 -0.004243
-0.035814 -0.308239 -0.001737
-0.046236 -0.200764 -0.003076
-0.039821 -0.208266 0.002009
-0.039812 -0.200683 -0.006993
-0.037396 -0.263580 0.000354
-0.042777 -0.253996 0.002562
-0.038934 -0.201454 -0.001069
-0.042973 -0.225398 0.002248
-0.040705 -0.273256 -0.002172
-0.040200 -0.230002 -0.002146
-0.037725 -0.241559 -0.000619
-0.042603 -0.190876 0.002605
-0.044564 -0.234656 0.000811
-0.040912 -0.238930 0.004784
-0.037175 -0.251928 -0.005331
-0.038640 -0.280106 -0.005061
-0.040295 -0.212215 -0.006220
-0.043303 -0.186211 -0.000237
-0.041143 -0.188774 -0.005311
-0.042564 -0.197050 -0.009202
-0.041452 -0.219783 -0.002208
-0.044593 -0.216110 0.003123
-0.042168 -0.149910 -0.005252
-0.046187 -0.182713 0.006021
-0.041518 -0.183746 -0.007263
-0.040914 -0.259404 0.001256
-0.040548 -0.231514 -0.005167
-0.043752 -0.240502 0.004348
-0.043838 -0.180571 -0.001325
-0.041675 -0.173453 -0.005642
-0.044165 -0.138850 -0.000137
-0.041837 -0.202680 -0.005181
-0.040403 -0.280107 -0.002687
-0.044381 -0.163348 -0.002348
-0.043088 -0.173648 0.003095
-0.041730 -0.165066 -0.008247
-0.040975 -0.233382 0.000597
-0.045083 -0.224300 0.005674
-0.042545 -0.165298 -0.000509
-0.045014 -0.192015 0.004351
-0.041100 -0.243298 -0.002489
-0.042805 -0.197037 -0.002641
-0.042010 -0.208939 -0.000706
-0.043738 -0.156538 0.004554
-0.043998 -0.201480 0.002508
-0.044553 -0.207165 0.007689
-0.039849 -0.222211 -0.007076
-0.042613 -0.251702 -0.006403
-0.038135 -0.145204 0.002001
-0.041421 -0.115161 0.003230
-0.039962 -0.120333 -0.000083
-0.039122 -0.131377 -0.002689
-0.039871 -0.151411 0.002663
-0.042906 -0.149380 0.003823
-0.039869 -0.075476 0.001763
-0.043392 -0.115368 0.005562
-0.039595 -0.114462 -0.002190
-0.040507 -0.189013 0.004744
-0.038801 -0.164523 0.000604
-0.040972 -0.172639 0.004629
-0.042818 -0.110496 0.003723
-0.039500 -0.103771 0.001277
-0.042015 -0.059856 0.005055
-0.039926 -0.134699 -0.000075
-0.039015 -0.206705 0.002727
-0.044212 -0.091255 0.004362
-0.041832 -0.100346 0.004707
-0.039299 -0.096130 -0.000581
-0.040903 -0.165354 0.003875
-0.044489 -0.157073 0.004791
-0.039907 -0.092683 0.002821
-0.044690 -0.121538 0.004657
-0.041565 -0.174886 0.003443
-0.041255 -0.127920 0.003236
-0.040585 -0.140322 0.002529
-0.042277 -0.082731 0.005329
-0.044071 -0.133358 0.004831
-0.042653 -0.138643 0.007110
-0.037926 -0.154243 -0.001670
-0.040270 -0.182699 -0.000733
-0.043608 -0.093495 0.003323
-0.039199 -0.052990 0.006993
-0.038243 -0.076276 0.006618
-0.040689 -0.079593 0.009149
-0.040565 -0.097310 0.008228
-0.038298 -0.106251 0.006894
-0.039307 -0.002348 0.009010
-0.039359 -0.066721 0.006882
-0.041720 -0.059193 0.009323
-0.043557 -0.142154 0.006179
-0.038382 -0.114033 0.008306
-0.036976 -0.122947 0.006805
-0.045502 -0.049425 0.006895
-0.038968 -0.042481 0.008392
-0.044369 0.023371 0.007728
-0.039938 -0.083466 0.008093
-0.040853 -0.158912 0.008592
-0.045493 -0.017766 0.003926
-0.040705 -0.023169 0.008210
-0.045315 -0.036851 0.009152
-0.043294 -0.123584 0.007775
-0.046023 -0.111186 0.006035
-0.036984 -0.025811 0.007874
-0.045322 -0.063286 0.004588
-0.045318 -0.129122 0.004915
-0.040357 -0.071873 0.007704
-0.038401 -0.094653 0.008917
-0.043901 -0.008603 0.005167
-0.044847 -0.077672 0.003525
-0.043682 -0.086138 0.006102
-0.043416 -0.105113 0.008342
-0.039053 -0.137479 0.009787
-0.044613 -0.155446 -0.011175
-0.038138 -0.139591 -0.007133
-0.038378 -0.148599 -0.007450
-0.041069 -0.146969 -0.009175
-0.039611 -0.157649 -0.011013
-0.037470 -0.160233 -0.006445
-0.039423 -0.126352 -0.008288
-0.037557 -0.144674 -0.006186
-0.039030 -0.143916 -0.008846
-0.040721 -0.179424 -0.012722
-0.039397 -0.164022 -0.009859
-0.036928 -0.169935 -0.007138
-0.042921 -0.142559 -0.011823
-0.038694 -0.138285 -0.010161
-0.039676 -0.118175 -0.010925
-0.039250 -0.153005 -0.009945
-0.038504 -0.188650 -0.009335
-0.045154 -0.133079 -0.011562
-0.037382 -0.131602 -0.008129
-0.041834 -0.136021 -0.010282
-0.038889 -0.170870 -0.011348
-0.038872 -0.164691 -0.011982
-0.038417 -0.134490 -0.009827
-0.038107 -0.145524 -0.012236
-0.044326 -0.171317 -0.011386
-0.041455 -0.150795 -0.011789
-0.038036 -0.155918 -0.008182
-0.039456 -0.128848 -0.012535
-0.045034 -0.147440 -0.012409
-0.037249 -0.151423 -0.007497
-0.042190 -0.160847 -0.010660
-0.039227 -0.176431 -0.008473
-0.038004 -0.249014 -0.009050
-0.032543 -0.227660 -0.001139
-0.030562 -0.233860 -0.004197
-0.037506 -0.236410 -0.011280
-0.034206 -0.254421 -0.003651
-0.031324 -0.255206 0.003655
-0.034211 -0.198970 -0.006191
-0.033150 -0.228998 0.004079
-0.034531 -0.229037 -0.007509
-0.032612 -0.287012 -0.002214
-0.033232 -0.263150 -0.006943
-0.031034 -0.273741 0.002741
-0.040231 -0.225788 -0.004751
-0.035991 -0.220666 -0.007579
-0.037320 -0.184289 -0.003556
-0.034860 -0.242925 -0.006643
-0.030930 -0.302341 -0.004386
-0.044907 -0.211192 -0.008150
-0.033677 -0.219059 0.001925
-0.038687 -0.212779 -0.010508
-0.031041 -0.268696 -0.002177
-0.035670 -0.260022 0.001017
-0.033806 -0.212565 -0.002757
-0.035299 -0.234927 0.000865
-0.037581 -0.275809 -0.006646
-0.036186 -0.238190 -0.005952
-0.032616 -0.248723 -0.000833
-0.036517 -0.205110 0.000059
-0.040396 -0.240860 -0.003351
-0.031999 -0.246063 0.005776
-0.036223 -0.258536 -0.008162
-0.034728 -0.281530 -0.007205
-0.033679 -0.127768 -0.004222
-0.035887 -0.119598 -0.000023
-0.036759 -0.120483 -0.003406
-0.036449 -0.123252 -0.004907
-0.035098 -0.131112 -0.002672
-0.035446 -0.128903 0.001230
-0.036555 -0.102276 -0.003602
-0.034985 -0.117778 0.004011
-0.035906 -0.118964 -0.004293
-0.034343 -0.143338 -0.000684
-0.035950 -0.135098 -0.003517
-0.034844 -0.137160 0.001859
-0.034126 -0.116998 -0.001672
-0.035179 -0.114340 -0.003078
-0.035652 -0.097348 -0.001055
-0.035598 -0.126105 -0.003218
-0.035884 -0.148969 -0.002608
-0.033220 -0.107421 -0.002411
-0.034498 -0.115413 0.001043
-0.035444 -0.111676 -0.004879
-0.034997 -0.134435 -0.000502
-0.033945 -0.131239 0.002674
-0.035117 -0.111110 -0.000421
-0.033703 -0.121716 0.001808
-0.033195 -0.138132 -0.001640
-0.034718 -0.123095 -0.001937
-0.035673 -0.127402 -0.000737
-0.033667 -0.107163 0.001632
-0.032683 -0.124426 0.000191
-0.034084 -0.125782 0.004823
-0.035295 -0.132206 -0.005154
-0.036637 -0.141307 -0.003629
-0.043451 -0.158958 -0.011009
-0.043335 -0.145900 -0.010477
-0.042012 -0.152048 -0.012823
-0.042589 -0.150855 -0.010823
-0.046229 -0.164978 -0.011160
-0.043682 -0.162276 -0.008695
-0.044717 -0.127805 -0.012074
-0.046661 -0.144157 0.002731
-0.044262 -0.146641 -0.011354
-0.046252 -0.184329 -0.008337
-0.044701 -0.170773 -0.012243
-0.047041 -0.175094 -0.000497
-0.045365 -0.146098 -0.010360
-0.044769 -0.141223 -0.012371
-0.047183 -0.123293 -0.009678
-0.045962 -0.154059 -0.011873
-0.046180 -0.192036 -0.011764
-0.044131 -0.133929 -0.011142
-0.046353 -0.143263 -0.005442
-0.042090 -0.136761 -0.011847
-0.046789 -0.170387 -0.007421
-0.046647 -0.164059 -0.001886
-0.046880 -0.138012 -0.009835
-0.046107 -0.150304 -0.001923
-0.044104 -0.177369 -0.010820
-0.046123 -0.150649 -0.009621
-0.045713 -0.157953 -0.011311
-0.045698 -0.132828 -0.002497
-0.045108 -0.156831 -0.005980
-0.045527 -0.156580 0.003126
-0.040992 -0.164059 -0.011071
-0.044056 -0.180330 -0.011727
-0.029252 -0.226568 -0.004280
-0.027391 -0.190956 0.003977
-0.023354 -0.203136 -0.002763
-0.027564 -0.211453 -0.011884
-0.029556 -0.235702 0.001404
-0.027307 -0.237077 0.008144
-0.027598 -0.144876 -0.002319
-0.030477 -0.194832 0.010251
-0.027546 -0.193846 -0.007615
-0.028828 -0.282880 0.005092
-0.026050 -0.250116 -0.003867
-0.027995 -0.264755 0.008953
-0.035227 -0.188982 0.002004
-0.029804 -0.181797 -0.003747
-0.032233 -0.123823 0.004588
-0.029164 -0.216643 -0.003853
-0.024699 -0.302075 -0.000864
-0.038628 -0.164433 0.000545
-0.031645 -0.177580 0.007875
-0.029115 -0.170471 -0.007931
-0.028694 -0.254411 0.004120
-0.034764 -0.243234 0.008048
-0.028209 -0.166509 0.002548
-0.035514 -0.202249 0.007785
-0.032806 -0.266286 0.000463
-0.031610 -0.207918 0.001334
-0.028097 -0.224351 0.003579
-0.032966 -0.154538 0.008620
-0.037890 -0.216601 0.005386
-0.030735 -0.221867 0.012362
-0.027087 -0.239827 -0.008813
-0.026901 -0.273936 -0.007290
-0.041288 -0.212156 0.000343
-0.033275 -0.173971 0.001593
-0.030505 -0.187887 -0.001675
-0.033230 -0.197426 -0.006059
-0.036754 -0.218045 0.001688
-0.033089 -0.221715 0.004187
-0.034343 -0.134865 -0.000140
-0.035870 -0.180326 0.005040
-0.035640 -0.177612 -0.003711
-0.037636 -0.269886 0.003206
-0.033265 -0.235372 -0.001777
-0.033502 -0.248550 0.004806
-0.045819 -0.173399 0.002114
-0.037571 -0.167791 -0.001767
-0.039850 -0.116312 0.004393
-0.035573 -0.199817 -0.002090
-0.031129 -0.290425 -0.000005
-0.052169 -0.155309 0.001828
-0.038939 -0.159597 0.004884
-0.038853 -0.156421 -0.002430
-0.036643 -0.240806 0.002922
-0.044068 -0.227951 0.003987
-0.034764 -0.154681 0.001217
-0.046327 -0.184960 0.004342
-0.044545 -0.252777 0.001065
-0.039947 -0.191491 0.001262
-0.034056 -0.209661 0.001733
-0.044720 -0.141784 0.005351
-0.050899 -0.200632 0.003014
-0.039995 -0.204914 0.007298
-0.035401 -0.222373 -0.003460
-0.032985 -0.259581 -0.003838
-0.032744 -0.117177 -0.003287
-0.035610 -0.100310 0.001515
-0.035935 -0.101285 -0.002792
-0.035405 -0.107875 -0.003538
-0.034417 -0.122154 -0.001147
-0.035838 -0.117822 0.002949
-0.035654 -0.063728 -0.002190
-0.035034 -0.096664 0.006413
-0.034749 -0.096803 -0.003611
-0.034069 -0.141099 0.001240
-0.034830 -0.128986 -0.002384
-0.034715 -0.131633 0.003841
-0.033996 -0.094043 -0.000318
-0.034588 -0.088429 -0.001996
-0.035734 -0.052071 0.001094
-0.034817 -0.112157 -0.002039
-0.034946 -0.150583 -0.000737
-0.033099 -0.075064 -0.001237
-0.034230 -0.089558 0.002847
-0.034755 -0.082339 -0.003750
-0.034676 -0.127115 0.000880
-0.033995 -0.123513 0.004586
-0.034585 -0.081331 0.001388
-0.033665 -0.103591 0.003343
-0.032985 -0.133875 -0.000573
-0.034407 -0.106899 -0.000695
-0.035271 -0.114833 0.000310
-0.033431 -0.072634 0.002977
-0.032419 -0.109798 0.002203
-0.034141 -0.113410 0.007205
-0.034202 -0.124275 -0.003904
-0.036160 -0.138850 -0.002395
-0.043649 -0.138234 -0.011315
-0.044931 -0.127841 -0.009619
-0.043990 -0.132196 -0.012917
-0.042955 -0.131593 -0.010693
-0.046324 -0.143176 -0.011276
-0.045319 -0.140228 -0.006825
-0.045026 -0.112061 -0.012044
-0.046698 -0.125596 0.004777
-0.044519 -0.127934 -0.011442
-0.046498 -0.158466 -0.007731
-0.045243 -0.147661 -0.012317
-0.047224 -0.151271 0.001121
-0.045312 -0.127274 -0.010618
-0.044838 -0.123211 -0.012369
-0.046866 -0.108255 -0.008958
-0.045858 -0.134466 -0.011954
-0.046567 -0.164247 -0.011727
-0.044105 -0.116794 -0.011323
-0.046320 -0.125518 -0.004363
-0.042319 -0.119821 -0.011753
-0.046888 -0.147185 -0.006541
-0.046716 -0.141942 0.000113
-0.046722 -0.120606 -0.009378
-0.046135 -0.131128 0.000124
-0.044498 -0.152602 -0.010754
-0.046100 -0.131380 -0.009579
-0.045985 -0.137513 -0.010583
-0.045740 -0.116346 -0.000810
-0.045215 -0.136233 -0.005578
-0.045940 -0.136105 0.005664
-0.041543 -0.142166 -0.011201
-0.044713 -0.155072 -0.011714
-0.044205 -0.067655 0.003581
-0.039534 -0.029731 0.007095
-0.038557 -0.051895 0.006776
-0.040811 -0.054728 0.008840
-0.040638 -0.070863 0.008066
-0.038232 -0.079070 0.007116
-0.039858 0.017939 0.008700
-0.039568 -0.042827 0.007114
-0.041844 -0.036218 0.009175
-0.043632 -0.110299 0.006285
-0.038348 -0.085385 0.008255
-0.037164 -0.093554 0.006953
-0.046253 -0.026208 0.006927
-0.039491 -0.020234 0.008161
-0.044936 0.042327 0.007576
-0.039943 -0.058862 0.008007
-0.040694 -0.125332 0.008595
-0.046794 0.004364 0.004022
-0.041267 -0.002237 0.008265
-0.045754 -0.013752 0.008930
-0.042856 -0.094328 0.007699
-0.046188 -0.083354 0.006330
-0.037432 -0.004407 0.007667
-0.045871 -0.039676 0.004826
-0.045830 -0.098687 0.005164
-0.040669 -0.047695 0.007585
-0.038518 -0.068787 0.009042
-0.044979 0.012601 0.005310
-0.045777 -0.053253 0.003797
-0.043812 -0.061142 0.006402
-0.043704 -0.078296 0.008085
-0.038947 -0.105881 0.009826
-0.031290 -0.246123 -0.008909
-0.027199 -0.223373 -0.001073
-0.024955 -0.230397 -0.004384
-0.032285 -0.232698 -0.010695
-0.029012 -0.252460 -0.003515
-0.026270 -0.253099 0.003940
-0.028908 -0.193297 -0.005846
-0.027752 -0.224837 0.005072
-0.028938 -0.224657 -0.007266
-0.027290 -0.289113 -0.002014
-0.027654 -0.261843 -0.006998
-0.025886 -0.274956 0.003617
-0.033877 -0.221450 -0.004608
-0.030339 -0.216015 -0.007288
-0.031847 -0.178825 -0.002976
-0.029934 -0.239770 -0.006652
-0.025940 -0.305526 -0.004733
-0.037050 -0.205728 -0.007360
-0.028072 -0.214758 0.002245
-0.032461 -0.209040 -0.009815
-0.026052 -0.268236 -0.002093
-0.029409 -0.258798 0.002000
-0.028469 -0.207524 -0.002371
-0.028862 -0.231279 0.001421
-0.031078 -0.276391 -0.006539
-0.030437 -0.234304 -0.005885
-0.027651 -0.245445 -0.000632
-0.029666 -0.200398 0.000819
-0.032936 -0.237392 -0.002949
-0.026297 -0.243098 0.006640
-0.030325 -0.256813 -0.008240
-0.029593 -0.282940 -0.007320
-0.036962 -0.100928 -0.002851
-0.040608 -0.065841 0.002343
-0.039642 -0.070052 -0.003002
-0.038665 -0.082674 -0.005100
-0.039065 -0.109487 -0.000268
-0.041487 -0.103808 0.004035
-0.039336 -0.002499 -0.001628
-0.041389 -0.062134 0.008389
-0.038510 -0.061570 -0.004850
-0.039256 -0.143076 0.002661
-0.038406 -0.122064 -0.002678
-0.040453 -0.128041 0.005788
-0.040542 -0.056140 0.001124
-0.038797 -0.046156 -0.001621
-0.040701 0.017603 0.002213
-0.039004 -0.090344 -0.002045
-0.038927 -0.159204 0.000049
-0.039736 -0.022588 0.000170
-0.040242 -0.046189 0.004606
-0.038069 -0.034761 -0.003925
-0.039729 -0.120129 0.001782
-0.041482 -0.113404 0.006125
-0.039107 -0.030637 0.002018
-0.041478 -0.073936 0.004855
-0.038795 -0.130827 0.000576
-0.039938 -0.080930 0.000327
-0.040120 -0.096030 0.000794
-0.039157 -0.016587 0.004280
-0.040357 -0.087013 0.003733
-0.040613 -0.094144 0.009669
-0.037640 -0.113053 -0.005096
-0.040199 -0.138738 -0.003121
-0.044604 -0.199227 -0.006564
-0.043672 -0.170875 -0.000822
-0.042680 -0.177991 -0.003452
-0.046795 -0.183038 -0.007707
-0.043265 -0.206803 -0.002397
-0.042893 -0.205766 0.003065
-0.044600 -0.130500 -0.004829
-0.044135 -0.171926 0.003928
-0.044595 -0.171267 -0.005605
-0.041978 -0.248815 -0.001364
-0.043051 -0.218823 -0.004950
-0.042004 -0.229054 0.002724
-0.047311 -0.167202 -0.002964
-0.044197 -0.159968 -0.005757
-0.046420 -0.112898 -0.002726
-0.044097 -0.190862 -0.004570
-0.041635 -0.272002 -0.002268
-0.049260 -0.147423 -0.005921
-0.043368 -0.157901 0.002226
-0.045914 -0.150732 -0.008076
-0.041006 -0.223577 -0.001046
-0.044823 -0.212947 0.002270
-0.043319 -0.149448 -0.001261
-0.044384 -0.179478 0.001103
-0.044401 -0.232880 -0.004463
-0.044604 -0.184388 -0.004276
-0.042797 -0.198227 -0.000511
-0.044726 -0.139068 0.000590
-0.046311 -0.188214 -0.001516
-0.042430 -0.193985 0.005442
-0.044091 -0.210790 -0.005413
-0.045394 -0.241514 -0.004535
-0.031078 -0.204259 -0.007242
-0.030139 -0.185734 -0.001358
-0.028311 -0.188583 -0.005634
-0.031168 -0.193680 -0.011065
-0.030193 -0.209223 -0.003315
-0.030554 -0.208145 0.002302
-0.030001 -0.159870 -0.005957
-0.032117 -0.184976 0.003485
-0.029854 -0.185598 -0.008109
-0.029888 -0.241594 -0.000633
-0.029065 -0.218192 -0.006215
-0.030068 -0.226394 0.002100
-0.034009 -0.183345 -0.003142
-0.031020 -0.178802 -0.006979
-0.032566 -0.147677 -0.001849
-0.030425 -0.197633 -0.006281
-0.027809 -0.257695 -0.003697
-0.036763 -0.171398 -0.004813
-0.030868 -0.177894 0.001223
-0.031779 -0.172177 -0.009383
-0.029134 -0.221297 -0.001141
-0.033388 -0.213322 0.002127
-0.030465 -0.171944 -0.002372
-0.033373 -0.190425 0.001623
-0.032242 -0.228834 -0.004362
-0.031854 -0.193454 -0.004059
-0.029657 -0.202495 -0.001322
-0.032626 -0.165492 0.001871
-0.035246 -0.197389 -0.000690
-0.031554 -0.200952 0.005232
-0.029715 -0.211309 -0.008524
-0.030459 -0.235057 -0.007496
-0.043683 -0.119485 -0.011285
-0.044647 -0.109525 -0.009804
-0.043836 -0.114082 -0.012814
-0.042809 -0.113339 -0.010616
-0.046205 -0.123840 -0.011476
-0.045101 -0.120896 -0.007039
-0.044628 -0.095384 -0.012033
-0.046652 -0.107193 0.005035
-0.044493 -0.110163 -0.011429
-0.046439 -0.137343 -0.007875
-0.045231 -0.127934 -0.012313
-0.047200 -0.130954 0.001118
-0.045239 -0.109336 -0.010811
-0.044695 -0.105642 -0.012336
-0.046566 -0.091721 -0.009069
-0.045753 -0.115817 -0.012017
-0.046478 -0.142648 -0.011690
-0.043960 -0.099187 -0.011496
-0.046317 -0.107831 -0.004376
-0.042112 -0.102446 -0.011597
-0.046822 -0.127348 -0.006498
-0.046610 -0.122342 0.000322
-0.046509 -0.103046 -0.009569
-0.046064 -0.112777 0.000219
-0.044483 -0.131981 -0.010877
-0.046002 -0.113014 -0.009532
-0.045929 -0.118612 -0.010609
-0.045706 -0.098874 -0.000632
-0.045125 -0.117482 -0.005753
-0.046011 -0.117421 0.005787
-0.041664 -0.122720 -0.011245
-0.044635 -0.134170 -0.011528
-0.035502 -0.116150 -0.007205
-0.036878 -0.107348 -0.005329
-0.038544 -0.109364 -0.007026
-0.038447 -0.111562 -0.007247
-0.036558 -0.119434 -0.007405
-0.035797 -0.117966 -0.004508
-0.038513 -0.090597 -0.006832
-0.035009 -0.106965 -0.001869
-0.037735 -0.107854 -0.007398
-0.035390 -0.134262 -0.006490
-0.037937 -0.123778 -0.007395
-0.035128 -0.126874 -0.004238
-0.035243 -0.105847 -0.006497
-0.036605 -0.103530 -0.006806
-0.036947 -0.084845 -0.006387
-0.037113 -0.114877 -0.007205
-0.037328 -0.142210 -0.006809
-0.034470 -0.095994 -0.006927
-0.035136 -0.103364 -0.004789
-0.037320 -0.101070 -0.007336
-0.036135 -0.124508 -0.006059
-0.034342 -0.120193 -0.004110
-0.036097 -0.099971 -0.005775
-0.034033 -0.110242 -0.004184
-0.034479 -0.128138 -0.006427
-0.035916 -0.111594 -0.006958
-0.036688 -0.115955 -0.005955
-0.034281 -0.095972 -0.004485
-0.033315 -0.112773 -0.005915
-0.034034 -0.114088 -0.000612
-0.037690 -0.120726 -0.007637
-0.038145 -0.131907 -0.006807
-0.042375 -0.173145 -0.007914
-0.040589 -0.150801 -0.001893
-0.041396 -0.154895 -0.004971
-0.045922 -0.157814 -0.008674
-0.041124 -0.179060 -0.004128
-0.040377 -0.175805 0.001153
-0.042471 -0.118988 -0.006116
-0.038860 -0.149322 0.003016
-0.043349 -0.149786 -0.006651
-0.038911 -0.212469 -0.002848
-0.042311 -0.188196 -0.006217
-0.038176 -0.197119 0.000959
-0.042379 -0.146478 -0.004091
-0.041976 -0.139971 -0.005855
-0.041893 -0.107808 -0.003814
-0.042626 -0.166037 -0.005891
-0.041043 -0.228809 -0.004489
-0.042215 -0.130042 -0.005964
-0.038488 -0.139749 0.000109
-0.044163 -0.133948 -0.008603
-0.038929 -0.191876 -0.002639
-0.038218 -0.183341 0.001238
-0.040188 -0.133405 -0.001930
-0.038057 -0.156652 0.000242
-0.040110 -0.199875 -0.005743
-0.041483 -0.160325 -0.005449
-0.040631 -0.171008 -0.002105
-0.038473 -0.126052 -0.000392
-0.038513 -0.163028 -0.002244
-0.037145 -0.167546 0.004002
-0.043678 -0.182224 -0.007574
-0.044182 -0.207761 -0.006104
-0.033157 -0.093959 -0.002928
-0.035843 -0.082237 0.000216
-0.037196 -0.084166 -0.002396
-0.036000 -0.088498 -0.003183
-0.034967 -0.097532 -0.002531
-0.035273 -0.094984 0.000818
-0.036686 -0.056328 -0.002277
-0.034653 -0.080597 0.003807
-0.035790 -0.081723 -0.003246
-0.034199 -0.110176 -0.000778
-0.036057 -0.102466 -0.002645
-0.034547 -0.103505 0.001305
-0.033740 -0.078637 -0.001333
-0.035008 -0.075149 -0.001978
-0.035743 -0.048768 -0.000792
-0.035438 -0.091854 -0.002501
-0.035890 -0.117556 -0.001481
-0.032823 -0.063858 -0.002136
-0.034390 -0.075841 0.001003
-0.035270 -0.071484 -0.003227
-0.034967 -0.101240 -0.000693
-0.033469 -0.097730 0.001945
-0.034922 -0.069385 -0.000310
-0.033196 -0.085742 0.001224
-0.032777 -0.104892 -0.001248
-0.034417 -0.087860 -0.001654
-0.035688 -0.092964 -0.000602
-0.033394 -0.063848 0.001150
-0.032048 -0.089436 -0.000119
-0.033472 -0.091976 0.004399
-0.035236 -0.098964 -0.003795
-0.036539 -0.108555 -0.001901
-0.039088 -0.135453 -0.006642
-0.039608 -0.113808 -0.000685
-0.040133 -0.116250 -0.004874
-0.042095 -0.121048 -0.007953
-0.039314 -0.142079 -0.003067
-0.039668 -0.137262 0.001986
-0.040722 -0.073021 -0.005213
-0.037921 -0.110405 0.005046
-0.040624 -0.110563 -0.006368
-0.037931 -0.172203 -0.001221
-0.039880 -0.150749 -0.005397
-0.037926 -0.158014 0.002501
-0.039770 -0.107528 -0.002228
-0.039754 -0.100216 -0.004493
-0.039935 -0.058528 -0.002008
-0.040088 -0.128959 -0.004829
-0.039767 -0.187357 -0.003856
-0.038796 -0.086165 -0.003482
-0.037682 -0.100817 0.001318
-0.040614 -0.094526 -0.007378
-0.038284 -0.151777 -0.001312
-0.037414 -0.145276 0.003659
-0.038364 -0.091288 -0.000467
-0.037357 -0.118442 0.002301
-0.038018 -0.160394 -0.003564
-0.039529 -0.122692 -0.003312
-0.039269 -0.132744 -0.001452
-0.036626 -0.083236 0.001339
-0.036850 -0.126136 0.000614
-0.036928 -0.129924 0.006134
-0.040452 -0.144974 -0.007438
-0.042104 -0.167799 -0.006065
-0.041428 -0.085238 0.002476
-0.041942 -0.044119 0.003213
-0.040158 -0.055506 0.000407
-0.040464 -0.067563 -0.002223
-0.041034 -0.092280 0.002970
-0.042646 -0.092170 0.003812
-0.040869 0.007054 0.002097
-0.043386 -0.049387 0.004957
-0.040934 -0.045386 -0.001152
-0.041857 -0.135254 0.004717
-0.038864 -0.107884 0.000887
-0.041053 -0.117695 0.004317
-0.046165 -0.038631 0.004155
-0.040892 -0.030800 0.001675
-0.043845 0.026651 0.005113
-0.040785 -0.072720 0.000574
-0.039550 -0.154459 0.003286
-0.047438 -0.012276 0.003789
-0.043152 -0.022936 0.005300
-0.041553 -0.019500 -0.000025
-0.041740 -0.110601 0.003905
-0.045711 -0.100092 0.004280
-0.040229 -0.014649 0.002968
-0.046767 -0.054321 0.004126
-0.044322 -0.120105 0.003408
-0.042524 -0.062870 0.003179
-0.041013 -0.080616 0.003065
-0.044350 -0.000593 0.004919
-0.046849 -0.070090 0.004319
-0.043601 -0.076901 0.006598
-0.039342 -0.096678 -0.000966
-0.040921 -0.128495 0.000258
-0.043900 -0.104248 -0.011427
-0.044406 -0.094732 -0.010048
-0.043832 -0.099197 -0.012878
-0.043016 -0.098650 -0.010712
-0.046229 -0.108138 -0.011861
-0.044836 -0.105305 -0.007327
-0.044507 -0.081259 -0.012183
-0.046676 -0.092433 0.005045
-0.044643 -0.095574 -0.011594
-0.046517 -0.120543 -0.008319
-0.045289 -0.111983 -0.012514
-0.047224 -0.114762 0.000931
-0.045300 -0.094626 -0.011158
-0.044755 -0.091297 -0.012480
-0.046503 -0.077630 -0.009410
-0.045834 -0.100767 -0.012229
-0.046486 -0.125631 -0.011924
-0.044031 -0.084658 -0.011808
-0.046362 -0.093220 -0.004752
-0.042274 -0.087967 -0.011636
-0.046874 -0.111415 -0.006809
-0.046608 -0.106631 0.000088
-0.046396 -0.088670 -0.010058
-0.046139 -0.097846 0.000093
-0.044540 -0.115430 -0.011217
-0.045991 -0.098137 -0.009806
-0.045936 -0.103299 -0.010912
-0.045821 -0.084417 -0.000812
-0.045144 -0.102241 -0.006179
-0.046135 -0.102439 0.005884
-0.042027 -0.107119 -0.011453
-0.044686 -0.117486 -0.011575
-0.044771 -0.046615 0.001367
-0.038971 -0.008946 0.007121
-0.038061 -0.031583 0.006717
-0.042366 -0.033177 0.008674
-0.041244 -0.050771 0.008415
-0.038017 -0.058708 0.007268
-0.038915 0.036885 0.008829
-0.039549 -0.022421 0.007350
-0.041980 -0.015756 0.009531
-0.044671 -0.091014 0.006403
-0.038775 -0.064464 0.008489
-0.037353 -0.073349 0.007246
-0.047078 -0.005872 0.006887
-0.040354 0.000057 0.008275
-0.045383 0.061029 0.007715
-0.040019 -0.038327 0.008255
-0.041324 -0.106027 0.008972
-0.047262 0.023537 0.002563
-0.041733 0.017610 0.008490
-0.046890 0.006911 0.008774
-0.043467 -0.074194 0.007911
-0.047006 -0.063069 0.006198
-0.037269 0.014974 0.008055
-0.046751 -0.018695 0.004990
-0.046375 -0.078739 0.003816
-0.041624 -0.026859 0.007689
-0.038506 -0.048171 0.009341
-0.045864 0.032778 0.005326
-0.045781 -0.032579 0.002807
-0.044865 -0.040878 0.006444
-0.045484 -0.058283 0.007573
-0.038843 -0.086195 0.009980
-0.048444 -0.174112 -0.000910
-0.043089 -0.141782 -0.000324
-0.039320 -0.147849 -0.005431
-0.039899 -0.158549 -0.010536
-0.043509 -0.179876 -0.000370
-0.044372 -0.179736 0.002973
-0.041706 -0.105530 -0.003586
-0.047532 -0.142976 0.004990
-0.041804 -0.141504 -0.007977
-0.046087 -0.225756 0.002846
-0.041141 -0.194656 -0.004136
-0.044494 -0.204227 0.003734
-0.052263 -0.137925 0.001169
-0.043727 -0.132395 -0.004553
-0.047435 -0.091178 0.001842
-0.041403 -0.162154 -0.005297
-0.039516 -0.247053 -0.001560
-0.060329 -0.123523 0.001368
-0.047326 -0.127556 0.003655
-0.044691 -0.119629 -0.006388
-0.044462 -0.197617 0.002431
-0.054649 -0.186978 0.005055
-0.043171 -0.121651 -0.000682
-0.056478 -0.149434 0.005519
-0.053086 -0.209136 0.001218
-0.048101 -0.155627 0.000296
-0.041518 -0.169421 -0.000315
-0.054561 -0.110682 0.005654
-0.060305 -0.163354 0.004473
-0.051439 -0.167302 0.007713
-0.042526 -0.182997 -0.006188
-0.040623 -0.216222 -0.006874
-0.043881 -0.093676 -0.011371
-0.045130 -0.083358 -0.009205
-0.044628 -0.087107 -0.012800
-0.043242 -0.087368 -0.010692
-0.046183 -0.097859 -0.011556
-0.045556 -0.094317 -0.006163
-0.044729 -0.067775 -0.012062
-0.046691 -0.080383 0.005885
-0.044621 -0.083315 -0.011567
-0.046563 -0.111702 -0.007722
-0.045335 -0.102248 -0.012409
-0.047272 -0.105251 0.001754
-0.045354 -0.082270 -0.010813
-0.044767 -0.078719 -0.012340
-0.046577 -0.064013 -0.008740
-0.045715 -0.089959 -0.012112
-0.046535 -0.117443 -0.011651
-0.044179 -0.071588 -0.011497
-0.046368 -0.081049 -0.003858
-0.042384 -0.074858 -0.011556
-0.046883 -0.101391 -0.006249
-0.046678 -0.096389 0.001119
-0.046354 -0.075977 -0.009438
-0.046225 -0.086305 0.001041
-0.044634 -0.106089 -0.010870
-0.045985 -0.086767 -0.009586
-0.046037 -0.092563 -0.010307
-0.045899 -0.071290 0.000227
-0.045240 -0.090840 -0.005522
-0.046281 -0.091776 0.006746
-0.042070 -0.097168 -0.011417
-0.044972 -0.108428 -0.011555
-0.044265 -0.163595 -0.000563
-0.038537 -0.132629 -0.000052
-0.035362 -0.139929 -0.004278
-0.036480 -0.149617 -0.009922
-0.039828 -0.168884 0.000074
-0.039068 -0.169990 0.002783
-0.038093 -0.099760 -0.002461
-0.041885 -0.135239 0.004332
-0.038363 -0.133791 -0.007166
-0.042006 -0.214020 0.002460
-0.037258 -0.183261 -0.003735
-0.039115 -0.194135 0.003371
-0.048225 -0.130555 0.001186
-0.040132 -0.125572 -0.003630
-0.043097 -0.084650 0.002418
-0.037982 -0.152675 -0.004662
-0.035452 -0.233911 -0.001250
-0.055627 -0.116639 0.001350
-0.042759 -0.119955 0.003524
-0.040989 -0.115237 -0.005524
-0.040374 -0.187321 0.002035
-0.049303 -0.176621 0.003879
-0.038970 -0.114698 -0.000284
-0.050785 -0.140645 0.004250
-0.048825 -0.198213 0.000835
-0.043681 -0.146140 0.000379
-0.037813 -0.159445 0.000214
-0.048904 -0.105049 0.004818
-0.055343 -0.153897 0.003275
-0.045501 -0.157226 0.007040
-0.038768 -0.172237 -0.006016
-0.036922 -0.204900 -0.006444
-0.029488 -0.169088 -0.004800
-0.028228 -0.145989 0.000964
-0.026065 -0.151055 -0.004509
-0.027426 -0.158257 -0.011394
-0.028820 -0.174583 -0.001095
-0.028950 -0.173914 0.004379
-0.027559 -0.113993 -0.003728
-0.030721 -0.146603 0.005904
-0.027497 -0.146938 -0.007938
-0.028896 -0.210001 0.001890
-0.026883 -0.185396 -0.004785
-0.028540 -0.194039 0.004202
-0.033558 -0.144241 -0.000265
-0.029286 -0.139421 -0.005049
-0.031162 -0.097566 0.001773
-0.028259 -0.161579 -0.004981
-0.025420 -0.226517 -0.002125
-0.037070 -0.128783 -0.001400
-0.030476 -0.136908 0.003772
-0.028976 -0.131402 -0.007891
-0.028437 -0.187575 0.001451
-0.033638 -0.179261 0.004265
-0.028524 -0.129327 -0.000103
-0.034185 -0.152066 0.004219
-0.031927 -0.196606 -0.001548
-0.030918 -0.156107 -0.000914
-0.028137 -0.166679 0.000750
-0.032414 -0.121007 0.004968
-0.036374 -0.161574 0.002170
-0.031102 -0.164792 0.008001
-0.027122 -0.176933 -0.008380
-0.027501 -0.202888 -0.007264
-0.035310 -0.088635 -0.007040
