-0.302574 -0.210826 0.105761
-0.291735 -0.050523 0.141018
-0.271054 -0.195411 0.077752
-0.286601 -0.079914 0.108300
-0.269223 0.015927 0.160528
-0.310449 0.074688 0.150020
-0.314559 -0.014857 0.103850
-0.210996 -0.056140 0.160595
-0.273765 0.062400 0.165996
-0.250358 0.034395 0.167593
-0.251747 0.064498 0.175461
-0.209336 0.011003 0.180256
-0.281774 0.110833 0.168791
-0.314900 -0.062729 0.063480
-0.229143 -0.082713 0.118871
-0.265015 0.104002 0.167878
-0.325161 0.202568 0.165735
-0.290218 0.076007 0.132089
-0.278207 0.019699 0.115315
-0.260254 0.166963 0.189986
-0.199601 -0.129860 0.096276
-0.236520 -0.108004 0.076996
-0.152584 -0.026594 0.176758
-0.203119 0.090705 0.189397
-0.091294 -0.196511 0.139383
-0.194974 -0.172349 0.069849
-0.251814 0.036952 0.122561
-0.332896 0.164235 0.114637
-0.308446 0.044099 0.077487
-0.324287 -0.245642 -0.071926
-0.284720 0.189429 0.157117
-0.232111 -0.011691 0.103475
-0.281714 0.110075 0.120236
-0.290893 0.077498 0.098301
-0.285986 -0.091749 0.023073
-0.109285 -0.067415 0.169513
-0.113466 -0.186849 0.109402
-0.145228 0.042913 0.189795
-0.327649 -0.211157 -0.069645
-0.141000 -0.100871 0.124979
-0.274624 -0.238892 -0.044957
-0.246841 0.024785 0.099524
-0.315363 -0.037711 0.017141
-0.278603 0.145949 0.128237
-0.130114 -0.179292 0.090006
-0.181433 0.005927 0.131408
-0.281691 -0.184063 -0.037459
-0.293548 -0.227464 -0.074284
-0.226931 -0.101009 0.037869
-0.248769 0.070745 0.100018
-0.297985 -0.191604 -0.062211
-0.352873 0.134494 0.043546
-0.291482 0.078866 0.065990
-0.127307 -0.049249 0.132059
-0.191308 0.193009 0.192368
-0.158841 0.115290 0.181628
-0.309398 0.024253 0.023935
-0.124254 -0.143687 0.087523
-0.223712 -0.228104 -0.030135
-0.314910 -0.066354 -0.026931
-0.099154 0.013894 0.175760
-0.260275 0.204468 0.138837
-0.259395 0.046070 0.065025
-0.281659 0.109377 0.075568
-0.193582 -0.094299 0.046574
-0.279053 0.140661 0.087578
-0.220418 -0.000704 0.067893
-0.251859 -0.202268 -0.050992
-0.283500 0.179628 0.097274
-0.226635 -0.192275 -0.039816
-0.112114 -0.096723 0.091670
-0.101747 0.107327 0.190469
-0.316902 0.034789 -0.009092
-0.068531 -0.079774 0.129087
-0.043074 -0.035378 0.167437
-0.284898 0.043275 0.015432
-0.315225 0.195679 0.060186
-0.065729 0.047868 0.183374
-0.209872 0.120671 0.104672
-0.249449 -0.017637 0.009437
-0.135077 -0.015524 0.096729
-0.246469 0.026675 0.025372
-0.289905 0.075002 0.013778
-0.315874 -0.038536 -0.060579
-0.266828 0.054708 0.021331
-0.188689 -0.013308 0.046905
-0.234552 -0.098041 -0.029979
-0.187189 -0.168953 -0.027181
-0.332702 0.011266 -0.056143
-0.283783 0.100195 0.020473
-0.227321 -0.184966 -0.069499
-0.274449 -0.084076 -0.060706
-0.151188 0.069467 0.104558
-0.278048 0.126473 0.032978
-0.152609 0.161959 0.141826
-0.013450 -0.107301 0.123753
-0.079964 0.023984 0.132776
-0.107536 -0.234329 -0.010134
-0.015416 -0.026998 0.154603
-0.138671 -0.167397 -0.004193
-0.011854 0.030870 0.182100
-0.309315 -0.077018 -0.096327
-0.187279 -0.217579 -0.067992
-0.339775 0.086145 -0.048252
-0.107160 0.189249 0.176800
-0.051866 0.137430 0.194928
-0.310886 -0.029877 -0.081554
-0.285724 0.195541 0.041721
-0.286748 0.000740 -0.049465
0.039990 -0.039715 0.179604
-0.176454 -0.140437 -0.030157
-0.237796 -0.057560 -0.041023
-0.244364 0.022266 -0.012904
0.015074 -0.027257 0.160397
-0.118867 -0.199920 -0.021556
-0.084741 -0.071506 0.064527
-0.283863 0.100137 -0.014506
-0.327055 0.035451 -0.079709
-0.217751 0.007304 -0.007253
-0.096113 -0.176397 -0.000760
-0.336358 0.032508 -0.090913
-0.291793 0.081518 -0.032446
0.086300 -0.247887 0.100082
-0.147416 -0.180687 -0.044978
-0.355181 0.085441 -0.084244
-0.089128 -0.104701 0.032720
-0.048031 -0.007725 0.108082
-0.279303 0.161630 0.008162
-0.277989 0.135292 -0.006754
-0.136837 0.000749 0.039674
-0.167907 -0.175830 -0.067372
-0.109979 0.117162 0.112087
-0.047224 -0.251055 -0.010629
-0.232497 -0.127124 -0.096193
-0.310524 -0.015810 -0.106011
-0.322260 -0.057603 -0.137369
-0.282365 -0.092140 -0.122697
-0.094646 -0.190135 -0.022662
0.082859 -0.203936 0.102939
0.065954 0.023575 0.192949
0.086680 -0.049018 0.174952
-0.178129 -0.227339 -0.109039
0.025510 0.085026 0.189441
-0.077558 -0.214479 -0.026219
0.016182 -0.096442 0.098918
0.063137 -0.081209 0.137360
0.114083 -0.251982 0.095186
-0.206097 -0.166241 -0.109566
-0.245350 0.018073 -0.053057
-0.016289 0.055863 0.136788
-0.169963 -0.022158 -0.016749
-0.302064 -0.034416 -0.127190
-0.291510 0.081995 -0.064796
-0.308432 -0.088550 -0.160964
-0.058161 -0.186322 -0.012070
-0.290762 0.209241 -0.010961
-0.149151 -0.182928 -0.085002
-0.279893 0.170224 -0.022101
-0.218266 -0.006772 -0.055977
-0.039876 0.000704 0.082718
0.083103 -0.031700 0.157302
-0.024820 -0.251448 -0.027617
-0.247936 -0.153875 -0.155144
-0.175253 -0.202477 -0.122419
-0.327594 0.037162 -0.128122
-0.256142 -0.105865 -0.141769
-0.279070 0.006795 -0.106924
0.031983 -0.003413 0.125001
-0.330513 0.028396 -0.139241
0.119980 -0.001685 0.187648
0.109329 -0.190998 0.092983
-0.130489 -0.091441 -0.042183
-0.165472 -0.104576 -0.076300
-0.175625 -0.230255 -0.145861
-0.039906 -0.214454 -0.033376
-0.291687 0.079674 -0.091053
-0.346415 0.083867 -0.133339
-0.106364 -0.007294 0.010532
-0.241891 -0.070527 -0.126442
0.086643 -0.098213 0.109477
-0.307683 -0.004371 -0.148892
0.111332 -0.218876 0.070275
-0.202271 -0.152550 -0.137727
-0.151854 -0.252179 -0.147349
-0.279453 0.140769 -0.061101
-0.009753 -0.221343 -0.023290
0.003686 0.041828 0.108342
0.074256 0.084883 0.178660
0.124869 -0.090358 0.136004
-0.328007 -0.018587 -0.177594
-0.015902 0.153299 0.140635
-0.324606 0.072013 -0.133486
-0.290614 0.208849 -0.043734
-0.289723 -0.036139 -0.158838
-0.275454 -0.064994 -0.162228
-0.251987 0.036038 -0.095803
-0.258066 -0.104870 -0.169945
-0.272489 0.060354 -0.103134
0.129504 -0.237707 0.062641
0.084139 -0.030880 0.125511
-0.102268 -0.162397 -0.076979
-0.351593 0.130466 -0.135507
0.042778 0.186191 0.188732
0.170709 -0.055575 0.172280
0.115308 -0.018958 0.147294
-0.169500 -0.104973 -0.108046
0.119158 -0.022079 0.146875
-0.164000 -0.204590 -0.154726
0.129877 -0.120413 0.106702
-0.224525 -0.131907 -0.168734
0.128925 -0.184602 0.074565
-0.012978 -0.093014 0.008861
-0.188723 -0.012284 -0.087932
-0.278832 0.119514 -0.099296
0.123706 -0.152837 0.079114
-0.339730 0.107634 -0.155518
-0.289091 -0.058928 -0.194703
-0.360832 0.198596 -0.130793
-0.133474 -0.202966 -0.141537
-0.244331 0.022878 -0.121318
0.144606 -0.098326 0.115611
-0.305300 0.032835 -0.166287
-0.315151 0.020542 -0.180806
0.160131 -0.010766 0.165939
-0.297650 0.007021 -0.174076
0.138289 0.061924 0.181146
-0.284772 0.097609 -0.127337
0.105082 0.141964 0.186482
0.070792 -0.011808 0.090124
-0.279958 0.004278 -0.172019
-0.226715 -0.007590 -0.136246
-0.115335 -0.011333 -0.051158
-0.175820 -0.137975 -0.158155
0.190142 0.004143 0.180035
-0.285811 0.195808 -0.089708
0.071788 -0.099754 0.045271
-0.220999 -0.099699 -0.179678
-0.052653 -0.093292 -0.046027
-0.232611 -0.070289 -0.175928
-0.312562 0.074964 -0.172559
-0.249366 -0.035773 -0.174832
-0.351018 0.185146 -0.153337
0.118003 -0.018377 0.109497
0.217924 -0.077140 0.154461
-0.212979 -0.090709 -0.176495
-0.242711 0.019243 -0.147592
-0.128830 -0.013045 -0.074426
-0.133382 -0.139101 -0.140098
-0.280613 0.172988 -0.111251
0.142509 -0.194729 0.039111
0.165627 -0.010552 0.140212
-0.317714 0.102929 -0.174154
-0.139585 -0.105997 -0.133894
0.167638 0.100186 0.190537
0.098662 -0.025888 0.083911
-0.286350 0.073319 -0.164048
0.123127 0.044165 0.131024
-0.199212 -0.000253 -0.132954
0.073440 0.119615 0.125435
0.080858 -0.033109 0.061955
0.080667 -0.021949 0.066159
-0.260979 -0.024148 -0.196219
-0.263827 0.044605 -0.167543
-0.357007 0.243067 -0.150472
-0.238569 0.004332 -0.169314
-0.278519 0.157051 -0.131944
-0.210144 -0.050375 -0.177333
-0.173196 -0.100565 -0.173743
-0.283637 0.105070 -0.163580
0.209132 -0.168995 0.080350
-0.239688 0.003918 -0.179623
-0.303699 0.125303 -0.177982
-0.207220 -0.008045 -0.165496
0.144173 -0.091927 0.058562
-0.322887 0.172956 -0.175408
0.224815 -0.128476 0.098388
-0.212741 -0.046811 -0.195694
0.189929 -0.178159 0.047453
0.076839 -0.035945 0.030496
-0.286321 0.196881 -0.139394
-0.278256 0.134268 -0.162028
-0.082038 -0.007985 -0.078444
-0.062012 -0.103851 -0.108903
0.151962 0.072154 0.132586
0.228525 0.050586 0.177069
-0.339760 0.229666 -0.170609
0.273158 -0.021477 0.174032
0.107193 -0.097706 0.017735
-0.134103 -0.003351 -0.121377
0.158982 -0.013746 0.091500
-0.104598 -0.125049 -0.158171
-0.008596 -0.007317 -0.029634
-0.074756 -0.128656 -0.138641
-0.322713 0.203625 -0.176502
-0.036875 -0.019066 -0.058739
0.176124 0.177052 0.186427
-0.132511 -0.101662 -0.172163
-0.170335 -0.042264 -0.174335
0.052822 -0.007228 0.011380
0.193102 -0.151020 0.044969
-0.222732 -0.023385 -0.211782
-0.161055 -0.081479 -0.191684
-0.283189 0.173330 -0.167617
-0.316484 0.244064 -0.164399
0.112502 -0.005974 0.047761
0.209622 -0.010403 0.114689
0.172013 -0.179020 0.008408
-0.139431 -0.018082 -0.151445
0.114995 0.152776 0.118111
-0.294509 0.213575 -0.164973
0.146046 -0.013797 0.063315
0.219591 -0.005800 0.117030
0.060371 -0.017402 -0.007728
-0.195800 -0.023692 -0.206401
0.069247 -0.041690 -0.013875
-0.046851 -0.122893 -0.140657
-0.220107 0.017927 -0.210297
-0.129950 -0.060071 -0.177391
0.305828 -0.060757 0.143891
0.324443 -0.197810 0.094195
-0.150303 -0.024774 -0.178135
-0.094002 -0.099648 -0.171320
-0.098427 -0.095594 -0.174207
0.080111 -0.099204 -0.041237
0.123690 -0.017151 0.029711
0.159264 0.031325 0.077066
0.081921 -0.242755 -0.109390
0.235915 0.151648 0.183394
0.283800 -0.092582 0.106064
0.258011 0.093611 0.172015
0.166821 -0.174659 -0.017144
-0.208976 -0.001358 -0.224320
0.287631 -0.187222 0.061168
0.020563 -0.111215 -0.100375
-0.155735 -0.023262 -0.195214
-0.087394 -0.069779 -0.168284
0.066220 -0.044177 -0.039620
0.084219 -0.201511 -0.101737
0.058391 -0.119989 -0.082690
0.265754 -0.179251 0.040210
0.006332 -0.052301 -0.092351
0.105708 -0.023922 -0.004754
0.248709 0.057011 0.134570
0.135023 -0.160981 -0.049257
0.115388 -0.190017 -0.080709
0.135456 -0.183485 -0.063882
0.147820 -0.236048 -0.080350
-0.151563 -0.021155 -0.205041
0.190197 -0.228014 -0.046437
-0.103602 -0.039769 -0.177832
0.187261 -0.157271 -0.014190
-0.040547 -0.014077 -0.118379
-0.069521 -0.023087 -0.145958
-0.179410 0.018061 -0.211982
0.264510 -0.098657 0.066479
-0.117957 -0.030529 -0.189723
0.219159 -0.232455 -0.031644
0.254498 -0.010306 0.095151
0.299458 0.016375 0.138439
-0.018037 -0.112420 -0.155066
0.150842 -0.013231 0.015684
-0.058420 -0.076161 -0.174466
0.120063 -0.242148 -0.118906
-0.039412 -0.094975 -0.169823
0.235365 -0.006406 0.074594
0.160825 -0.206719 -0.074603
0.190284 -0.192150 -0.046216
0.100773 -0.216759 -0.125410
0.025862 -0.022347 -0.089616
-0.142834 0.021347 -0.199268
0.059923 -0.049313 -0.076940
-0.103147 -0.020866 -0.189984
0.169218 -0.184968 -0.062032
-0.027770 -0.091082 -0.167091
0.125471 -0.199450 -0.103284
-0.155053 0.004144 -0.221142
0.135357 -0.068165 -0.035615
0.328467 -0.048572 0.112548
0.199312 -0.134210 -0.023230
0.106560 -0.026008 -0.043270
0.205334 -0.020182 0.031692
-0.058846 -0.040190 -0.177192
0.224303 -0.170863 -0.028631
0.227170 -0.214533 -0.049065
0.052861 -0.115303 -0.132578
0.153536 -0.012913 -0.011063
0.056094 -0.054522 -0.104102
0.057863 -0.116846 -0.134228
-0.008861 -0.086382 -0.170953
0.243193 -0.097298 0.009857
0.109529 -0.022834 -0.053846
0.094918 -0.013124 -0.060933
-0.085772 -0.018711 -0.200582
-0.050267 -0.022979 -0.176060
0.291983 0.086681 0.126412
0.197294 -0.094123 -0.024521
0.148874 -0.098137 -0.063830
0.236479 0.149502 0.112361
0.334913 -0.083374 0.077236
0.219438 -0.008890 0.027918
-0.113426 -0.001399 -0.218972
0.111162 -0.111448 -0.103256
-0.027089 -0.013317 -0.163155
0.233936 -0.185550 -0.051105
0.031155 -0.097374 -0.161014
0.082190 -0.031788 -0.096937
0.055482 -0.056197 -0.130896
0.319021 0.002704 0.086556
0.012335 -0.071355 -0.173340
-0.013205 -0.034587 -0.176885
0.259869 -0.236484 -0.069463
-0.077602 0.012918 -0.204401
0.265948 -0.177568 -0.040254
0.183526 -0.012849 -0.023858
0.008459 -0.054888 -0.176707
0.038923 -0.002460 -0.130722
0.253310 0.077060 0.061612
0.251886 -0.204017 -0.070292
0.094136 -0.116252 -0.145710
0.180049 -0.125876 -0.090919
0.056045 -0.011275 -0.129779
0.240317 -0.187327 -0.077440
0.278348 0.012278 0.041663
0.125450 -0.118623 -0.132792
0.263873 -0.104382 -0.025554
0.201287 -0.019701 -0.033352
0.035220 -0.047490 -0.169680
0.317604 -0.039423 0.039616
0.107314 -0.009058 -0.102486
0.164523 -0.012288 -0.064694
0.123414 -0.018510 -0.099060
0.083845 -0.091049 -0.163592
0.161751 -0.014562 -0.075233
0.338379 -0.086773 0.016865
0.065401 -0.044974 -0.164404
0.259690 -0.170341 -0.083161
0.091220 -0.100236 -0.174288
0.066130 -0.077467 -0.182961
0.277105 -0.224229 -0.095722
0.063181 -0.039846 -0.169581
0.105578 -0.024315 -0.131376
0.174050 -0.103025 -0.121501
0.228679 -0.016861 -0.041411
0.137002 -0.107226 -0.154202
0.104379 -0.026568 -0.140515
0.129238 -0.018287 -0.118280
0.294341 -0.186525 -0.076858
0.134965 -0.112046 -0.161653
0.081442 -0.015925 -0.163517
0.289273 -0.199275 -0.101107
0.327944 -0.022197 0.006383
0.171850 -0.011742 -0.111159
0.123110 -0.073307 -0.177979
0.176574 -0.113415 -0.158287
0.320926 -0.248445 -0.118240
0.195560 -0.024903 -0.105496
0.096451 -0.041082 -0.187120
0.264143 -0.106937 -0.095122
0.259525 0.034925 -0.035988
0.151788 -0.094909 -0.177635
0.124830 -0.046752 -0.179143
0.307157 -0.209202 -0.122938
0.327048 -0.193748 -0.100858
0.344652 -0.085405 -0.037698
0.284880 0.001619 -0.040719
0.329743 -0.055143 -0.035816
0.287221 -0.008948 -0.045714
0.139297 -0.072395 -0.184301
0.204884 -0.114347 -0.155997
0.251056 -0.103506 -0.119299
0.122090 -0.032132 -0.186994
0.320453 -0.091277 -0.071626
0.249438 -0.004923 -0.082433
0.228867 -0.112814 -0.156530
0.252777 -0.116976 -0.143553
0.159709 -0.028429 -0.171629
0.142053 -0.013979 -0.177355
0.268166 -0.051042 -0.104858
0.319526 -0.017451 -0.056062
0.182262 -0.076222 -0.183530
0.196568 -0.086030 -0.183215
0.164266 -0.044766 -0.187029
0.212132 -0.096190 -0.176792
0.290261 0.019126 -0.066429
0.191515 -0.023081 -0.159841
0.241972 -0.019973 -0.130635
0.172485 -0.017082 -0.183220
0.198429 -0.033431 -0.180082
0.279938 -0.112437 -0.159053
0.235067 -0.022184 -0.151349
0.210695 -0.054572 -0.186732
0.239250 -0.077131 -0.183461
0.229710 -0.058202 -0.182534
0.275181 -0.090257 -0.168111
0.210395 -0.026487 -0.187352
0.335130 -0.101427 -0.136750
0.346096 -0.090882 -0.124952
0.320974 -0.113737 -0.155839
0.356880 -0.064804 -0.108456
0.232646 -0.007921 -0.176434
0.265127 -0.064075 -0.183583
0.325780 -0.039141 -0.127380
0.250611 -0.029925 -0.180823
0.300165 -0.091284 -0.179044
0.277749 -0.019739 -0.162179
0.277566 -0.061605 -0.183145
0.280474 -0.032637 -0.169818
0.359111 -0.114945 -0.152852
0.295323 -0.047765 -0.169940
0.274930 -0.052134 -0.186837
0.291293 -0.002435 -0.153228
0.290114 -0.012580 -0.159075
