-0.079058 -0.114201 0.462607
-0.084216 -0.112918 0.438278
-0.056184 -0.139801 0.445901
-0.084212 -0.084088 0.438282
-0.043578 -0.159996 0.431920
-0.079001 -0.131707 0.417919
-0.084182 -0.102454 0.413030
-0.073855 -0.095264 0.421105
-0.044868 -0.122386 0.424876
-0.018777 -0.147383 0.428749
-0.032948 -0.096014 0.439254
-0.048158 -0.053957 0.445528
-0.078837 -0.111641 0.393080
-0.084167 -0.078304 0.400561
-0.078992 -0.054964 0.411642
-0.058369 -0.132415 0.393056
0.020810 -0.146346 0.437808
-0.076577 -0.051925 0.402768
-0.076305 -0.093131 0.384250
-0.051422 -0.108832 0.393048
0.019153 -0.115652 0.436846
0.051373 -0.159228 0.431077
-0.022992 -0.120697 0.393014
-0.084144 -0.040091 0.382048
-0.054764 -0.009658 0.414753
0.002180 -0.058542 0.433453
-0.084131 -0.058717 0.369831
-0.078918 -0.105365 0.350246
0.046217 -0.137732 0.426698
-0.000970 -0.132387 0.392988
-0.084106 -0.077036 0.351694
-0.051855 0.031245 0.420522
-0.064093 -0.107702 0.347270
-0.080034 -0.018981 0.374779
-0.084131 -0.021138 0.369831
-0.021841 0.016105 0.430395
-0.074781 0.024795 0.391680
0.021680 -0.129208 0.392961
-0.022470 -0.105897 0.369712
0.047641 -0.097068 0.423967
-0.084153 0.049626 0.388192
-0.073569 -0.052436 0.349503
0.079990 -0.097213 0.435699
-0.084074 -0.071786 0.327851
-0.084058 -0.099176 0.316073
-0.084161 0.087615 0.394363
0.050621 -0.036152 0.436855
-0.084091 -0.034875 0.339724
0.022652 0.003305 0.433240
-0.084107 -0.007003 0.351693
0.014682 -0.049032 0.402609
0.030788 -0.113589 0.384946
-0.084113 0.016374 0.357716
0.060902 -0.132356 0.392915
-0.052924 -0.116550 0.310285
-0.081765 -0.062880 0.310589
-0.054759 0.099651 0.401078
0.075193 -0.104145 0.405346
-0.018727 -0.115353 0.330123
-0.084059 -0.039209 0.316072
-0.084043 -0.062025 0.304388
-0.078838 -0.112237 0.285514
-0.084145 0.120273 0.382048
-0.084114 0.063157 0.357715
-0.084075 -0.002316 0.327850
-0.084022 -0.089060 0.287032
-0.075045 0.037623 0.348098
0.058868 -0.106785 0.381128
0.077855 -0.047557 0.415887
-0.084114 0.095906 0.357715
-0.073026 -0.100491 0.277108
-0.004182 0.091558 0.408061
-0.084029 -0.038898 0.292795
-0.084075 0.039366 0.327850
0.036021 -0.118058 0.345197
0.070402 0.001352 0.421586
-0.084042 -0.011486 0.304389
-0.071052 -0.000131 0.318461
-0.084010 -0.070512 0.275576
-0.075593 -0.027777 0.292622
-0.078796 -0.110921 0.251379
-0.084042 0.020675 0.304389
0.073849 -0.047812 0.386914
-0.084076 0.081049 0.327849
-0.038261 0.090639 0.362045
0.041909 0.070157 0.409285
-0.084105 0.147069 0.351694
-0.084043 0.048242 0.304388
-0.083984 -0.060933 0.252932
-0.083970 -0.083175 0.241742
-0.083996 -0.029453 0.264209
-0.084009 -0.002275 0.275576
-0.084076 0.118099 0.327849
-0.084102 -0.055463 0.249787
0.024909 -0.034835 0.338321
-0.084060 0.099176 0.316071
-0.084008 0.020471 0.275577
-0.084075 0.141256 0.327850
0.076877 -0.002781 0.379355
0.011920 0.128072 0.389621
-0.057052 -0.108831 0.234394
-0.084029 0.070932 0.292795
0.081972 -0.058719 0.355116
-0.077036 0.017864 0.272633
-0.078748 -0.113892 0.212552
-0.012683 -0.101834 0.265754
0.069612 0.035866 0.386032
-0.083983 -0.011284 0.252932
-0.060665 0.111402 0.323416
-0.083969 -0.033719 0.241743
-0.084009 0.047766 0.275576
0.068074 -0.094337 0.320797
0.028343 -0.108379 0.284268
-0.083927 -0.086657 0.208695
-0.084043 0.130942 0.304388
-0.084029 0.107541 0.292795
-0.083983 0.020311 0.252932
-0.078876 0.159625 0.314584
-0.083941 -0.046842 0.219626
-0.067041 -0.104850 0.204884
-0.042183 -0.041268 0.251062
-0.081157 -0.019425 0.230113
0.074516 -0.023987 0.339209
-0.083983 0.051906 0.252932
-0.083995 0.079297 0.264211
-0.083891 -0.103437 0.181734
-0.003608 0.145317 0.350030
-0.083912 -0.064190 0.197849
-0.079822 -0.078489 0.191760
0.063878 -0.111201 0.281432
-0.083941 -0.006692 0.219626
0.057876 0.130534 0.381146
-0.084005 0.120315 0.269879
0.067342 -0.060608 0.297589
0.029802 0.090006 0.336060
-0.064225 0.062027 0.253689
0.084930 0.086407 0.372065
-0.083940 0.024536 0.219627
-0.083912 -0.024348 0.197849
-0.086160 -0.042186 0.187301
-0.020378 0.095820 0.296793
0.074629 -0.074738 0.289681
-0.083953 0.055981 0.230643
-0.083872 -0.085342 0.165802
-0.083892 -0.046216 0.181734
-0.071983 0.144403 0.273804
0.040479 -0.108649 0.242680
-0.078665 -0.115684 0.148375
-0.083912 0.006640 0.197849
-0.083872 -0.063459 0.165802
-0.074847 0.115663 0.248829
-0.067992 -0.105340 0.154288
-0.073190 0.015944 0.205442
-0.083926 0.046662 0.208696
-0.064118 0.075028 0.234597
0.077391 0.021959 0.312325
0.067946 0.066640 0.324300
-0.083872 -0.024071 0.165802
-0.083828 -0.101499 0.129322
-0.083841 -0.075869 0.139647
-0.083853 -0.045693 0.150050
-0.083879 0.006577 0.171092
-0.080601 -0.032437 0.155090
0.014041 -0.111882 0.188574
-0.083892 0.033012 0.181734
0.060327 0.082072 0.306221
-0.071286 0.064854 0.201654
0.077047 -0.008499 0.276028
-0.080269 -0.078185 0.128204
-0.031095 -0.106369 0.151718
0.081004 -0.070839 0.247132
-0.026574 0.051233 0.216163
0.035487 0.088708 0.274179
-0.083803 -0.079310 0.108904
-0.078594 -0.117613 0.092041
-0.083815 -0.049485 0.119076
0.075020 0.034835 0.270189
0.042757 -0.053611 0.207265
-0.083834 -0.006491 0.134475
0.073000 -0.092604 0.210446
-0.078684 0.054878 0.164147
-0.068895 0.029055 0.158085
-0.083847 0.023889 0.144839
-0.002048 0.092613 0.232658
-0.083771 -0.091322 0.083804
-0.083751 -0.111941 0.068965
-0.059528 -0.108400 0.086791
0.092513 -0.034340 0.230043
0.062686 0.059706 0.247346
-0.047348 -0.035911 0.121500
-0.070406 0.050413 0.143504
0.052545 -0.104746 0.163369
-0.083789 -0.019220 0.098809
-0.072992 -0.003230 0.108838
-0.078870 -0.071018 0.073235
0.082145 -0.065630 0.194420
-0.083800 0.015005 0.108906
-0.083765 -0.048757 0.078839
0.051409 0.033764 0.214249
-0.078539 -0.119899 0.047623
-0.083739 -0.082071 0.059163
-0.059608 0.036128 0.127830
0.074618 0.010892 0.212713
-0.011327 0.041176 0.162000
-0.083793 0.036372 0.103849
-0.068093 0.045701 0.119075
0.073951 -0.098439 0.157018
0.006147 -0.107491 0.099463
-0.083765 -0.002120 0.078839
-0.080698 -0.022018 0.071269
0.041244 -0.109056 0.121772
-0.083739 -0.039983 0.059162
-0.083702 -0.101999 0.030180
-0.083715 -0.060585 0.039770
0.083148 -0.017935 0.177762
-0.083758 0.027508 0.073893
0.030194 0.057170 0.169706
-0.083728 -0.018871 0.049431
-0.057966 -0.108583 0.026728
-0.083740 0.010522 0.059162
-0.078480 -0.121893 -0.000060
-0.014335 -0.110602 0.051409
-0.083684 -0.072464 0.015922
0.076790 -0.056984 0.142642
0.070234 0.021590 0.171018
-0.072160 -0.101966 0.008226
-0.083691 -0.039408 0.020657
-0.044931 0.012302 0.072757
-0.076492 -0.063137 0.012508
-0.031617 -0.056501 0.046264
-0.083698 -0.010389 0.025409
-0.083710 0.018768 0.034965
-0.083643 -0.092011 -0.016755
0.082593 -0.077944 0.113482
0.057485 -0.105601 0.082482
0.068984 -0.008900 0.132064
-0.078440 -0.120391 -0.032439
-0.064087 0.036193 0.051158
-0.079476 0.013368 0.025906
-0.083649 -0.059402 -0.012137
-0.000710 0.040745 0.093715
-0.083668 -0.018534 0.001817
-0.085562 -0.080585 -0.032386
-0.083680 0.010333 0.011203
0.040370 -0.039776 0.076398
-0.083617 -0.079042 -0.039605
-0.083606 -0.098962 -0.048633
-0.085365 -0.026789 -0.019217
0.071466 0.027929 0.121070
0.080315 -0.046177 0.093896
-0.083639 -0.022452 -0.021358
0.074804 -0.092815 0.061488
-0.083617 -0.050668 -0.039606
-0.078396 -0.118719 -0.068480
-0.083651 0.010242 -0.012138
-0.078478 0.030990 -0.000059
0.045483 -0.111964 0.026423
-0.057519 -0.112754 -0.055791
-0.008557 -0.110233 -0.024320
-0.083629 -0.002034 -0.030515
-0.083574 -0.089938 -0.075341
0.083374 0.007955 0.094231
-0.083601 -0.030241 -0.053124
-0.083578 -0.062065 -0.070928
-0.050708 0.024412 -0.009815
0.063880 0.015570 0.070374
0.015582 0.010114 0.027625
0.037496 0.005793 0.040009
-0.079820 -0.065619 -0.084681
-0.078341 -0.120649 -0.112146
-0.078427 0.030501 -0.041543
-0.044918 -0.026787 -0.044601
-0.083589 -0.002009 -0.062056
0.076707 -0.063275 0.027344
-0.083535 -0.088860 -0.105805
-0.074992 -0.102365 -0.107215
0.072924 -0.097599 0.003508
-0.083556 -0.041754 -0.088487
0.035459 -0.067852 -0.011595
-0.083540 -0.061320 -0.101498
-0.084520 0.005948 -0.071286
0.083773 0.000607 0.048009
-0.083561 -0.009959 -0.084119
-0.083571 0.017988 -0.075340
-0.078293 -0.118824 -0.150191
-0.083518 -0.041256 -0.118639
-0.083535 -0.009873 -0.105805
-0.083492 -0.079867 -0.139740
-0.083527 -0.049171 -0.125926
0.034404 -0.113985 -0.073301
0.066074 -0.101635 -0.044599
0.028766 0.027512 -0.016848
-0.083539 0.029671 -0.101497
0.082066 -0.014793 0.000784
-0.027746 0.004644 -0.074420
-0.083455 -0.102037 -0.168689
-0.087589 -0.011030 -0.128984
-0.080482 -0.084145 -0.159101
-0.025754 -0.104736 -0.133722
-0.075236 0.018874 -0.114663
-0.083491 -0.021428 -0.139739
-0.083502 -0.001955 -0.131342
0.081465 -0.055231 -0.033030
-0.004671 -0.075079 -0.109591
0.075522 0.019866 -0.004856
-0.083465 -0.052155 -0.160487
0.058351 0.003621 -0.028511
-0.083444 -0.070996 -0.176836
-0.083502 0.029319 -0.131342
-0.078230 -0.116475 -0.199162
-0.083460 -0.028927 -0.164594
-0.049285 -0.104625 -0.177933
0.079509 -0.079677 -0.070542
-0.083475 0.009691 -0.152230
-0.083409 -0.096733 -0.204929
-0.086159 -0.062146 -0.199767
0.052786 -0.033587 -0.080986
-0.083409 -0.073972 -0.204929
0.026433 0.002972 -0.085232
0.079560 0.007638 -0.048629
0.069948 -0.107105 -0.112008
-0.085213 -0.023199 -0.190490
-0.083413 -0.047496 -0.200955
-0.076173 -0.094013 -0.222154
-0.078284 0.040769 -0.158490
0.079490 -0.033699 -0.074861
0.028503 -0.109077 -0.150125
-0.084271 0.018475 -0.176871
-0.083439 0.009578 -0.180889
-0.083368 -0.095477 -0.236254
-0.000399 0.010163 -0.122603
-0.083413 -0.020898 -0.200955
-0.083374 -0.065630 -0.232383
-0.078150 -0.113484 -0.261523
-0.083412 0.020898 -0.200955
-0.035986 -0.112611 -0.230931
-0.016094 -0.048983 -0.186667
-0.083338 -0.087140 -0.259219
0.084166 -0.074691 -0.126691
-0.088010 -0.032000 -0.238183
-0.083369 -0.035570 -0.236254
-0.070059 -0.097398 -0.258400
-0.083388 0.005653 -0.220694
-0.078232 0.047736 -0.199163
-0.083349 -0.053941 -0.251614
0.074810 0.023388 -0.096682
0.077013 -0.092720 -0.151118
-0.050298 0.027588 -0.195224
-0.083365 -0.005607 -0.240113
-0.083324 -0.064580 -0.270536
-0.076213 0.020432 -0.226055
-0.078113 -0.112045 -0.291518
-0.087947 -0.068350 -0.279150
0.035310 -0.111543 -0.205512
-0.083302 -0.086033 -0.289159
-0.083329 -0.035114 -0.266776
-0.078197 0.054742 -0.226846
0.080148 -0.036731 -0.150199
0.005829 -0.107300 -0.244498
-0.083340 0.012978 -0.259219
-0.083277 -0.092474 -0.311120
0.067050 -0.100947 -0.199999
-0.083351 0.035340 -0.251614
-0.083325 -0.005535 -0.270536
-0.050090 -0.094529 -0.288942
0.087801 0.008723 -0.136785
-0.083366 -0.008778 -0.277938
0.066910 0.025937 -0.149695
0.076704 -0.046773 -0.177136
-0.083277 -0.070716 -0.311120
-0.082649 -0.086349 -0.322928
-0.083245 -0.102228 -0.336223
-0.080660 -0.053666 -0.311206
-0.083311 0.012854 -0.281746
0.026163 -0.067693 -0.238247
-0.083281 -0.034505 -0.307489
-0.036026 -0.110950 -0.309873
-0.083331 0.053595 -0.266777
0.030411 0.026027 -0.194051
-0.083245 -0.080707 -0.336223
-0.083290 -0.005465 -0.300192
-0.083254 -0.052173 -0.329106
-0.081399 0.024516 -0.295416
-0.001221 0.028548 -0.233488
-0.083290 0.023684 -0.300192
0.083624 -0.066089 -0.217636
0.079534 0.017488 -0.180864
-0.083218 -0.087068 -0.357308
-0.083259 -0.019821 -0.325532
-0.052031 0.042054 -0.273468
-0.083227 -0.062384 -0.350323
-0.086014 -0.076538 -0.359745
-0.083302 0.064067 -0.289159
0.067998 -0.099686 -0.255614
-0.078009 -0.104400 -0.377106
-0.053014 -0.113912 -0.362938
0.048384 -0.106485 -0.281396
0.087042 -0.031342 -0.217316
-0.083255 0.008995 -0.329107
-0.001848 -0.114669 -0.328642
-0.083232 -0.019637 -0.346814
-0.083273 0.052501 -0.314740
-0.083209 -0.044286 -0.364250
-0.083187 -0.075592 -0.381420
-0.080544 -0.037680 -0.363113
-0.071160 -0.001523 -0.338673
0.083093 -0.071468 -0.253855
0.056409 0.019145 -0.235830
-0.078108 0.104367 -0.298899
-0.083246 0.037663 -0.336223
-0.083144 -0.119477 -0.414987
-0.078164 -0.086925 -0.395409
-0.083257 0.073878 -0.325531
0.076219 0.021120 -0.228704
-0.083157 -0.085230 -0.405023
-0.083172 -0.054248 -0.391597
-0.083214 0.008871 -0.360785
-0.066622 -0.110930 -0.410500
0.076860 -0.084582 -0.288547
-0.083262 0.102868 -0.321945
0.018638 -0.054091 -0.320183
-0.057934 -0.156471 -0.431657
-0.083214 0.030161 -0.360785
-0.077931 -0.132607 -0.437291
-0.083227 0.058819 -0.350323
0.053503 -0.106250 -0.324851
-0.083181 -0.015773 -0.388216
-0.083123 -0.101400 -0.431395
-0.077507 -0.034661 -0.397914
-0.075447 -0.057569 -0.413926
0.067979 0.048431 -0.251934
-0.083187 0.022853 -0.381420
0.082232 -0.004807 -0.268837
0.029966 0.042543 -0.288055
-0.073645 0.023095 -0.377569
-0.022663 -0.127170 -0.412702
-0.083091 -0.120586 -0.457146
-0.083242 0.123558 -0.339764
-0.077940 -0.070820 -0.430763
-0.010017 -0.073599 -0.379279
-0.072272 -0.066219 -0.428811
-0.045981 0.055263 -0.348571
-0.001580 0.044630 -0.319720
0.087079 -0.029694 -0.287525
-0.050194 -0.037697 -0.400160
-0.083197 0.068769 -0.374584
-0.083214 0.097579 -0.360785
0.042744 -0.106449 -0.365673
-0.050858 -0.062225 -0.420722
-0.069180 -0.006531 -0.408539
-0.061251 -0.096059 -0.446028
-0.067166 -0.091679 -0.449123
-0.055869 0.008968 -0.390674
0.082719 -0.089984 -0.332685
-0.022244 -0.153127 -0.447877
0.014364 -0.112561 -0.399961
-0.077982 0.054356 -0.397532
-0.044163 -0.076358 -0.436744
-0.030755 -0.115539 -0.449093
-0.078023 0.129767 -0.366753
0.080012 -0.051611 -0.337148
-0.083184 0.110582 -0.384823
0.081180 -0.004116 -0.316886
-0.020631 -0.067352 -0.427228
-0.052653 0.048429 -0.397082
0.052571 0.046169 -0.317422
-0.030382 -0.101618 -0.455379
0.019067 -0.155193 -0.443748
-0.077969 0.075057 -0.407606
-0.023655 -0.123231 -0.464770
-0.013527 0.023033 -0.386827
-0.035963 -0.043044 -0.440370
-0.020395 -0.084846 -0.450055
0.084196 -0.088183 -0.370663
-0.033360 -0.001141 -0.421849
0.009312 0.048902 -0.364941
-0.069525 0.100459 -0.403012
0.072639 -0.108537 -0.396415
0.016847 -0.058542 -0.415629
0.040540 -0.052372 -0.397937
0.072913 -0.015460 -0.355488
0.048716 -0.124321 -0.430903
0.005005 -0.126291 -0.465754
0.007451 -0.101333 -0.455277
0.055927 -0.152077 -0.447285
0.019889 -0.084202 -0.443666
0.023865 -0.106325 -0.453061
0.079263 0.036140 -0.340829
0.079154 -0.050269 -0.384934
0.026839 -0.132298 -0.467439
0.082479 -0.048578 -0.383465
0.053254 -0.120577 -0.442172
0.038435 -0.070680 -0.431061
0.008007 -0.046480 -0.444972
0.055206 -0.060351 -0.418223
0.038593 -0.096577 -0.452453
0.034934 -0.075882 -0.448142
0.026868 -0.004487 -0.420302
0.048917 0.050858 -0.377824
0.073856 -0.097811 -0.431529
0.039515 0.008933 -0.406949
0.078977 0.018830 -0.370976
0.047964 -0.115943 -0.462252
0.080478 -0.053947 -0.407493
0.058644 -0.075585 -0.436156
0.050325 0.029825 -0.394980
0.080474 -0.044196 -0.408150
0.060290 -0.064769 -0.435955
0.057519 -0.002538 -0.409894
0.079407 -0.038071 -0.410732
0.070212 -0.020800 -0.410920
0.072059 -0.091455 -0.447924
