0.284647 -0.188833 -0.075909
0.291846 -0.189245 -0.081223
0.302373 -0.188814 -0.081431
0.113531 -0.111726 -0.161717
0.133698 -0.105539 -0.168637
0.144084 -0.106750 -0.166824
0.126033 -0.108741 -0.165080
0.118525 -0.108886 -0.165083
0.130758 -0.116751 -0.146511
0.125796 -0.113966 -0.157546
0.152320 -0.107361 -0.166057
0.137151 -0.115654 -0.152244
0.146786 -0.115187 -0.151929
0.136658 -0.112928 -0.159059
0.108161 -0.113694 -0.157492
0.116847 -0.116230 -0.149804
0.145769 -0.109362 -0.164083
0.141352 -0.114393 -0.155031
0.120537 -0.106234 -0.168445
0.124733 -0.115762 -0.151353
0.141208 -0.112278 -0.159873
0.138159 -0.108663 -0.165067
0.139652 -0.104029 -0.170962
0.135424 -0.111508 -0.161751
0.120951 -0.112360 -0.160445
0.115487 -0.114727 -0.156582
0.131398 -0.109989 -0.163669
0.131687 -0.114584 -0.156078
0.155239 -0.111017 -0.160553
0.128211 -0.104145 -0.171334
0.129549 -0.112741 -0.159222
0.124030 -0.112094 -0.160316
0.103466 -0.110569 -0.162842
0.110731 -0.107408 -0.167668
0.148348 -0.112898 -0.158528
0.083420 -0.035428 -0.173747
0.104086 -0.030701 -0.183608
0.119059 -0.026451 -0.185157
0.096820 -0.032994 -0.182223
0.088089 -0.035029 -0.178569
0.097848 -0.027850 -0.154398
0.094320 -0.029805 -0.167332
0.124965 -0.020604 -0.183211
0.106291 -0.023710 -0.159087
0.117662 -0.020401 -0.162410
0.104571 -0.025008 -0.171234
0.076237 -0.038615 -0.167522
0.081117 -0.035590 -0.158158
0.116605 -0.021979 -0.178568
0.110705 -0.022591 -0.167913
0.091087 -0.039765 -0.183912
0.090889 -0.030670 -0.160244
0.113047 -0.022345 -0.175370
0.111218 -0.025646 -0.182094
0.112739 -0.032836 -0.186488
0.106757 -0.025598 -0.177140
0.090670 -0.031379 -0.172034
0.085052 -0.033652 -0.167039
0.101397 -0.028315 -0.179275
0.101092 -0.026521 -0.165050
0.127581 -0.018353 -0.177201
0.101255 -0.038423 -0.186046
0.098670 -0.028134 -0.173931
0.092927 -0.031891 -0.177440
0.075337 -0.040907 -0.175977
0.082795 -0.040446 -0.180995
0.120860 -0.018805 -0.171070
0.287666 -0.199615 -0.099890
0.296444 -0.201241 -0.109358
0.300630 -0.208518 -0.115074
0.292392 -0.201499 -0.104299
0.289846 -0.198684 -0.099140
0.282053 -0.196321 -0.085410
0.284879 -0.197525 -0.094961
0.302382 -0.199000 -0.112930
0.287863 -0.196283 -0.092224
0.290024 -0.200088 -0.095086
0.290252 -0.197387 -0.101127
0.283584 -0.200227 -0.095895
0.278987 -0.205166 -0.089303
0.296542 -0.199012 -0.105613
0.288874 -0.197052 -0.098510
0.296025 -0.206326 -0.108185
0.280536 -0.196276 -0.090991
0.289439 -0.228658 -0.100579
0.298489 -0.199672 -0.108404
0.302212 -0.202314 -0.116733
0.292781 -0.200209 -0.103737
0.291184 -0.198741 -0.099919
0.284426 -0.199435 -0.095349
0.290747 -0.200055 -0.101925
0.288872 -0.196912 -0.097271
0.301289 -0.198677 -0.106386
0.300761 -0.207249 -0.114764
0.286971 -0.203233 -0.100802
0.289356 -0.226348 -0.103475
0.288823 -0.205124 -0.100669
0.294672 -0.203212 -0.103258
0.294950 -0.197911 -0.100278
0.313115 -0.036141 0.009894
0.346044 -0.053128 -0.031299
0.363101 -0.068997 -0.033303
0.331652 -0.044352 -0.020732
0.321424 -0.039809 -0.010101
0.336367 -0.047772 0.074413
0.331533 -0.044325 0.034944
0.375433 -0.079326 -0.017453
0.354156 -0.058927 0.064843
0.366417 -0.071656 0.057253
0.347073 -0.052779 0.028303
0.303958 -0.032336 0.024662
0.309554 -0.033795 0.058530
0.367424 -0.068617 -0.002120
0.357547 -0.060585 0.041159
0.321101 -0.039578 -0.036554
0.327503 -0.042150 0.054679
0.360616 -0.063065 0.020904
0.355027 -0.059287 -0.016555
0.354013 -0.059065 -0.048485
0.351707 -0.056224 0.007898
0.325801 -0.041771 0.021382
0.314400 -0.036221 0.038237
0.343682 -0.050320 -0.007224
0.343937 -0.050536 0.048637
0.377420 -0.082877 0.009914
0.333183 -0.046795 -0.050551
0.336815 -0.046897 0.014356
0.328776 -0.042793 0.002968
0.301281 -0.030910 -0.003758
0.309428 -0.034728 -0.024709
0.374328 -0.077668 0.033749
0.164000 -0.012876 -0.114990
0.182379 -0.011091 -0.133026
0.194641 -0.011877 -0.134790
0.174509 -0.011712 -0.129372
0.167046 -0.012350 -0.124245
0.176664 -0.011709 -0.085734
0.175029 -0.011696 -0.103193
0.202952 -0.011769 -0.127585
0.186276 -0.010977 -0.089245
0.196964 -0.012012 -0.093098
0.182984 -0.010965 -0.107178
0.157553 -0.013789 -0.107317
0.162165 -0.013463 -0.093290
0.195188 -0.010857 -0.119860
0.189376 -0.011230 -0.100469
0.168554 -0.012486 -0.136722
0.171582 -0.011915 -0.094547
0.192038 -0.011430 -0.110439
0.188590 -0.011190 -0.126588
0.187973 -0.011498 -0.142151
0.185830 -0.011326 -0.116550
0.171018 -0.011719 -0.110818
0.165983 -0.012680 -0.103212
0.180387 -0.011199 -0.122876
0.180613 -0.011171 -0.097281
0.206672 -0.012581 -0.114558
0.176812 -0.011957 -0.142056
0.178207 -0.011444 -0.113244
0.172639 -0.012103 -0.119523
0.156466 -0.014210 -0.120405
0.160559 -0.013402 -0.130728
0.200739 -0.011603 -0.103813
0.104754 -0.069498 -0.185185
0.116698 -0.052542 -0.186497
0.132318 -0.080680 -0.183513
0.121925 -0.069789 -0.184966
0.106012 -0.049209 -0.186260
0.128998 -0.064467 -0.184909
0.112228 -0.074169 -0.184081
0.151978 -0.064850 -0.185533
0.124779 -0.047027 -0.186022
0.142733 -0.085097 -0.182362
0.137990 -0.060848 -0.185759
0.093171 -0.056003 -0.186166
0.102064 -0.077689 -0.183594
0.136445 -0.049578 -0.186609
0.140468 -0.075616 -0.183806
0.106560 -0.085224 -0.182393
0.114389 -0.065801 -0.185414
0.131398 -0.090374 -0.181496
0.132866 -0.071013 -0.185154
0.143947 -0.067819 -0.185166
0.125372 -0.075802 -0.184088
0.109050 -0.058011 -0.186311
0.091256 -0.068283 -0.185016
0.130922 -0.056098 -0.186173
0.121090 -0.060022 -0.185781
0.149679 -0.075807 -0.184208
0.116461 -0.080436 -0.183547
0.124501 -0.085011 -0.182352
0.116535 -0.090388 -0.181402
0.092218 -0.080569 -0.183563
0.100274 -0.062843 -0.185806
0.145164 -0.056200 -0.185844
0.156349 -0.114422 -0.153738
0.181023 -0.109878 -0.162454
0.194454 -0.109546 -0.162904
0.170783 -0.111476 -0.160533
0.161828 -0.112685 -0.157926
0.173684 -0.116760 -0.135210
0.170474 -0.116008 -0.146897
0.204558 -0.110428 -0.160003
0.184508 -0.116273 -0.137697
0.196127 -0.115966 -0.140512
0.182503 -0.115191 -0.149206
0.150530 -0.115590 -0.147408
0.157351 -0.116856 -0.139653
0.196756 -0.112580 -0.156098
0.189179 -0.115656 -0.145013
0.164219 -0.109327 -0.164293
0.166747 -0.116494 -0.140597
0.191395 -0.113808 -0.152797
0.187154 -0.111623 -0.158920
0.187182 -0.107613 -0.166457
0.182728 -0.113970 -0.154436
0.164474 -0.114952 -0.151379
0.159543 -0.116230 -0.147152
0.176947 -0.112757 -0.157349
0.177976 -0.116225 -0.144131
0.208395 -0.113076 -0.152946
0.174195 -0.107531 -0.166730
0.174841 -0.114661 -0.151865
0.169015 -0.113473 -0.155723
0.147971 -0.113307 -0.156273
0.154112 -0.110714 -0.161934
0.200985 -0.114683 -0.148024
0.308820 -0.247643 -0.110321
0.319815 -0.221357 -0.121028
0.327914 -0.249686 -0.118311
0.318149 -0.243641 -0.115238
0.315798 -0.209817 -0.109293
0.323228 -0.243692 -0.063080
0.311696 -0.246148 -0.102030
0.334020 -0.235635 -0.116575
0.321774 -0.215938 -0.088100
0.331137 -0.244740 -0.084365
0.325853 -0.244108 -0.111904
0.300286 -0.225176 -0.101873
0.305306 -0.248543 -0.077181
0.330796 -0.219910 -0.114666
0.322354 -0.247083 -0.097121
0.313717 -0.247509 -0.117951
0.308499 -0.233986 -0.085865
0.325680 -0.251093 -0.107923
0.321699 -0.244024 -0.121176
0.328740 -0.243490 -0.122358
0.321933 -0.248151 -0.117112
0.314537 -0.233140 -0.115780
0.299838 -0.245020 -0.094255
0.323717 -0.233365 -0.115837
0.319968 -0.239953 -0.103230
0.336721 -0.245447 -0.108024
0.320546 -0.248419 -0.122730
0.316230 -0.250440 -0.106841
0.312299 -0.251470 -0.112685
0.299417 -0.247553 -0.109838
0.309182 -0.238265 -0.116619
0.332961 -0.231314 -0.093848
0.171396 -0.013063 -0.097580
0.193261 -0.009519 -0.121902
0.208621 -0.009205 -0.123409
0.184272 -0.011004 -0.116381
0.175049 -0.012157 -0.109840
0.187866 -0.010414 -0.053896
0.185081 -0.010895 -0.081177
0.217979 -0.008545 -0.113672
0.199815 -0.008562 -0.061339
0.212549 -0.008962 -0.066436
0.195351 -0.009188 -0.086377
0.163702 -0.014552 -0.087151
0.169410 -0.013894 -0.064983
0.209364 -0.008089 -0.103791
0.203145 -0.008787 -0.077009
0.176868 -0.012449 -0.126961
0.181207 -0.011474 -0.068152
0.206231 -0.009055 -0.090613
0.201028 -0.009175 -0.113130
0.200415 -0.009537 -0.133721
0.198445 -0.009393 -0.099499
0.179846 -0.011293 -0.091109
0.173305 -0.012653 -0.080041
0.191328 -0.009872 -0.107488
0.192501 -0.009564 -0.073031
0.221262 -0.008954 -0.096207
0.186664 -0.011106 -0.134916
0.188825 -0.010489 -0.094472
0.181940 -0.011822 -0.103086
0.162162 -0.015296 -0.105836
0.167200 -0.014051 -0.119608
0.216661 -0.008288 -0.081348
0.087365 -0.044281 -0.186717
0.096358 -0.035258 -0.184290
0.101621 -0.052149 -0.188204
0.096847 -0.043254 -0.187244
0.091058 -0.033928 -0.182013
0.100853 -0.040038 -0.186516
0.091752 -0.046116 -0.186881
0.115183 -0.039043 -0.187732
0.100772 -0.031669 -0.182127
0.108121 -0.056604 -0.188224
0.105688 -0.038006 -0.186895
0.080965 -0.038413 -0.183517
0.085363 -0.049556 -0.186464
0.107291 -0.032063 -0.184320
0.105989 -0.046431 -0.187921
0.086465 -0.054581 -0.186818
0.093533 -0.041575 -0.186366
0.100116 -0.063149 -0.187826
0.102290 -0.043329 -0.188022
0.109162 -0.041540 -0.187847
0.098064 -0.047872 -0.187737
0.091589 -0.038208 -0.185298
0.078122 -0.045457 -0.185691
0.102958 -0.036329 -0.185594
0.097699 -0.038562 -0.185941
0.114020 -0.047106 -0.188534
0.092563 -0.051276 -0.187506
0.096035 -0.055958 -0.187421
0.090549 -0.062043 -0.187573
0.074652 -0.054125 -0.186871
0.085270 -0.041200 -0.185622
0.111340 -0.035035 -0.185925
0.228351 -0.119484 -0.086885
0.267097 -0.117851 -0.116614
0.287723 -0.117589 -0.119386
0.251418 -0.118599 -0.111639
0.234707 -0.118763 -0.103752
0.253503 -0.119550 -0.019861
0.253040 -0.119685 -0.065343
0.301414 -0.117122 -0.107088
0.274610 -0.118885 -0.032561
0.294759 -0.119137 -0.044472
0.269181 -0.119125 -0.070857
0.215663 -0.119340 -0.070394
0.225813 -0.119945 -0.037939
0.290262 -0.117760 -0.094387
0.281615 -0.119036 -0.057716
0.238183 -0.118427 -0.123577
0.244927 -0.119939 -0.047188
0.285625 -0.118529 -0.077455
0.278527 -0.118219 -0.105103
0.275659 -0.117372 -0.132316
0.273860 -0.118774 -0.088540
0.242904 -0.119410 -0.077763
0.233838 -0.119687 -0.062331
0.262801 -0.118613 -0.100750
0.264580 -0.119374 -0.052079
0.303664 -0.117851 -0.084419
0.255257 -0.117871 -0.131099
0.259512 -0.119320 -0.083729
0.247581 -0.119016 -0.093804
0.211792 -0.119038 -0.096240
0.220113 -0.118505 -0.114300
0.299014 -0.118013 -0.065737
0.199102 -0.013237 -0.040206
0.218666 -0.012626 -0.070184
0.232257 -0.014097 -0.072571
0.210375 -0.012808 -0.062977
0.201858 -0.012543 -0.056020
0.211390 -0.013190 0.013642
0.212111 -0.013298 -0.022045
0.240978 -0.014853 -0.060020
0.223289 -0.013217 0.004411
0.236381 -0.014555 -0.003823
0.219794 -0.013311 -0.026618
0.192830 -0.013406 -0.028040
0.197632 -0.013218 -0.000911
0.233268 -0.013745 -0.048442
0.227328 -0.013645 -0.015774
0.203417 -0.013002 -0.076279
0.208385 -0.012923 -0.006918
0.231093 -0.013924 -0.031964
0.225710 -0.013520 -0.059037
0.224199 -0.013597 -0.085189
0.224135 -0.013239 -0.042290
0.206826 -0.012820 -0.032254
0.201240 -0.013132 -0.018005
0.217068 -0.012911 -0.052707
0.217824 -0.013183 -0.009365
0.243698 -0.015584 -0.038852
0.211628 -0.013172 -0.086659
0.214910 -0.013107 -0.037411
0.208246 -0.012968 -0.046959
0.191589 -0.013485 -0.050540
0.194346 -0.013122 -0.066589
0.240057 -0.014945 -0.021475
0.135378 -0.094512 -0.177632
0.146237 -0.082063 -0.182207
0.159887 -0.101328 -0.173317
0.149079 -0.094691 -0.177036
0.137550 -0.079250 -0.182588
0.154967 -0.091353 -0.177951
0.141847 -0.097073 -0.175676
0.174780 -0.091072 -0.178471
0.152764 -0.077946 -0.183089
0.167957 -0.103498 -0.171645
0.162332 -0.089038 -0.179314
0.126826 -0.085122 -0.181167
0.133497 -0.099524 -0.174436
0.162609 -0.079936 -0.182772
0.164788 -0.098096 -0.174689
0.136877 -0.103664 -0.172159
0.143301 -0.091300 -0.178591
0.157625 -0.106457 -0.169910
0.158554 -0.095263 -0.177262
0.167425 -0.093470 -0.177390
0.153284 -0.098399 -0.175299
0.139380 -0.086323 -0.181097
0.125721 -0.094035 -0.177810
0.156651 -0.085422 -0.180739
0.149208 -0.088122 -0.179998
0.174498 -0.098389 -0.174679
0.145486 -0.100958 -0.174008
0.151200 -0.103744 -0.171540
0.144026 -0.106895 -0.170025
0.124263 -0.101136 -0.174045
0.132563 -0.090055 -0.179529
0.169114 -0.085548 -0.180439
0.109217 -0.056367 -0.187515
0.120516 -0.040872 -0.187853
0.134058 -0.068504 -0.187080
0.124579 -0.056322 -0.187566
0.111913 -0.038666 -0.187155
0.130624 -0.051006 -0.186843
0.115963 -0.060877 -0.186797
0.151626 -0.051659 -0.187737
0.127581 -0.036294 -0.186552
0.144103 -0.073827 -0.185888
0.138569 -0.048323 -0.187602
0.100662 -0.044178 -0.187263
0.106537 -0.064642 -0.186460
0.137567 -0.038467 -0.187631
0.141374 -0.062415 -0.186641
0.110057 -0.072736 -0.186234
0.118160 -0.052817 -0.187355
0.133190 -0.079694 -0.185548
0.134379 -0.057717 -0.187823
0.144479 -0.054845 -0.187834
0.127697 -0.062743 -0.187108
0.113722 -0.045796 -0.187792
0.097461 -0.056232 -0.187108
0.132547 -0.043936 -0.187737
0.124066 -0.047304 -0.187312
0.150759 -0.063654 -0.187167
0.119381 -0.067814 -0.186996
0.126490 -0.073022 -0.186026
0.119132 -0.079255 -0.185725
0.097368 -0.069922 -0.186839
0.105980 -0.050148 -0.187740
0.145408 -0.043864 -0.187264
0.300815 -0.216998 -0.117518
0.309341 -0.206018 -0.120534
0.323240 -0.233582 -0.129727
0.309566 -0.212143 -0.123350
0.303548 -0.203882 -0.109602
0.311231 -0.209029 -0.111436
0.307315 -0.217885 -0.122601
0.334502 -0.211520 -0.128636
0.314889 -0.202818 -0.115783
0.329646 -0.241100 -0.128574
0.320116 -0.208137 -0.127838
0.295842 -0.205723 -0.108609
0.298764 -0.226398 -0.113133
0.323216 -0.204153 -0.122859
0.320606 -0.219909 -0.128904
0.302649 -0.229820 -0.117567
0.300579 -0.207479 -0.112263
0.319730 -0.249413 -0.125775
0.316038 -0.213334 -0.128191
0.326803 -0.215013 -0.130525
0.314857 -0.224556 -0.126529
0.304817 -0.206741 -0.118892
0.293249 -0.214152 -0.108040
0.315281 -0.206110 -0.124116
0.311024 -0.207224 -0.123301
0.336084 -0.227432 -0.129402
0.310018 -0.230569 -0.124464
0.311306 -0.238078 -0.123501
0.304159 -0.245099 -0.117981
0.294544 -0.230400 -0.108543
0.299184 -0.209827 -0.112855
0.328761 -0.206369 -0.125258
0.324578 -0.203597 -0.097967
0.333525 -0.192541 -0.113738
0.342442 -0.234128 -0.114748
0.332221 -0.198512 -0.103893
0.320784 -0.190255 -0.100037
0.315399 -0.201736 -0.077177
0.321401 -0.201223 -0.091657
0.341339 -0.199073 -0.115357
0.319691 -0.195106 -0.091799
0.325353 -0.236552 -0.091297
0.328715 -0.199878 -0.098455
0.310730 -0.192743 -0.092797
0.311923 -0.222175 -0.082158
0.333883 -0.195724 -0.108824
0.329095 -0.210662 -0.096428
0.331100 -0.215144 -0.111343
0.310240 -0.193993 -0.084483
0.330013 -0.247823 -0.104050
0.336906 -0.202076 -0.109881
0.340670 -0.202883 -0.124403
0.332323 -0.220892 -0.103961
0.327646 -0.193237 -0.101979
0.309192 -0.209964 -0.088310
0.330882 -0.197477 -0.103025
0.323352 -0.196729 -0.096571
0.342624 -0.215698 -0.108534
0.339022 -0.223620 -0.121225
0.322546 -0.225994 -0.094641
0.319878 -0.237573 -0.100432
0.313655 -0.221284 -0.100267
0.325162 -0.195028 -0.111100
0.329400 -0.198915 -0.100071
0.356610 -0.113750 -0.019076
0.370751 -0.080073 -0.051879
0.368642 -0.113127 -0.051558
0.373336 -0.102005 -0.017599
0.364083 -0.072477 -0.001880
0.373445 -0.108425 0.074359
0.368283 -0.102262 0.038852
0.376173 -0.096579 -0.047669
0.365233 -0.079121 0.039039
0.364677 -0.116397 0.032297
0.373718 -0.099747 0.001864
0.365028 -0.089060 0.005111
0.358706 -0.116721 0.062155
0.372804 -0.081388 -0.026340
0.372954 -0.107906 0.046460
0.367020 -0.111573 -0.062666
0.370950 -0.093009 0.061856
0.355215 -0.117285 -0.000286
0.374091 -0.111216 -0.036206
0.376820 -0.097221 -0.075177
0.367780 -0.116736 -0.020950
0.370038 -0.091262 -0.040775
0.355381 -0.114800 0.023177
0.374145 -0.089116 -0.005716
0.373728 -0.098106 0.012707
0.373803 -0.106662 -0.010289
0.369115 -0.114410 -0.082413
0.367770 -0.112118 0.007717
0.356555 -0.120448 -0.034625
0.356401 -0.115728 -0.046972
0.367058 -0.095697 -0.060299
0.374258 -0.086941 0.027202
0.264958 -0.019222 -0.036422
0.293833 -0.025368 -0.073622
0.314337 -0.032743 -0.076266
0.281462 -0.021900 -0.063816
0.270179 -0.019921 -0.054350
0.284363 -0.023291 0.025434
0.282648 -0.022357 -0.013553
0.328328 -0.038435 -0.062391
0.301458 -0.027962 0.016204
0.319616 -0.034464 0.008891
0.296246 -0.025990 -0.019523
0.255505 -0.018338 -0.023110
0.261288 -0.018861 0.008632
0.316567 -0.033012 -0.047094
0.307115 -0.029557 -0.006825
0.272038 -0.020092 -0.078939
0.277380 -0.021260 0.004222
0.311429 -0.030764 -0.026804
0.304138 -0.028723 -0.060164
0.303488 -0.028187 -0.091797
0.301115 -0.027208 -0.039116
0.275782 -0.020830 -0.026848
0.267209 -0.019455 -0.010961
0.291559 -0.024448 -0.051805
0.292345 -0.024676 -0.000365
0.332029 -0.041125 -0.035346
0.283642 -0.022532 -0.092084
0.287563 -0.023328 -0.032448
0.278259 -0.021190 -0.043475
0.253992 -0.017840 -0.049282
0.259838 -0.018427 -0.067732
0.325765 -0.037367 -0.013376
0.330129 -0.047114 -0.034116
0.358437 -0.060260 -0.085065
0.371331 -0.085158 -0.093756
0.347356 -0.053032 -0.070000
0.335786 -0.048127 -0.058256
0.354600 -0.057388 0.052302
0.343108 -0.050891 -0.003643
0.377940 -0.096089 -0.070849
0.365630 -0.066737 0.031073
0.372078 -0.089138 0.023719
0.362233 -0.061454 -0.013620
0.319989 -0.041398 -0.012657
0.334469 -0.046091 0.036400
0.374642 -0.077109 -0.055012
0.367464 -0.070646 0.006862
0.338404 -0.049058 -0.092440
0.341424 -0.049013 0.022129
0.370336 -0.075166 -0.019562
0.365507 -0.066813 -0.070043
0.366431 -0.068320 -0.103459
0.364634 -0.066969 -0.038087
0.338925 -0.049456 -0.022433
0.327818 -0.044537 0.006944
0.356364 -0.056886 -0.049447
0.357476 -0.058258 0.008410
0.377372 -0.098354 -0.035340
0.351322 -0.056976 -0.113954
0.352392 -0.055803 -0.026333
0.349865 -0.055165 -0.044941
0.316867 -0.039834 -0.054790
0.325872 -0.045038 -0.081304
0.377617 -0.094444 -0.004757
0.275878 -0.023437 -0.042909
0.310577 -0.032734 -0.085149
0.333695 -0.042729 -0.087674
0.295841 -0.027700 -0.074201
0.282753 -0.024772 -0.063418
0.299139 -0.029187 0.027686
0.297135 -0.027713 -0.016665
0.349583 -0.050376 -0.071754
0.319739 -0.035782 0.017413
0.340042 -0.044467 0.009193
0.313517 -0.032844 -0.023059
0.264831 -0.021825 -0.027493
0.271371 -0.022583 0.008985
0.336753 -0.042924 -0.054683
0.326334 -0.037729 -0.008866
0.284467 -0.025241 -0.091325
0.290798 -0.026070 0.003860
0.330552 -0.039441 -0.031566
0.322399 -0.037032 -0.069628
0.321069 -0.036569 -0.105351
0.318747 -0.034839 -0.045498
0.289076 -0.025948 -0.031610
0.278760 -0.023712 -0.013615
0.307894 -0.031145 -0.060386
0.308918 -0.031100 -0.001234
0.353310 -0.053548 -0.041294
0.298080 -0.028972 -0.106150
0.302918 -0.029353 -0.038063
0.292014 -0.026427 -0.050395
0.262710 -0.021481 -0.057802
0.269899 -0.022581 -0.078907
0.347106 -0.048877 -0.016351
0.120089 -0.071354 -0.184640
0.130574 -0.056704 -0.185692
0.144586 -0.080332 -0.183013
0.135031 -0.071967 -0.184257
0.120886 -0.053016 -0.185388
0.141355 -0.067605 -0.184362
0.126667 -0.075163 -0.183592
0.161313 -0.067803 -0.184745
0.137480 -0.051437 -0.185391
0.153836 -0.084082 -0.182237
0.149066 -0.064741 -0.184994
0.109080 -0.059906 -0.185437
0.117517 -0.077745 -0.183162
0.147709 -0.054035 -0.185820
0.151381 -0.076332 -0.183323
0.121741 -0.083754 -0.182141
0.128756 -0.068301 -0.184884
0.143501 -0.088804 -0.181378
0.144681 -0.072824 -0.184576
0.154404 -0.070186 -0.184306
0.138364 -0.076395 -0.183680
0.123829 -0.061777 -0.185660
0.107932 -0.070654 -0.184565
0.142912 -0.060542 -0.185298
0.134473 -0.063930 -0.185196
0.160165 -0.076517 -0.183595
0.130601 -0.079849 -0.183056
0.137527 -0.083894 -0.182042
0.130125 -0.088608 -0.181395
0.107818 -0.080240 -0.183302
0.116095 -0.066027 -0.185056
0.155174 -0.060651 -0.185039
0.180351 -0.114143 -0.154673
0.206941 -0.109382 -0.162956
0.220616 -0.109221 -0.163338
0.196298 -0.110936 -0.160773
0.186569 -0.112293 -0.158162
0.200080 -0.117682 -0.137533
0.196206 -0.116182 -0.148230
0.229411 -0.110339 -0.160600
0.210375 -0.117249 -0.140318
0.221538 -0.116946 -0.142680
0.208638 -0.115356 -0.150302
0.174483 -0.115651 -0.148828
0.183324 -0.117417 -0.141453
0.221946 -0.112721 -0.156855
0.215061 -0.116142 -0.146424
0.189182 -0.108493 -0.164596
0.192445 -0.117090 -0.142515
0.217085 -0.113997 -0.153617
0.213137 -0.111306 -0.159478
0.213351 -0.106984 -0.166910
0.208751 -0.113935 -0.155130
0.189495 -0.114900 -0.152295
0.183987 -0.116352 -0.148419
0.202899 -0.112532 -0.157630
0.203664 -0.116637 -0.145964
0.232064 -0.113446 -0.153973
0.199888 -0.106799 -0.167061
0.200567 -0.114643 -0.152282
0.194223 -0.113247 -0.156043
0.170272 -0.112909 -0.156842
0.177546 -0.110040 -0.162418
0.225655 -0.115214 -0.149616
0.230223 -0.119105 -0.111764
0.267667 -0.117047 -0.132855
0.287536 -0.116516 -0.134769
0.252567 -0.117922 -0.130047
0.237212 -0.118244 -0.123979
0.254391 -0.118334 -0.054450
0.252693 -0.119004 -0.095093
0.301057 -0.116147 -0.126623
0.274271 -0.117681 -0.068024
0.293594 -0.117979 -0.078576
0.269151 -0.118422 -0.099990
0.218556 -0.118890 -0.098657
0.227023 -0.119230 -0.070826
0.290191 -0.116949 -0.117082
0.281004 -0.118204 -0.089121
0.240478 -0.117570 -0.137943
0.244557 -0.119131 -0.079659
0.284633 -0.117752 -0.105460
0.278363 -0.117356 -0.124718
0.275999 -0.116152 -0.143543
0.272873 -0.118143 -0.113349
0.243566 -0.119023 -0.105215
0.235053 -0.119280 -0.093876
0.262566 -0.117979 -0.122223
0.264499 -0.118574 -0.086102
0.303477 -0.116950 -0.109591
0.257077 -0.116717 -0.142714
0.259381 -0.118663 -0.109286
0.249229 -0.118529 -0.117189
0.215581 -0.118690 -0.118115
0.224582 -0.117917 -0.131624
0.297478 -0.117027 -0.096021
0.111786 -0.036295 -0.187438
0.120676 -0.027543 -0.184244
0.129487 -0.043854 -0.188649
0.122492 -0.035399 -0.187541
0.114218 -0.026575 -0.182124
0.127028 -0.032313 -0.186645
0.116624 -0.038237 -0.187524
0.142764 -0.031839 -0.187430
0.125820 -0.024713 -0.181773
0.136594 -0.047644 -0.188624
0.132672 -0.030384 -0.186777
0.104570 -0.030333 -0.184239
0.109649 -0.041731 -0.187540
0.133206 -0.025169 -0.183774
0.134030 -0.038672 -0.188135
0.111802 -0.046100 -0.187954
0.118429 -0.033507 -0.186788
0.127976 -0.053296 -0.188655
0.129420 -0.035726 -0.188172
0.136997 -0.033996 -0.187808
0.124873 -0.039963 -0.188134
0.115466 -0.030261 -0.185678
0.102720 -0.037016 -0.186798
0.129006 -0.028645 -0.185446
0.123069 -0.030648 -0.186039
0.142316 -0.039361 -0.188640
0.118630 -0.043206 -0.188187
0.123119 -0.047023 -0.188174
0.117373 -0.052410 -0.188558
0.100415 -0.045025 -0.188042
0.109338 -0.033015 -0.186215
0.138509 -0.027849 -0.185508
0.313913 -0.122366 -0.083919
0.344463 -0.119174 -0.121174
0.358863 -0.115235 -0.123506
0.333321 -0.120285 -0.113431
0.321568 -0.122200 -0.103847
0.337090 -0.120998 -0.002787
0.333055 -0.121916 -0.058309
0.366622 -0.113065 -0.110336
0.350297 -0.119914 -0.023590
0.363048 -0.116861 -0.036997
0.345313 -0.119984 -0.067385
0.303702 -0.123014 -0.065262
0.312543 -0.122418 -0.021903
0.360410 -0.116581 -0.096776
0.355510 -0.118630 -0.053212
0.324053 -0.119896 -0.128281
0.329331 -0.122343 -0.034467
0.357704 -0.117084 -0.075918
0.352608 -0.117774 -0.107737
0.352808 -0.116507 -0.137137
0.350292 -0.119171 -0.088388
0.325560 -0.121891 -0.071934
0.318104 -0.122462 -0.052206
0.341815 -0.119613 -0.100808
0.343410 -0.120603 -0.046702
0.365944 -0.113930 -0.083396
0.335714 -0.118310 -0.140867
0.339113 -0.120529 -0.081203
0.329735 -0.120713 -0.091473
0.301919 -0.121752 -0.098138
0.310099 -0.121348 -0.117346
0.365249 -0.114907 -0.062242
0.205939 -0.012227 -0.082598
0.224801 -0.012044 -0.107383
0.237539 -0.013875 -0.109267
0.216371 -0.012094 -0.101921
0.208504 -0.011910 -0.095765
0.217965 -0.012274 -0.039818
0.217941 -0.012190 -0.067063
0.245682 -0.014433 -0.098969
0.229205 -0.012389 -0.045901
0.240974 -0.014181 -0.051459
0.225583 -0.012319 -0.071330
0.199668 -0.012523 -0.072570
0.203827 -0.012597 -0.051358
0.238253 -0.013002 -0.089182
0.232640 -0.012867 -0.061987
0.209886 -0.012251 -0.112137
0.214331 -0.012021 -0.054789
0.236104 -0.013484 -0.075557
0.231428 -0.012854 -0.098182
0.229885 -0.012828 -0.119617
0.229457 -0.012664 -0.084320
0.213247 -0.011904 -0.076385
0.208016 -0.012333 -0.065061
0.222848 -0.012196 -0.093297
0.223447 -0.012265 -0.057119
0.248160 -0.015376 -0.081354
0.218066 -0.012476 -0.119580
0.220990 -0.012403 -0.080289
0.214526 -0.012366 -0.088431
0.198527 -0.012756 -0.090519
0.201378 -0.012314 -0.104110
0.244585 -0.014182 -0.066331
0.201608 -0.113702 -0.153824
0.232185 -0.108799 -0.163152
0.247436 -0.108375 -0.163975
0.219736 -0.110232 -0.161303
0.208622 -0.111732 -0.158034
0.223374 -0.116856 -0.134839
0.219707 -0.115872 -0.146060
0.257288 -0.109662 -0.160609
0.235669 -0.116614 -0.137142
0.248092 -0.116297 -0.140325
0.233611 -0.115012 -0.148474
0.195037 -0.115123 -0.146879
0.204558 -0.116685 -0.139050
0.249181 -0.112196 -0.156131
0.241030 -0.115624 -0.144320
0.211570 -0.107648 -0.165445
0.214870 -0.116682 -0.139980
0.243658 -0.113450 -0.152718
0.239194 -0.110738 -0.159250
0.238964 -0.106090 -0.167642
0.233910 -0.113466 -0.154294
0.211972 -0.114638 -0.150682
0.205917 -0.115820 -0.146566
0.227056 -0.112020 -0.157416
0.228364 -0.116198 -0.143420
0.259833 -0.112820 -0.152939
0.223930 -0.105894 -0.167873
0.224544 -0.114205 -0.151212
0.217438 -0.112598 -0.155695
0.190304 -0.112343 -0.156438
0.198403 -0.109382 -0.162838
0.253150 -0.114628 -0.147820
0.236414 -0.117263 -0.140206
0.262543 -0.114165 -0.149318
0.277416 -0.113910 -0.150133
0.252006 -0.115130 -0.147507
0.242317 -0.115876 -0.144319
0.255067 -0.119095 -0.119990
0.251513 -0.118349 -0.133655
0.287390 -0.114420 -0.146512
0.266874 -0.118520 -0.123793
0.280042 -0.118458 -0.126072
0.264443 -0.117748 -0.135670
0.228786 -0.117834 -0.134144
0.236261 -0.119071 -0.125462
0.279323 -0.115767 -0.142326
0.271679 -0.118096 -0.131481
0.244640 -0.113728 -0.151804
0.246830 -0.118800 -0.127368
0.274036 -0.116866 -0.138685
0.269435 -0.115176 -0.145480
0.269334 -0.112698 -0.154573
0.264789 -0.116865 -0.140725
0.245188 -0.117544 -0.138047
0.239106 -0.118472 -0.133999
0.258644 -0.115995 -0.143910
0.259557 -0.118610 -0.130600
0.292027 -0.116202 -0.139115
0.255898 -0.112655 -0.154720
0.256199 -0.117273 -0.138401
0.249997 -0.116411 -0.142207
0.226168 -0.116400 -0.142265
0.233764 -0.114722 -0.148484
0.284324 -0.117237 -0.134335
0.138073 -0.021893 -0.179863
0.156816 -0.023037 -0.182870
0.170777 -0.022560 -0.183180
0.149975 -0.024457 -0.182539
0.141913 -0.023148 -0.181561
0.154152 -0.016248 -0.166778
0.149257 -0.018483 -0.177028
0.176631 -0.018476 -0.181333
0.161284 -0.014171 -0.171872
0.172243 -0.014329 -0.172519
0.159765 -0.016504 -0.177983
0.131971 -0.021981 -0.177087
0.137401 -0.020690 -0.171222
0.170259 -0.016085 -0.180800
0.165146 -0.015276 -0.176407
0.142975 -0.028433 -0.184080
0.146058 -0.018357 -0.173385
0.166333 -0.016521 -0.180126
0.163517 -0.020429 -0.181872
0.164536 -0.025931 -0.184281
0.160141 -0.017999 -0.180355
0.144658 -0.019501 -0.179097
0.138914 -0.020163 -0.177229
0.155808 -0.020185 -0.181433
0.155633 -0.016302 -0.175154
0.180619 -0.015752 -0.179777
0.152494 -0.028527 -0.184901
0.152912 -0.018884 -0.179515
0.147462 -0.021640 -0.181689
0.129587 -0.025516 -0.180382
0.135187 -0.027430 -0.182390
0.174377 -0.013882 -0.177906
0.128020 -0.017450 -0.172491
0.143403 -0.015823 -0.181929
0.152642 -0.014885 -0.182285
0.137762 -0.016821 -0.180316
0.131905 -0.017668 -0.177922
0.138353 -0.015341 -0.142947
0.136857 -0.015011 -0.164584
0.157600 -0.012548 -0.179021
0.146252 -0.013055 -0.149243
0.154638 -0.012172 -0.154091
0.143379 -0.013156 -0.167113
0.122960 -0.018799 -0.165503
0.126006 -0.018064 -0.150422
0.152338 -0.012159 -0.175525
0.148790 -0.012429 -0.161481
0.133655 -0.020052 -0.183179
0.134636 -0.016023 -0.154769
0.150021 -0.012147 -0.169474
0.147789 -0.013897 -0.179047
0.147966 -0.017833 -0.184152
0.145728 -0.013393 -0.173650
0.133575 -0.015569 -0.170106
0.129725 -0.016748 -0.162626
0.141971 -0.014682 -0.177574
0.141384 -0.013974 -0.158446
0.158950 -0.011373 -0.172297
0.139777 -0.020014 -0.184531
0.140447 -0.014104 -0.171474
0.135965 -0.015796 -0.174979
0.122501 -0.019903 -0.175748
0.127365 -0.020202 -0.181131
0.156474 -0.011297 -0.164751
0.253295 -0.022310 -0.099547
0.306749 -0.031923 -0.164753
0.338739 -0.074193 -0.164107
0.298433 -0.024101 -0.142296
0.247721 -0.021137 -0.137285
0.306036 -0.033443 0.059450
0.274396 -0.014531 -0.048938
0.349156 -0.062975 -0.144832
0.332222 -0.041611 0.026350
0.352898 -0.068809 0.017391
0.324746 -0.033454 -0.070932
0.221286 -0.017196 -0.065626
0.277076 -0.052013 0.033781
0.340217 -0.046214 -0.118556
0.335447 -0.041306 -0.013808
0.272765 -0.036220 -0.168411
0.280326 -0.021123 0.000469
0.341952 -0.072903 -0.067948
0.328451 -0.034294 -0.144552
0.328670 -0.040859 -0.173071
0.326987 -0.052609 -0.113525
0.277095 -0.023049 -0.106909
0.248247 -0.028918 -0.025011
0.299117 -0.026187 -0.099355
0.313381 -0.033137 -0.039073
0.353405 -0.070098 -0.095358
0.302030 -0.049793 -0.189283
0.300956 -0.049722 -0.069542
0.293854 -0.066580 -0.128513
0.221537 -0.034061 -0.137627
0.241694 -0.023745 -0.167241
0.349135 -0.062005 -0.046285
0.299240 -0.029809 -0.052012
0.329806 -0.043274 -0.094038
0.347354 -0.053777 -0.096353
0.316871 -0.036276 -0.083515
0.307173 -0.032721 -0.072829
0.320288 -0.038539 0.017857
0.316711 -0.035756 -0.026344
0.359864 -0.061397 -0.080353
0.337727 -0.047289 0.006500
0.351298 -0.054941 -0.003072
0.330674 -0.042414 -0.032979
0.290857 -0.027444 -0.036563
0.295647 -0.028181 -0.000475
0.351115 -0.054462 -0.065094
0.341379 -0.048345 -0.019970
0.306666 -0.032334 -0.099937
0.313062 -0.034187 -0.005554
0.344403 -0.050041 -0.041537
0.338618 -0.047721 -0.078912
0.337832 -0.047228 -0.111993
0.335320 -0.044939 -0.054553
0.310988 -0.034077 -0.039377
0.300862 -0.029785 -0.022053
0.327451 -0.040817 -0.069540
0.327604 -0.040967 -0.011382
0.361933 -0.064110 -0.050998
0.317851 -0.037662 -0.114135
0.321258 -0.037829 -0.048315
0.312947 -0.034604 -0.059320
0.288332 -0.026540 -0.066659
0.295595 -0.028895 -0.087122
0.358801 -0.060237 -0.027423
0.164025 -0.076047 -0.183887
0.174702 -0.061271 -0.185946
0.189142 -0.085016 -0.181513
0.179202 -0.076579 -0.183386
0.165345 -0.057972 -0.185868
0.185740 -0.072160 -0.183855
0.170735 -0.079741 -0.182573
0.206214 -0.072516 -0.184245
0.181641 -0.056288 -0.186068
0.198575 -0.088533 -0.180609
0.193645 -0.069191 -0.184671
0.154269 -0.064547 -0.185523
0.161962 -0.082483 -0.181980
0.192212 -0.058732 -0.186237
0.196093 -0.081135 -0.182167
0.165786 -0.088417 -0.180495
0.172643 -0.072842 -0.184385
0.187894 -0.092875 -0.179493
0.189067 -0.077550 -0.183689
0.199024 -0.074803 -0.183584
0.182541 -0.081147 -0.182518
0.167820 -0.066342 -0.185624
0.152577 -0.075004 -0.183931
0.187140 -0.064980 -0.185266
0.178501 -0.068345 -0.184994
0.205026 -0.081221 -0.182395
0.174567 -0.084685 -0.181687
0.181712 -0.088510 -0.180376
0.174260 -0.093002 -0.179464
0.152900 -0.084588 -0.181919
0.160480 -0.070676 -0.184682
0.199919 -0.065220 -0.185044
0.177073 -0.086254 -0.181209
0.189212 -0.071410 -0.184554
0.205939 -0.095115 -0.177346
0.194180 -0.086519 -0.180618
0.179471 -0.068582 -0.184621
0.201370 -0.082169 -0.181525
0.184292 -0.089616 -0.179470
0.225031 -0.082376 -0.181842
0.197054 -0.066771 -0.185056
0.216529 -0.098093 -0.176034
0.210424 -0.079008 -0.182578
0.167655 -0.075001 -0.183813
0.174780 -0.092721 -0.178513
0.208961 -0.069080 -0.184946
0.213779 -0.091225 -0.178737
0.178908 -0.098138 -0.176106
0.186757 -0.083012 -0.181988
0.204195 -0.101586 -0.174212
0.205706 -0.087593 -0.180861
0.216704 -0.084774 -0.180942
0.198268 -0.091389 -0.179085
0.181508 -0.076521 -0.183850
0.165295 -0.084713 -0.181203
0.202933 -0.074915 -0.183512
0.193434 -0.078254 -0.183048
0.224047 -0.091218 -0.178745
0.188770 -0.094964 -0.177805
0.196792 -0.098135 -0.175804
0.188644 -0.102031 -0.174248
0.165138 -0.093992 -0.177833
0.173935 -0.080647 -0.182516
0.217968 -0.075066 -0.183241
0.148249 -0.046541 -0.187330
0.157991 -0.034481 -0.186967
0.172135 -0.056017 -0.186873
0.162307 -0.046933 -0.187112
0.148638 -0.032062 -0.186297
0.168175 -0.042977 -0.186654
0.154336 -0.050201 -0.186666
0.188511 -0.043155 -0.187140
0.164984 -0.030779 -0.185979
0.181077 -0.060169 -0.186428
0.175901 -0.040529 -0.187067
0.137405 -0.036954 -0.186931
0.145560 -0.053027 -0.186594
0.175118 -0.032601 -0.186777
0.178417 -0.051266 -0.186589
0.149870 -0.058886 -0.186376
0.156525 -0.043785 -0.187145
0.170932 -0.065150 -0.186227
0.171978 -0.047770 -0.187380
0.181654 -0.045348 -0.187135
0.166075 -0.051718 -0.186897
0.151651 -0.038369 -0.187304
0.136818 -0.046390 -0.187168
0.170153 -0.037222 -0.186944
0.162043 -0.039789 -0.186992
0.187442 -0.052099 -0.187053
0.158450 -0.055199 -0.186739
0.164825 -0.059447 -0.186227
0.157777 -0.064449 -0.186247
0.136792 -0.056380 -0.187002
0.144269 -0.041764 -0.187211
0.182490 -0.037249 -0.186708
0.196737 -0.097541 -0.175778
0.208572 -0.085894 -0.180863
0.225326 -0.104069 -0.170776
0.212156 -0.097836 -0.175152
0.199027 -0.083677 -0.181163
0.218751 -0.094505 -0.176431
0.203324 -0.099957 -0.173580
0.242697 -0.094185 -0.177039
0.216423 -0.082220 -0.181851
0.235264 -0.105896 -0.169014
0.227802 -0.092348 -0.177871
0.187132 -0.089124 -0.179650
0.193237 -0.102300 -0.172171
0.227838 -0.083929 -0.181517
0.231222 -0.100739 -0.172584
0.198022 -0.105992 -0.169399
0.205995 -0.094442 -0.176930
0.222325 -0.108315 -0.166700
0.223680 -0.098120 -0.175432
0.234565 -0.096483 -0.175773
0.217731 -0.101356 -0.173137
0.201096 -0.090023 -0.179645
0.185816 -0.097262 -0.175940
0.221161 -0.089032 -0.179317
0.212579 -0.091311 -0.178544
0.243118 -0.101301 -0.172576
0.208155 -0.103604 -0.171561
0.214722 -0.106091 -0.168734
0.206359 -0.108791 -0.166784
0.183044 -0.103770 -0.171487
0.193604 -0.093367 -0.177953
0.235755 -0.088981 -0.179141
0.258032 -0.017039 -0.083841
0.286890 -0.023086 -0.120975
0.307797 -0.030400 -0.123647
0.274197 -0.019542 -0.111474
0.263255 -0.017833 -0.102079
0.277388 -0.020829 -0.020176
0.275787 -0.019952 -0.061020
0.322501 -0.036305 -0.109827
0.294345 -0.025656 -0.029931
0.313823 -0.032122 -0.037441
0.288406 -0.023653 -0.066482
0.249290 -0.016459 -0.070770
0.255120 -0.016558 -0.038464
0.309851 -0.030946 -0.094233
0.299965 -0.027123 -0.053530
0.265159 -0.017850 -0.126076
0.271144 -0.019018 -0.042977
0.304154 -0.028264 -0.074149
0.296917 -0.026377 -0.107561
0.297026 -0.026050 -0.139302
0.293710 -0.024643 -0.086441
0.268692 -0.018575 -0.073843
0.260740 -0.017255 -0.058391
0.284112 -0.022102 -0.099510
0.285057 -0.022350 -0.047146
0.327149 -0.039133 -0.082417
0.276528 -0.020164 -0.138447
0.280238 -0.020745 -0.079949
0.270900 -0.018608 -0.090756
0.247451 -0.015871 -0.096537
0.253247 -0.016414 -0.114547
0.319615 -0.035161 -0.060202
0.159734 -0.015653 -0.153519
0.178969 -0.012457 -0.168929
0.191915 -0.010981 -0.169558
0.170993 -0.014048 -0.166372
0.163246 -0.015368 -0.162100
0.174060 -0.013288 -0.119222
0.171376 -0.013237 -0.141035
0.198614 -0.009073 -0.163399
0.184423 -0.010798 -0.124810
0.195197 -0.009677 -0.128916
0.180028 -0.011112 -0.144741
0.153696 -0.017445 -0.145271
0.157958 -0.016736 -0.128373
0.192045 -0.009217 -0.157310
0.187516 -0.009960 -0.137754
0.165110 -0.016404 -0.172027
0.168257 -0.014474 -0.130421
0.189751 -0.009743 -0.148230
0.185724 -0.010885 -0.163590
0.184574 -0.012961 -0.174293
0.183268 -0.010964 -0.154517
0.167044 -0.013817 -0.148865
0.161749 -0.015333 -0.140259
0.177174 -0.012273 -0.160791
0.177930 -0.011893 -0.134213
0.200643 -0.008435 -0.152136
0.173603 -0.015455 -0.174656
0.175363 -0.012429 -0.151352
0.169386 -0.013985 -0.157622
0.152639 -0.018064 -0.158952
0.157423 -0.017568 -0.167604
0.197914 -0.008431 -0.141313
0.210898 -0.008464 -0.119208
0.234408 -0.008927 -0.143987
0.249846 -0.012355 -0.145203
0.224244 -0.008465 -0.139357
0.214650 -0.008176 -0.133140
0.227672 -0.008980 -0.071353
0.226152 -0.008350 -0.101802
0.258539 -0.013596 -0.134764
0.241460 -0.009587 -0.078137
0.255388 -0.012880 -0.083619
0.235874 -0.008717 -0.106482
0.202983 -0.009285 -0.108531
0.208617 -0.009389 -0.085091
0.250791 -0.010775 -0.124783
0.245188 -0.010051 -0.096317
0.215957 -0.008833 -0.148839
0.222143 -0.008490 -0.087947
0.248712 -0.010953 -0.110794
0.242532 -0.009925 -0.134705
0.240296 -0.010300 -0.154831
0.240249 -0.009452 -0.120192
0.220349 -0.008007 -0.112284
0.213782 -0.008607 -0.100529
0.232364 -0.008552 -0.130142
0.233719 -0.008729 -0.091063
0.261099 -0.015154 -0.117118
0.226402 -0.009332 -0.154219
0.230142 -0.008725 -0.116512
0.222340 -0.008608 -0.125164
0.201171 -0.009565 -0.127208
0.205496 -0.008980 -0.141145
0.258628 -0.013049 -0.100688
0.155919 -0.018567 -0.182878
0.173435 -0.022809 -0.185968
0.185686 -0.023114 -0.185877
0.166674 -0.022939 -0.185408
0.160089 -0.020166 -0.184116
0.170590 -0.012762 -0.170741
0.166734 -0.015053 -0.179974
0.190414 -0.019155 -0.184221
0.177391 -0.011846 -0.173919
0.185508 -0.012147 -0.176022
0.175442 -0.014633 -0.181175
0.151063 -0.017150 -0.180023
0.157113 -0.015345 -0.174629
0.184873 -0.015878 -0.183325
0.180194 -0.013659 -0.179656
0.160266 -0.026704 -0.186778
0.164362 -0.014075 -0.176211
0.180424 -0.015844 -0.183308
0.179357 -0.020029 -0.184717
0.179722 -0.026582 -0.187170
0.175631 -0.016955 -0.183247
0.162813 -0.016709 -0.182402
0.157585 -0.016165 -0.180323
0.171994 -0.018600 -0.184055
0.172269 -0.013800 -0.177851
0.195199 -0.015947 -0.182754
0.169295 -0.028558 -0.187640
0.169565 -0.016384 -0.182695
0.164638 -0.019195 -0.184376
0.147611 -0.020934 -0.183652
0.153210 -0.024264 -0.185425
0.188748 -0.013577 -0.180703
0.178959 -0.037035 -0.188256
0.190881 -0.023162 -0.185586
0.208147 -0.048476 -0.188714
0.196013 -0.037093 -0.187980
0.180222 -0.021597 -0.184235
0.202798 -0.032150 -0.187070
0.186252 -0.041421 -0.188112
0.226213 -0.032968 -0.187455
0.199221 -0.019938 -0.183476
0.218685 -0.053132 -0.188352
0.211935 -0.029616 -0.187100
0.167112 -0.026021 -0.186190
0.175240 -0.045214 -0.188348
0.210687 -0.021561 -0.184894
0.215175 -0.042642 -0.188103
0.180445 -0.051868 -0.188483
0.189047 -0.033478 -0.187715
0.206498 -0.058841 -0.188356
0.207507 -0.038244 -0.188388
0.218755 -0.035788 -0.187902
0.200671 -0.043283 -0.188362
0.183405 -0.027266 -0.186872
0.165952 -0.036756 -0.187963
0.205197 -0.025764 -0.186225
0.195690 -0.028508 -0.186794
0.225858 -0.043811 -0.188511
0.191055 -0.047890 -0.188595
0.198847 -0.052393 -0.188354
0.190405 -0.058104 -0.188495
0.165033 -0.049058 -0.188762
0.174539 -0.031143 -0.187419
0.219436 -0.025917 -0.185987
0.260213 -0.112707 -0.157161
0.289150 -0.106967 -0.165228
0.304899 -0.106699 -0.165185
0.277340 -0.109022 -0.162702
0.266821 -0.110519 -0.160314
0.281993 -0.117037 -0.140144
0.276925 -0.115060 -0.150892
0.316115 -0.107621 -0.163198
0.293004 -0.116309 -0.143438
0.306177 -0.115697 -0.145336
0.292036 -0.113791 -0.153016
0.253931 -0.114687 -0.151249
0.263472 -0.116829 -0.143808
0.307261 -0.110498 -0.159395
0.298865 -0.114787 -0.148837
0.269686 -0.106509 -0.166397
0.273421 -0.116382 -0.144937
0.300717 -0.112213 -0.156329
0.295942 -0.109100 -0.161744
0.297292 -0.104235 -0.169299
0.290691 -0.112196 -0.157539
0.269615 -0.113453 -0.154872
0.263636 -0.115278 -0.150842
0.284439 -0.110549 -0.159903
0.285433 -0.115384 -0.149112
0.320272 -0.111200 -0.156349
0.281624 -0.104332 -0.169159
0.281839 -0.113232 -0.154450
0.274896 -0.111863 -0.157713
0.249453 -0.111438 -0.158922
0.257400 -0.108164 -0.164465
0.311439 -0.113399 -0.152468
0.208492 -0.007664 -0.152675
0.227335 -0.008695 -0.170843
0.239772 -0.010988 -0.171716
0.219472 -0.008382 -0.167693
0.212078 -0.007715 -0.162726
0.222220 -0.008460 -0.111399
0.220320 -0.007284 -0.138580
0.246282 -0.010628 -0.164741
0.232346 -0.008107 -0.119451
0.243178 -0.010073 -0.124335
0.227971 -0.007146 -0.142915
0.201983 -0.008277 -0.143318
0.206694 -0.008704 -0.122653
0.239968 -0.008353 -0.157295
0.235350 -0.007981 -0.134530
0.213416 -0.010050 -0.174292
0.217556 -0.007807 -0.126213
0.237760 -0.008587 -0.146350
0.233774 -0.008567 -0.164572
0.232378 -0.011008 -0.177372
0.231625 -0.007903 -0.153931
0.216069 -0.006964 -0.147367
0.211042 -0.007694 -0.137377
0.225618 -0.007688 -0.160964
0.226225 -0.007518 -0.130746
0.248132 -0.010909 -0.151383
0.221737 -0.011015 -0.177623
0.223895 -0.007485 -0.150239
0.218087 -0.007897 -0.157292
0.200589 -0.009061 -0.159186
0.205576 -0.009344 -0.169142
0.245525 -0.009466 -0.138619
0.190775 -0.055369 -0.186964
0.200886 -0.042251 -0.187476
0.215377 -0.064784 -0.185923
0.205404 -0.055803 -0.186647
0.191346 -0.039555 -0.187059
0.211581 -0.051652 -0.186490
0.197147 -0.059069 -0.186066
0.231762 -0.052056 -0.186921
0.207910 -0.038143 -0.186891
0.224527 -0.068706 -0.185312
0.219316 -0.049083 -0.187039
0.179629 -0.044980 -0.187298
0.188034 -0.061898 -0.185839
0.218100 -0.040276 -0.187459
0.221924 -0.060326 -0.185881
0.192373 -0.067814 -0.185281
0.199317 -0.052423 -0.186973
0.214177 -0.073518 -0.184865
0.215225 -0.056752 -0.186900
0.224917 -0.054192 -0.186718
0.209084 -0.060626 -0.186232
0.194324 -0.046561 -0.187519
0.178684 -0.054866 -0.186848
0.213249 -0.045392 -0.187213
0.204967 -0.048221 -0.187092
0.230954 -0.060863 -0.186277
0.201237 -0.064112 -0.185865
0.208009 -0.068248 -0.185125
0.200598 -0.073109 -0.184874
0.178591 -0.064749 -0.186123
0.186689 -0.050325 -0.187140
0.225664 -0.045542 -0.186968
0.221277 -0.078231 -0.183460
0.233169 -0.063168 -0.185998
0.251410 -0.087763 -0.180439
0.238693 -0.078874 -0.182947
0.222662 -0.060228 -0.185947
0.246359 -0.074208 -0.183658
0.228582 -0.082125 -0.181961
0.272367 -0.074519 -0.184070
0.241693 -0.058608 -0.186240
0.262841 -0.091226 -0.179415
0.256334 -0.071088 -0.184584
0.210360 -0.066613 -0.185497
0.218430 -0.085123 -0.181213
0.254807 -0.060886 -0.186339
0.259542 -0.083510 -0.181487
0.222993 -0.091109 -0.179231
0.231098 -0.074863 -0.184135
0.249272 -0.095395 -0.177963
0.250948 -0.079743 -0.183190
0.263426 -0.076922 -0.183310
0.243310 -0.083784 -0.181743
0.225347 -0.068402 -0.185537
0.208551 -0.077037 -0.183462
0.248358 -0.066854 -0.185285
0.238047 -0.070014 -0.184900
0.271276 -0.083776 -0.181674
0.233433 -0.087403 -0.180731
0.241669 -0.091262 -0.179131
0.232696 -0.095677 -0.177858
0.208561 -0.087069 -0.180831
0.217278 -0.072716 -0.184452
0.264347 -0.067058 -0.185104
0.210964 -0.063428 -0.186279
0.222150 -0.047716 -0.187439
0.238507 -0.074170 -0.184818
0.227320 -0.063606 -0.185933
0.212420 -0.044785 -0.187337
0.234357 -0.058780 -0.186060
0.218091 -0.067750 -0.185343
0.256986 -0.059438 -0.186437
0.229720 -0.043009 -0.187383
0.249013 -0.078393 -0.184124
0.243037 -0.055481 -0.186749
0.200711 -0.050943 -0.187192
0.208663 -0.071109 -0.185057
0.241173 -0.045432 -0.187672
0.246232 -0.069229 -0.185077
0.212832 -0.077839 -0.183924
0.219960 -0.059995 -0.186551
0.237403 -0.083359 -0.183423
0.238276 -0.064959 -0.186140
0.249178 -0.061910 -0.186145
0.231206 -0.069490 -0.185277
0.214886 -0.052896 -0.187281
0.198686 -0.062154 -0.186148
0.235810 -0.051099 -0.187085
0.226471 -0.054616 -0.186775
0.256019 -0.069702 -0.185438
0.222486 -0.073872 -0.184755
0.230276 -0.078114 -0.183937
0.222422 -0.083212 -0.183324
0.199518 -0.073817 -0.184917
0.207110 -0.057241 -0.186638
0.250074 -0.051395 -0.186919
0.263335 -0.094854 -0.177731
0.278359 -0.079956 -0.183104
0.299298 -0.103165 -0.171123
0.283256 -0.095006 -0.177171
0.266517 -0.077327 -0.183497
0.291607 -0.090556 -0.178937
0.271572 -0.098150 -0.175261
0.321289 -0.089997 -0.179235
0.288433 -0.075188 -0.184087
0.311949 -0.105387 -0.168950
0.303345 -0.087437 -0.180355
0.251522 -0.083930 -0.182069
0.258224 -0.101317 -0.173533
0.302497 -0.077315 -0.183780
0.307380 -0.098844 -0.174124
0.264307 -0.105942 -0.169227
0.274752 -0.091015 -0.179392
0.295813 -0.108364 -0.165446
0.298027 -0.095439 -0.177145
0.311719 -0.093308 -0.177648
0.290009 -0.099761 -0.174215
0.268853 -0.085110 -0.181963
0.249247 -0.094133 -0.177798
0.294632 -0.083504 -0.181930
0.283799 -0.086468 -0.180921
0.321301 -0.099196 -0.173722
0.277680 -0.103061 -0.172058
0.286130 -0.105842 -0.168825
0.275470 -0.109030 -0.165400
0.245681 -0.102769 -0.171883
0.259432 -0.089232 -0.180105
0.312778 -0.083091 -0.181627
0.194163 -0.029659 -0.188162
0.204185 -0.018940 -0.185717
0.219521 -0.038905 -0.188538
0.208463 -0.029950 -0.187854
0.194691 -0.017470 -0.184453
0.214250 -0.026150 -0.186858
0.200433 -0.033110 -0.187872
0.235275 -0.027023 -0.187118
0.211279 -0.016260 -0.183720
0.228980 -0.042905 -0.188331
0.222077 -0.024123 -0.186910
0.182406 -0.021161 -0.186209
0.190781 -0.035934 -0.188159
0.221330 -0.017672 -0.184978
0.225169 -0.034113 -0.187774
0.195519 -0.041211 -0.188536
0.202749 -0.026818 -0.187489
0.217944 -0.047928 -0.188647
0.218467 -0.030686 -0.188163
0.228468 -0.028699 -0.187675
0.212907 -0.034717 -0.188182
0.197751 -0.022199 -0.186832
0.182066 -0.029737 -0.187924
0.216335 -0.021197 -0.186194
0.208378 -0.023294 -0.186677
0.235714 -0.035374 -0.188199
0.204730 -0.038088 -0.188468
0.211174 -0.042038 -0.188308
0.203516 -0.046886 -0.188779
0.180683 -0.039177 -0.188863
0.189782 -0.025260 -0.187364
0.228847 -0.021406 -0.185820
0.317964 -0.121723 -0.125586
0.345791 -0.113763 -0.148558
0.359144 -0.109306 -0.149992
0.335012 -0.117310 -0.144067
0.324399 -0.120032 -0.137777
0.338177 -0.119750 -0.067218
0.334505 -0.121504 -0.107327
0.365746 -0.107197 -0.142938
0.352189 -0.117199 -0.082182
0.362702 -0.114124 -0.095807
0.346600 -0.118600 -0.114958
0.310541 -0.122924 -0.112071
0.317822 -0.122704 -0.082559
0.360271 -0.111842 -0.133979
0.355567 -0.116807 -0.105033
0.326376 -0.115787 -0.152716
0.330956 -0.122000 -0.090109
0.358070 -0.114305 -0.122397
0.353636 -0.113775 -0.140881
0.352981 -0.109153 -0.157506
0.350566 -0.116930 -0.129549
0.328121 -0.121566 -0.118770
0.321314 -0.122952 -0.104558
0.342790 -0.116958 -0.136804
0.345129 -0.119727 -0.100590
0.364526 -0.109941 -0.126263
0.337265 -0.111922 -0.159460
0.340567 -0.119515 -0.123500
0.332134 -0.118919 -0.131090
0.308910 -0.120959 -0.134529
0.314837 -0.118306 -0.147279
0.363404 -0.111180 -0.112558
0.370477 -0.101249 -0.132742
0.362915 -0.066771 -0.151862
0.368318 -0.108296 -0.151314
0.373108 -0.088708 -0.126576
0.359110 -0.061828 -0.123232
0.373375 -0.097358 -0.037744
0.373911 -0.089037 -0.068698
0.371408 -0.085907 -0.153909
0.361783 -0.065943 -0.076107
0.368977 -0.111272 -0.082655
0.373759 -0.093128 -0.112191
0.364886 -0.072487 -0.103025
0.369302 -0.108542 -0.047546
0.367994 -0.070747 -0.132913
0.374629 -0.101025 -0.061842
0.369333 -0.099113 -0.158976
0.371127 -0.081474 -0.048645
0.364583 -0.110725 -0.114310
0.371930 -0.094897 -0.142592
0.369570 -0.086765 -0.171212
0.369914 -0.108536 -0.127604
0.368085 -0.077604 -0.144782
0.370649 -0.101646 -0.092724
0.371308 -0.079933 -0.113661
0.373185 -0.088824 -0.100378
0.373282 -0.100734 -0.118007
0.367171 -0.103710 -0.170857
0.372351 -0.105310 -0.099003
0.362469 -0.112682 -0.137720
0.366586 -0.105945 -0.147954
0.364127 -0.076973 -0.164586
0.370873 -0.076787 -0.083294
0.300184 -0.113006 -0.156150
0.328033 -0.105251 -0.165778
0.342893 -0.105004 -0.164877
0.317016 -0.108765 -0.162338
0.306327 -0.110393 -0.160399
0.322152 -0.118072 -0.138003
0.316509 -0.116131 -0.149144
0.352952 -0.105475 -0.163799
0.332184 -0.117108 -0.141841
0.344338 -0.115959 -0.143472
0.330536 -0.114010 -0.152002
0.293714 -0.115392 -0.149646
0.303967 -0.117894 -0.141538
0.343802 -0.109556 -0.159257
0.337184 -0.115125 -0.147345
0.308968 -0.105645 -0.166311
0.314308 -0.117702 -0.142681
0.338766 -0.112033 -0.155285
0.334918 -0.108357 -0.161527
0.337176 -0.101438 -0.170509
0.330204 -0.112313 -0.157039
0.309820 -0.113879 -0.153803
0.303376 -0.116140 -0.148743
0.324014 -0.110141 -0.159470
0.324735 -0.116022 -0.147680
0.354116 -0.110157 -0.155241
0.320105 -0.102087 -0.170187
0.321860 -0.113938 -0.153104
0.314365 -0.112394 -0.156140
0.288653 -0.111404 -0.158462
0.296402 -0.107069 -0.165245
0.347166 -0.112841 -0.151323
0.373262 -0.085526 -0.126418
0.350528 -0.055232 -0.149042
0.373637 -0.093931 -0.154220
0.369793 -0.070326 -0.121723
0.339884 -0.052691 -0.119264
0.371189 -0.077855 -0.035709
0.370190 -0.069827 -0.063186
0.368440 -0.071350 -0.153561
0.347000 -0.052808 -0.071241
0.374322 -0.097923 -0.079899
0.373186 -0.077802 -0.108604
0.349421 -0.057132 -0.092852
0.375913 -0.093534 -0.046153
0.358647 -0.059106 -0.127812
0.375276 -0.084460 -0.064575
0.371680 -0.082152 -0.159456
0.360481 -0.062499 -0.046197
0.372347 -0.098399 -0.110694
0.370512 -0.079424 -0.139296
0.364746 -0.068331 -0.173362
0.374465 -0.093836 -0.128182
0.356234 -0.064006 -0.141501
