-0.075181 -0.121450 0.036849
-0.075352 -0.120494 0.056716
-0.054101 -0.122617 0.042232
-0.077659 -0.121889 0.006885
-0.076178 -0.120650 0.044478
-0.076713 -0.121126 0.037655
-0.080201 -0.117070 0.032524
-0.079758 -0.117802 0.024189
-0.060966 -0.122027 0.051320
-0.083989 -0.083479 0.053166
-0.083343 -0.066902 0.045159
-0.083607 -0.091437 0.043077
-0.083396 -0.077423 0.052902
-0.083049 -0.064018 0.057995
-0.083301 -0.081204 0.076394
-0.083615 -0.078568 0.069032
-0.083778 -0.076913 0.043882
-0.083101 -0.066738 0.069000
-0.083836 -0.093384 0.067570
-0.083594 -0.079655 0.057815
-0.083298 -0.069408 0.061768
-0.083362 -0.088879 0.074500
-0.083321 -0.068458 0.052821
-0.083631 -0.084747 0.069138
-0.083724 -0.084169 0.042831
-0.083159 -0.074183 0.073766
-0.083916 -0.095296 0.058913
-0.083569 -0.080166 0.047817
-0.083300 -0.078026 0.036385
-0.083665 -0.090374 0.054480
-0.083472 -0.072727 0.048956
-0.083856 -0.082422 0.063150
-0.083295 -0.073652 0.057012
-0.083445 -0.076632 0.062321
-0.083848 -0.085906 0.058125
-0.083748 -0.086446 0.036072
-0.083757 -0.089043 0.063258
-0.083602 -0.094919 0.049563
-0.083824 -0.086757 0.048496
-0.083322 -0.071621 0.039326
-0.083639 -0.072724 0.066583
-0.068405 0.022864 0.131070
-0.062773 0.035461 0.120600
-0.052753 -0.014148 0.118903
-0.064733 0.033437 0.134124
-0.064460 0.039314 0.143839
-0.053038 0.025934 0.196623
-0.066179 0.034319 0.163714
-0.047955 0.030830 0.125717
-0.057149 0.040760 0.175530
-0.050603 -0.027341 0.169672
-0.053941 0.025912 0.142103
-0.068690 0.036964 0.147425
-0.062038 -0.000778 0.185205
-0.051311 0.039027 0.134524
-0.052819 0.014816 0.166205
-0.062381 0.017552 0.115527
-0.065042 0.037700 0.181578
-0.056959 -0.053148 0.143781
-0.059235 0.026020 0.125030
-0.055941 0.023206 0.109991
-0.058676 -0.001155 0.130468
-0.069175 0.036751 0.128702
-0.069590 0.014792 0.148076
-0.058852 0.037169 0.138351
-0.060791 0.037358 0.150128
-0.045073 0.012416 0.139443
-0.062351 -0.005315 0.104309
-0.064905 -0.011970 0.146006
-0.064420 -0.037309 0.121176
-0.068869 0.005413 0.122752
-0.068434 0.029211 0.117236
-0.043913 0.035091 0.164982
-0.004009 -0.045177 0.243481
0.046746 -0.039533 0.216850
0.073877 -0.050781 0.223334
0.031355 -0.042112 0.230186
0.004053 -0.035866 0.237800
0.045923 -0.042708 0.273321
0.026219 -0.041656 0.253936
0.080794 -0.040265 0.231591
0.061168 -0.037921 0.264343
0.078789 -0.047494 0.266755
0.057819 -0.038943 0.250796
-0.024840 -0.041485 0.253252
0.004129 -0.047505 0.266488
0.074583 -0.036701 0.242239
0.068065 -0.045283 0.259964
0.013479 -0.043593 0.215544
0.019628 -0.038615 0.266234
0.068667 -0.055735 0.247693
0.061045 -0.040247 0.230568
0.068815 -0.040641 0.200926
0.055132 -0.046414 0.242543
0.016049 -0.039335 0.245240
-0.006093 -0.040313 0.257184
0.043018 -0.038496 0.240829
0.043267 -0.039754 0.258231
0.082781 -0.044893 0.245711
0.035866 -0.045034 0.194762
0.039107 -0.049403 0.251246
0.021810 -0.055554 0.238806
-0.027687 -0.044947 0.238269
-0.013492 -0.041761 0.219713
0.079065 -0.039368 0.255974
-0.062246 -0.008755 0.174184
-0.059057 0.028539 0.152135
-0.053051 -0.034634 0.150935
-0.058971 0.008191 0.173798
-0.059652 0.036416 0.183945
-0.054416 -0.000207 0.229372
-0.059762 0.002678 0.206090
-0.053558 0.010386 0.156897
-0.059953 0.031621 0.210533
-0.053728 -0.043266 0.207958
-0.056051 0.000854 0.184940
-0.062334 0.023836 0.191150
-0.058903 -0.026956 0.221096
-0.055993 0.028026 0.172022
-0.053564 -0.012871 0.206442
-0.057322 -0.010212 0.148215
-0.060474 0.015442 0.220230
-0.056141 -0.055128 0.185383
-0.057111 -0.002072 0.162386
-0.055701 0.001957 0.135028
-0.056801 -0.029615 0.172167
-0.061671 0.018629 0.164976
-0.065045 -0.012123 0.194389
-0.056683 0.018046 0.180890
-0.058161 0.011682 0.194319
-0.050496 -0.014759 0.182017
-0.057277 -0.026436 0.130713
-0.058464 -0.030879 0.192315
-0.059389 -0.050099 0.161592
-0.063611 -0.022675 0.160609
-0.060767 0.014289 0.145437
-0.053358 0.020432 0.202895
-0.083777 0.033200 0.100636
-0.081804 0.039286 0.095261
-0.083998 0.029286 0.090006
-0.082818 0.035686 0.100518
-0.080611 0.041301 0.107197
-0.083189 0.039627 0.128313
-0.082966 0.037676 0.116007
-0.082903 0.036755 0.093509
-0.081101 0.043071 0.120332
-0.084329 0.031293 0.114854
-0.083401 0.037399 0.105979
-0.082062 0.038392 0.110297
-0.083419 0.032915 0.121929
-0.081016 0.040710 0.101938
-0.083643 0.036221 0.115597
-0.083215 0.030458 0.088472
-0.082653 0.039577 0.121317
-0.084427 0.028332 0.106425
-0.083235 0.035705 0.096668
-0.082732 0.035346 0.084256
-0.083757 0.030304 0.101107
-0.082809 0.037381 0.101964
-0.083485 0.033212 0.111178
-0.082321 0.038465 0.103757
-0.082576 0.038472 0.111127
-0.083863 0.034436 0.105080
-0.083663 0.029153 0.080380
-0.083519 0.030484 0.107953
-0.083260 0.025875 0.096059
-0.083221 0.029123 0.096116
-0.082302 0.036233 0.090954
-0.082001 0.040488 0.112964
-0.072160 0.044670 0.119381
-0.066705 0.042333 0.109811
-0.062792 0.031489 0.105750
-0.068084 0.043230 0.113304
-0.068986 0.045527 0.118790
-0.066153 0.050328 0.145242
-0.067554 0.048016 0.127304
-0.056756 0.039717 0.112741
-0.064735 0.049584 0.136102
-0.060544 0.041574 0.135889
-0.065898 0.046636 0.123550
-0.076310 0.045775 0.126822
-0.070710 0.045620 0.137024
-0.061464 0.044869 0.119171
-0.064581 0.046043 0.128794
-0.069160 0.040228 0.104470
-0.068234 0.049749 0.134085
-0.064732 0.032546 0.124713
-0.064735 0.042639 0.113078
-0.063231 0.038543 0.101587
-0.065813 0.043121 0.119263
-0.069440 0.045842 0.122959
-0.072629 0.045993 0.128822
-0.066763 0.044796 0.117555
-0.066795 0.048162 0.129366
-0.052313 0.035101 0.121146
-0.067282 0.037459 0.095209
-0.067327 0.044083 0.120689
-0.067163 0.033513 0.113058
-0.077409 0.041429 0.115179
-0.072994 0.041249 0.110397
-0.057351 0.044567 0.127293
0.038017 -0.115084 0.164955
0.083521 -0.103524 0.122771
0.083316 -0.112305 0.126222
0.071596 -0.113425 0.141042
0.071033 -0.098967 0.163748
0.081375 -0.111012 0.217947
0.061808 -0.114199 0.180047
0.085912 -0.096298 0.136626
0.085846 -0.100397 0.201498
0.083441 -0.110692 0.201602
0.082745 -0.102977 0.174068
0.041243 -0.115710 0.174856
0.051691 -0.114518 0.207592
0.086767 -0.092360 0.147633
0.085524 -0.106947 0.187374
0.059342 -0.114332 0.116982
0.069574 -0.112608 0.202458
0.075489 -0.115681 0.177023
0.083761 -0.111766 0.141052
0.084764 -0.107728 0.111300
0.080924 -0.113395 0.157727
0.063706 -0.112360 0.160367
0.043268 -0.114209 0.191257
0.080230 -0.105373 0.149941
0.078075 -0.110824 0.185765
0.084767 -0.103981 0.164375
0.072537 -0.112908 0.100071
0.071228 -0.113343 0.165377
0.057549 -0.117795 0.147863
0.033005 -0.112782 0.144522
0.047440 -0.114864 0.133566
0.086360 -0.092970 0.181189
-0.047586 -0.118018 0.098757
-0.022201 -0.102878 0.074227
0.001311 -0.119873 0.076982
-0.028063 -0.118540 0.085091
-0.039620 -0.091263 0.092988
-0.020543 -0.115511 0.132817
-0.035399 -0.115918 0.109321
0.009332 -0.116684 0.087860
-0.015444 -0.092535 0.122168
0.001930 -0.115424 0.126305
-0.014443 -0.115864 0.104250
-0.054335 -0.107854 0.107062
-0.040625 -0.116208 0.125630
0.000459 -0.091074 0.092747
-0.009866 -0.116717 0.116684
-0.035990 -0.118286 0.072826
-0.035495 -0.107320 0.122333
-0.001118 -0.117800 0.102277
-0.013468 -0.117110 0.080374
-0.008477 -0.118559 0.064220
-0.011317 -0.118021 0.091581
-0.038088 -0.112942 0.096527
-0.047328 -0.115909 0.114182
-0.021943 -0.109374 0.094568
-0.024013 -0.116219 0.117101
0.014522 -0.116699 0.101098
-0.026412 -0.119792 0.062313
-0.026476 -0.118080 0.101139
-0.037784 -0.118834 0.087472
-0.054907 -0.116816 0.089401
-0.048521 -0.118118 0.076120
0.006483 -0.109177 0.114255
-0.083884 -0.001002 0.072268
-0.083907 0.017268 0.064756
-0.083525 -0.009499 0.062908
-0.083567 0.005570 0.071974
-0.083713 0.020448 0.076680
-0.083434 0.001232 0.094198
-0.083750 0.003819 0.087219
-0.084183 0.006192 0.063446
-0.083725 0.017225 0.087213
-0.083779 -0.011499 0.085941
-0.083778 0.002883 0.076532
-0.083626 0.014414 0.080369
-0.083213 -0.006861 0.092495
-0.083913 0.015282 0.071926
-0.083713 -0.002610 0.087435
-0.083671 -0.001611 0.062841
-0.083380 0.008654 0.091768
-0.083748 -0.013454 0.077723
-0.083696 0.002232 0.067187
-0.083537 0.004280 0.056909
-0.083564 -0.008412 0.073632
-0.083761 0.010488 0.068132
-0.083719 -0.000015 0.081677
-0.083647 0.009587 0.075869
-0.083635 0.006273 0.080961
-0.084001 -0.003822 0.077026
-0.083650 -0.004332 0.056810
-0.083692 -0.007057 0.081938
-0.083386 -0.013029 0.069065
-0.083553 -0.004832 0.068175
-0.083568 0.011890 0.059394
-0.084120 0.010563 0.084967
-0.085598 -0.031482 0.062403
-0.083803 0.000045 0.044315
-0.072898 -0.042951 0.039837
-0.084370 -0.021156 0.061461
-0.083592 0.009443 0.069489
-0.083029 -0.026734 0.124984
-0.084989 -0.021559 0.094468
-0.054026 -0.024367 0.046897
-0.082712 0.001766 0.096736
-0.071546 -0.043580 0.099258
-0.078409 -0.025992 0.072423
-0.083852 -0.006490 0.079762
-0.084171 -0.039872 0.114401
-0.065355 -0.004060 0.061008
-0.080268 -0.032377 0.098583
-0.084872 -0.031910 0.036861
-0.083913 -0.013578 0.108954
-0.078236 -0.050506 0.075871
-0.082127 -0.025733 0.049669
-0.078170 -0.024875 0.025388
-0.080981 -0.038955 0.063215
-0.084803 -0.008478 0.055880
-0.085148 -0.032763 0.085138
-0.083214 -0.012932 0.068260
-0.083506 -0.019406 0.082271
-0.045824 -0.035831 0.069667
-0.084133 -0.037864 0.019411
-0.084571 -0.040600 0.079127
-0.083154 -0.049091 0.053745
-0.085045 -0.036792 0.048756
-0.084543 -0.014701 0.034830
-0.058042 -0.018921 0.088844
-0.005966 -0.118665 0.116213
0.025875 -0.117739 0.092286
0.045124 -0.120799 0.092580
0.013319 -0.119312 0.097859
0.001946 -0.107339 0.105886
0.020547 -0.116175 0.155691
0.012467 -0.116775 0.131856
0.053627 -0.118148 0.104281
0.030428 -0.106076 0.146894
0.046573 -0.116565 0.148790
0.027925 -0.116670 0.125668
-0.017312 -0.116480 0.128352
-0.005000 -0.117361 0.146687
0.045060 -0.105661 0.111935
0.037450 -0.117152 0.136970
0.002590 -0.119911 0.087652
0.008332 -0.115304 0.144560
0.041931 -0.118506 0.123234
0.034970 -0.118776 0.101735
0.034739 -0.120287 0.079750
0.032554 -0.118729 0.113985
0.005724 -0.116898 0.120962
-0.003267 -0.117274 0.131683
0.021599 -0.117266 0.107371
0.022646 -0.116614 0.138973
0.056937 -0.117575 0.119400
0.016583 -0.121219 0.079738
0.018334 -0.118547 0.119130
0.007099 -0.119873 0.107403
-0.018429 -0.118663 0.110088
-0.011029 -0.119502 0.096126
0.052473 -0.115594 0.133934
-0.083931 -0.042221 0.051673
-0.083588 -0.026603 0.044608
-0.083776 -0.049612 0.042209
-0.083455 -0.036572 0.051269
-0.083345 -0.023711 0.056030
-0.083401 -0.040370 0.072870
-0.083647 -0.037827 0.066196
-0.084002 -0.036147 0.043072
-0.083415 -0.026456 0.066203
-0.084051 -0.051333 0.065017
-0.083727 -0.038704 0.055942
-0.083363 -0.028928 0.059621
-0.083300 -0.047406 0.071345
-0.083627 -0.028194 0.051404
-0.083772 -0.043555 0.066369
-0.083688 -0.042815 0.042100
-0.083232 -0.033760 0.070526
-0.084117 -0.053069 0.056974
-0.083661 -0.039469 0.046649
-0.083445 -0.037493 0.036462
-0.083776 -0.048588 0.052880
-0.083573 -0.032450 0.047711
-0.083785 -0.041354 0.060946
-0.083450 -0.033033 0.055107
-0.083526 -0.035885 0.060212
-0.084085 -0.044582 0.056209
-0.083789 -0.045181 0.036080
-0.083811 -0.047423 0.060967
-0.083645 -0.052778 0.048410
-0.083690 -0.045567 0.047371
-0.083343 -0.031137 0.039107
-0.083910 -0.032311 0.063969
-0.083605 -0.105389 0.023088
-0.083782 -0.091551 0.015164
-0.082717 -0.111131 0.010456
-0.083361 -0.100489 0.023957
-0.083476 -0.088908 0.029417
-0.083012 -0.103697 0.052717
-0.083510 -0.100802 0.042952
-0.083953 -0.100313 0.012135
-0.083471 -0.091529 0.042089
-0.082652 -0.112479 0.040709
-0.083459 -0.102423 0.029125
-0.083488 -0.093474 0.033449
-0.082537 -0.109354 0.050197
-0.083754 -0.093060 0.023287
-0.083186 -0.106199 0.043572
-0.083355 -0.105040 0.009399
-0.083260 -0.097773 0.048608
-0.082524 -0.113268 0.030564
-0.083476 -0.102903 0.017677
-0.083227 -0.100511 0.002359
-0.082758 -0.110392 0.025100
-0.083712 -0.096873 0.018178
-0.083444 -0.103922 0.036337
-0.083435 -0.097269 0.028722
-0.083499 -0.099928 0.033900
-0.083535 -0.107061 0.029321
-0.083132 -0.107738 0.000157
-0.082910 -0.108905 0.035422
-0.082248 -0.113020 0.018930
-0.083116 -0.107638 0.016677
-0.083610 -0.095115 0.007253
-0.083983 -0.096626 0.039094
-0.083970 -0.061595 0.032229
-0.083502 -0.045664 0.024976
-0.083860 -0.069530 0.022980
-0.083439 -0.055687 0.032060
-0.083189 -0.042972 0.036765
-0.083419 -0.059478 0.053135
-0.083657 -0.057054 0.046699
-0.084003 -0.055195 0.023672
-0.083311 -0.045515 0.046579
-0.084127 -0.071503 0.045310
-0.083718 -0.057877 0.036458
-0.083271 -0.048021 0.040191
-0.083379 -0.067059 0.051606
-0.083524 -0.047214 0.031927
-0.083793 -0.062973 0.046834
-0.083757 -0.062253 0.022966
-0.083198 -0.052829 0.050897
-0.084238 -0.073412 0.037471
-0.083703 -0.058617 0.027318
-0.083467 -0.056433 0.017050
-0.083872 -0.068465 0.033485
-0.083509 -0.051450 0.028037
-0.083848 -0.060665 0.041275
-0.083401 -0.052089 0.035872
-0.083523 -0.055006 0.040613
-0.084100 -0.064118 0.036867
-0.083850 -0.064544 0.016893
-0.083874 -0.067215 0.041594
-0.083763 -0.073057 0.028900
-0.083816 -0.065083 0.028109
-0.083291 -0.050136 0.019506
-0.083876 -0.051249 0.044538
0.068412 -0.048089 0.186736
0.080863 -0.042545 0.162489
0.083164 -0.059003 0.161889
0.081918 -0.046530 0.179748
0.073797 -0.034077 0.190346
0.081303 -0.045449 0.233235
0.078183 -0.045958 0.205570
0.083770 -0.051526 0.169231
0.081197 -0.040153 0.215173
0.082776 -0.061143 0.213038
0.082768 -0.046773 0.194206
0.045242 -0.045936 0.195688
0.076918 -0.050441 0.222525
0.083426 -0.043607 0.178647
0.083054 -0.049068 0.210646
0.080167 -0.048332 0.157182
0.075531 -0.045440 0.218601
0.081184 -0.062752 0.196133
0.082730 -0.050202 0.172828
0.082212 -0.045288 0.149069
0.083016 -0.054774 0.181929
0.075060 -0.047229 0.183508
0.054333 -0.045808 0.208816
0.081224 -0.043914 0.187307
0.081852 -0.046882 0.200491
0.085538 -0.053524 0.191156
0.081284 -0.051168 0.137497
0.083129 -0.051569 0.197495
0.081283 -0.062185 0.176820
0.034711 -0.045480 0.175603
0.062950 -0.046941 0.161700
0.084067 -0.048722 0.204046
-0.083832 0.024402 0.067089
-0.082331 0.034976 0.060580
-0.083774 0.017914 0.056629
-0.083180 0.028724 0.068653
-0.081206 0.036514 0.074707
-0.083328 0.028455 0.094112
-0.083492 0.028985 0.084960
-0.083931 0.028621 0.058176
-0.082006 0.035261 0.086014
-0.084017 0.017147 0.081796
-0.083606 0.027569 0.072428
-0.082367 0.033832 0.077432
-0.083241 0.022093 0.089745
-0.082453 0.034273 0.067932
-0.083865 0.024309 0.084222
-0.083620 0.023622 0.055714
-0.082970 0.031686 0.089589
-0.083894 0.015353 0.072934
-0.083753 0.026858 0.062683
-0.083103 0.028990 0.049586
-0.083641 0.018868 0.067917
-0.082927 0.030705 0.064604
-0.083668 0.025595 0.078167
-0.083002 0.031641 0.072238
-0.083189 0.029444 0.076971
-0.084290 0.022900 0.072479
-0.083686 0.021235 0.047904
-0.083703 0.020386 0.077370
-0.083269 0.014557 0.062121
-0.083523 0.021618 0.062269
-0.082611 0.032292 0.054391
-0.083375 0.032122 0.081157
-0.066100 -0.023852 0.183494
-0.060663 0.020545 0.154807
-0.038942 -0.041263 0.157146
-0.062749 -0.007888 0.178373
-0.064113 0.038504 0.185083
-0.054092 -0.012605 0.246346
-0.063481 -0.014315 0.211910
-0.030430 -0.006267 0.165616
-0.059632 0.023223 0.217871
-0.040010 -0.039791 0.228139
-0.051167 -0.014830 0.192928
-0.066214 0.013689 0.199084
-0.064086 -0.037349 0.235424
-0.043978 0.018182 0.176361
-0.048849 -0.026420 0.219913
-0.056273 -0.025548 0.150835
-0.066016 0.003200 0.228943
-0.046126 -0.050931 0.198628
-0.056304 -0.012857 0.164428
-0.045242 -0.014972 0.137765
-0.050329 -0.035441 0.180392
-0.067094 0.008269 0.173750
-0.070885 -0.024355 0.209559
-0.058508 0.005306 0.186077
-0.061768 -0.002551 0.206448
-0.020994 -0.025155 0.188754
-0.054128 -0.037099 0.129778
-0.061291 -0.041164 0.200037
-0.060554 -0.049474 0.170552
-0.068003 -0.032059 0.165353
-0.062054 -0.002122 0.147750
-0.036122 0.000565 0.210576
-0.083826 -0.019803 0.043987
-0.083693 -0.001370 0.036964
-0.083480 -0.028370 0.034689
-0.083424 -0.013227 0.043630
-0.083522 0.002031 0.048423
-0.083295 -0.017668 0.066237
-0.083596 -0.015061 0.058669
-0.083901 -0.012633 0.035488
-0.083459 -0.001286 0.059047
-0.083717 -0.030352 0.057704
-0.083620 -0.015916 0.048259
-0.083497 -0.004180 0.052069
-0.083214 -0.025784 0.064327
-0.083622 -0.003342 0.043920
-0.083548 -0.021475 0.059088
-0.083626 -0.020596 0.034662
-0.083213 -0.010152 0.063436
-0.083745 -0.032361 0.049437
-0.083521 -0.016605 0.038975
-0.083368 -0.014841 0.028974
-0.083518 -0.027216 0.045297
-0.083614 -0.008198 0.040308
-0.083712 -0.018938 0.053312
-0.083467 -0.009162 0.047507
-0.083443 -0.012583 0.052725
-0.083836 -0.022651 0.048604
-0.083611 -0.023309 0.028672
-0.083638 -0.025932 0.053483
-0.083420 -0.031832 0.040864
-0.083593 -0.023673 0.039936
-0.083447 -0.007032 0.031634
-0.083799 -0.008164 0.056533
-0.075466 -0.120564 0.025577
-0.051045 -0.122804 0.002593
-0.030916 -0.123578 0.001998
-0.062257 -0.122333 0.008313
-0.071119 -0.119352 0.015008
-0.057900 -0.119648 0.060382
-0.062115 -0.120272 0.039312
-0.018690 -0.122505 0.010531
-0.045249 -0.118863 0.054543
-0.027892 -0.120848 0.052785
-0.047881 -0.121051 0.034901
-0.080543 -0.119079 0.035028
-0.076328 -0.119024 0.052154
-0.028826 -0.120319 0.019815
-0.038159 -0.121037 0.043129
-0.070051 -0.122022 -0.000837
-0.066364 -0.119441 0.049866
-0.034510 -0.121673 0.030348
-0.041327 -0.122663 0.011358
-0.041268 -0.123456 -0.008397
-0.045005 -0.122145 0.023335
-0.068294 -0.120734 0.031301
-0.073195 -0.119724 0.040046
-0.054167 -0.121951 0.016097
-0.053117 -0.120685 0.045802
-0.015301 -0.122058 0.026679
-0.059584 -0.122948 -0.008876
-0.056767 -0.121297 0.028337
-0.064847 -0.121649 0.020429
-0.080813 -0.119883 0.018788
-0.077973 -0.121025 0.006877
-0.022177 -0.120983 0.039304
-0.083778 0.011984 0.055597
-0.083682 0.027149 0.048337
-0.083428 0.004620 0.046358
-0.083477 0.017621 0.055825
-0.083369 0.029466 0.060761
-0.083325 0.014653 0.079821
-0.083692 0.016691 0.071498
-0.084102 0.017925 0.046912
-0.083405 0.026979 0.071735
-0.083623 0.003012 0.069460
-0.083699 0.015434 0.059845
-0.083404 0.024920 0.064187
-0.083045 0.007615 0.076974
-0.083773 0.025508 0.055439
-0.083669 0.010940 0.071262
-0.083607 0.011527 0.046157
-0.083262 0.020519 0.076236
-0.083528 0.001331 0.061066
-0.083682 0.014983 0.050903
-0.083422 0.017292 0.040130
-0.083346 0.005407 0.056665
-0.083607 0.021383 0.052174
-0.083616 0.013277 0.065435
-0.083541 0.021107 0.059543
-0.083499 0.018195 0.064324
-0.083917 0.009740 0.060405
-0.083521 0.009138 0.039742
-0.083565 0.007025 0.065274
-0.083123 0.001193 0.051889
-0.083425 0.008860 0.051493
-0.083417 0.023116 0.043113
-0.084042 0.021838 0.068517
-0.079033 -0.120994 -0.004310
-0.073986 -0.124693 -0.019168
-0.060147 -0.126509 -0.022667
-0.076899 -0.123005 -0.013718
-0.078621 -0.119731 -0.008140
-0.074951 -0.121134 0.028057
-0.076860 -0.120612 0.006598
-0.046715 -0.125399 -0.015346
-0.071800 -0.121968 0.017091
-0.056365 -0.124392 0.017020
-0.070032 -0.123130 0.002747
-0.079845 -0.116168 0.004399
-0.078082 -0.119280 0.020074
-0.059114 -0.124692 -0.008145
-0.065039 -0.123589 0.010500
-0.077916 -0.122714 -0.025610
-0.077443 -0.120500 0.016001
-0.061698 -0.125111 0.000298
-0.068494 -0.124785 -0.014411
-0.067244 -0.125586 -0.030641
-0.068786 -0.124848 -0.004298
-0.079002 -0.121005 0.001079
-0.078447 -0.120319 0.009868
-0.073894 -0.123796 -0.007047
-0.073107 -0.123051 0.009628
-0.039956 -0.124796 -0.003109
-0.076336 -0.124205 -0.036739
-0.074779 -0.123231 -0.000440
-0.075175 -0.123968 -0.008169
-0.079639 -0.118804 -0.012572
-0.079352 -0.118917 -0.019826
-0.050378 -0.124586 0.006375
-0.059970 -0.122171 0.045150
-0.034890 -0.120849 0.022717
-0.015293 -0.124390 0.023210
-0.044248 -0.123221 0.029087
-0.052814 -0.107087 0.036665
-0.037388 -0.120287 0.080362
-0.045936 -0.120786 0.058600
-0.006876 -0.123035 0.034604
-0.031322 -0.106860 0.071067
-0.015045 -0.121017 0.074600
-0.031940 -0.121114 0.053415
-0.066837 -0.119915 0.055829
-0.058475 -0.120485 0.072481
-0.016106 -0.106046 0.040381
-0.023399 -0.121457 0.063635
-0.052446 -0.123564 0.019532
-0.048432 -0.118719 0.069912
-0.018010 -0.122075 0.050448
-0.026224 -0.122864 0.030671
-0.025915 -0.124462 0.011638
-0.026260 -0.122655 0.041883
-0.051209 -0.121037 0.049369
-0.057240 -0.120618 0.059437
-0.037702 -0.121557 0.037851
-0.036901 -0.120896 0.065721
-0.003071 -0.122311 0.048160
-0.042502 -0.124487 0.011001
-0.040701 -0.122134 0.047457
-0.051126 -0.122786 0.036332
-0.066926 -0.121690 0.039124
-0.062392 -0.122676 0.026596
-0.008592 -0.120205 0.061479
-0.083964 -0.074358 0.011692
-0.083298 -0.057379 0.003763
-0.083673 -0.082700 0.001576
-0.083356 -0.067942 0.011521
-0.082971 -0.054591 0.016794
-0.083308 -0.071949 0.035092
-0.083580 -0.069270 0.027702
-0.083735 -0.067464 0.002369
-0.083050 -0.057214 0.027781
-0.083896 -0.084747 0.026167
-0.083590 -0.070353 0.016348
-0.083216 -0.059837 0.020488
-0.083373 -0.080026 0.033136
-0.083259 -0.058924 0.011465
-0.083631 -0.075700 0.027806
-0.083736 -0.075012 0.001544
-0.083097 -0.064746 0.032496
-0.084002 -0.086608 0.017443
-0.083562 -0.070934 0.006353
-0.083320 -0.068681 -0.004968
-0.083724 -0.081683 0.012983
-0.083407 -0.063339 0.007340
-0.083843 -0.073277 0.021657
-0.083261 -0.064117 0.015700
-0.083397 -0.067250 0.020934
-0.083837 -0.076946 0.016744
-0.083767 -0.077395 -0.005183
-0.083775 -0.080172 0.021912
-0.083667 -0.086374 0.008010
-0.083829 -0.077854 0.007143
-0.083241 -0.062083 -0.002198
-0.083598 -0.063156 0.025319
0.065876 -0.059000 0.145902
0.080840 -0.043819 0.121130
0.084978 -0.076239 0.121515
0.083873 -0.051054 0.141202
0.066600 -0.039541 0.150351
0.083891 -0.054510 0.192747
0.078076 -0.053921 0.168219
0.083832 -0.055222 0.126811
0.080649 -0.041293 0.173974
0.083052 -0.079854 0.177080
0.084819 -0.053608 0.154444
0.024539 -0.046795 0.152188
0.074527 -0.067923 0.188279
0.083198 -0.044363 0.139207
0.084204 -0.063163 0.172067
0.079168 -0.063064 0.117913
0.072764 -0.045483 0.180203
0.081738 -0.081586 0.157686
0.085234 -0.058583 0.131823
0.083426 -0.052124 0.108067
0.084373 -0.072231 0.139666
0.073677 -0.045830 0.136513
0.037610 -0.062989 0.171210
0.082199 -0.043791 0.151342
0.083072 -0.047484 0.159899
0.084997 -0.065312 0.151407
0.084165 -0.068199 0.099057
0.084518 -0.068201 0.160245
0.079595 -0.079644 0.134012
0.008098 -0.063033 0.131324
0.054752 -0.048958 0.116212
0.084196 -0.049865 0.167454
-0.013536 -0.050266 0.192437
0.043843 -0.043217 0.156734
0.068320 -0.051346 0.158390
0.023433 -0.046336 0.168738
0.002803 -0.041141 0.177559
0.038584 -0.048312 0.247731
0.019074 -0.047606 0.213122
0.075666 -0.041207 0.171478
0.056220 -0.043584 0.233122
0.073606 -0.051315 0.234713
0.049799 -0.044425 0.205597
-0.031807 -0.047564 0.209507
-0.010149 -0.051504 0.238862
0.070223 -0.039507 0.185389
0.063538 -0.049058 0.220467
0.006596 -0.047810 0.154090
0.014317 -0.045353 0.232970
0.064836 -0.056868 0.200518
0.056208 -0.045595 0.172859
0.061809 -0.043968 0.139579
0.050728 -0.050664 0.189778
0.007820 -0.044718 0.197791
-0.009452 -0.048522 0.216081
0.037648 -0.043200 0.181302
0.038358 -0.045785 0.220319
0.076412 -0.047502 0.193409
0.030232 -0.048635 0.137740
0.032890 -0.052858 0.200448
0.016151 -0.056962 0.184636
-0.033119 -0.049854 0.184131
-0.019539 -0.046728 0.162905
0.074914 -0.040955 0.213106
-0.080862 -0.115793 0.003617
-0.054948 -0.118711 -0.029119
-0.028484 -0.119425 -0.030419
-0.067729 -0.117351 -0.020513
-0.076252 -0.116470 -0.010829
-0.064804 -0.117645 0.053601
-0.067317 -0.117287 0.021126
-0.014983 -0.119827 -0.020065
-0.045905 -0.119246 0.044444
-0.022818 -0.119952 0.037673
-0.049713 -0.118620 0.016998
-0.083403 -0.114875 0.015829
-0.081709 -0.115407 0.043525
-0.025380 -0.119689 -0.005713
-0.035666 -0.119125 0.026114
-0.076499 -0.116271 -0.036559
-0.072074 -0.116962 0.036309
-0.033191 -0.119157 0.008169
-0.040893 -0.119031 -0.017215
-0.045547 -0.119013 -0.043965
-0.045757 -0.118674 -0.000035
-0.074116 -0.116954 0.011897
-0.079938 -0.115853 0.026728
-0.056785 -0.118113 -0.010450
-0.055636 -0.118409 0.031239
-0.013045 -0.120168 0.004132
-0.066754 -0.117482 -0.049904
-0.059754 -0.117678 0.006940
-0.069798 -0.117008 -0.001687
-0.083868 -0.114655 -0.009424
-0.082778 -0.115100 -0.024782
-0.018459 -0.119851 0.017982
-0.083896 -0.042293 0.014785
-0.083574 -0.026172 0.007634
-0.083701 -0.049894 0.005065
-0.083414 -0.036299 0.014456
-0.083334 -0.023345 0.019490
-0.083354 -0.040319 0.036624
-0.083603 -0.037570 0.029809
-0.083944 -0.035904 0.005887
-0.083363 -0.026039 0.029785
-0.083962 -0.051781 0.028462
-0.083682 -0.038601 0.019087
-0.083350 -0.028471 0.023015
-0.083283 -0.047641 0.035045
-0.083591 -0.027829 0.014614
-0.083685 -0.043633 0.029932
-0.083666 -0.042797 0.005086
-0.083189 -0.033450 0.034270
-0.084027 -0.053462 0.020231
-0.083613 -0.039314 0.009706
-0.083410 -0.037179 -0.000840
-0.083718 -0.048989 0.016042
-0.083542 -0.032125 0.010619
-0.083748 -0.041233 0.024272
-0.083407 -0.032705 0.018454
-0.083487 -0.035665 0.023479
-0.084011 -0.044703 0.019531
-0.083743 -0.045215 -0.001208
-0.083737 -0.047589 0.024417
-0.083597 -0.053246 0.011388
-0.083661 -0.045690 0.010397
-0.083328 -0.030622 0.001799
-0.083867 -0.031942 0.027519
-0.063822 -0.009640 0.077544
-0.056052 0.023973 0.051736
-0.053893 -0.030052 0.051981
-0.057807 0.006018 0.077533
-0.056916 0.030951 0.088771
-0.053445 -0.004025 0.149313
-0.059479 0.005178 0.119240
-0.052420 0.007049 0.059138
-0.057107 0.026967 0.124742
-0.055892 -0.038177 0.113212
-0.055192 -0.001934 0.090867
-0.059531 0.019216 0.096531
-0.059361 -0.024147 0.136777
-0.053307 0.024248 0.072989
-0.052946 -0.012343 0.115457
-0.058092 -0.010550 0.049362
-0.058035 0.013009 0.136895
-0.057672 -0.044295 0.085069
-0.055328 -0.005923 0.065583
-0.054214 0.000909 0.036540
-0.057274 -0.029223 0.071952
-0.061376 0.014881 0.067335
-0.063695 -0.011627 0.100468
-0.053447 0.013879 0.085292
-0.056611 0.008721 0.100706
-0.050905 -0.013728 0.084045
-0.058095 -0.024729 0.031481
-0.058993 -0.025008 0.095979
-0.060969 -0.044880 0.060337
-0.062941 -0.020085 0.061526
-0.060645 0.010991 0.047814
-0.051894 0.017887 0.112880
-0.080958 -0.063781 0.007824
-0.071020 -0.033882 -0.020347
-0.014937 -0.078515 -0.015218
-0.077031 -0.048536 0.010567
-0.074480 -0.022307 0.020521
-0.059171 -0.054835 0.078601
-0.079303 -0.049056 0.043895
-0.006157 -0.050323 -0.011039
-0.055369 -0.029961 0.049787
-0.010393 -0.077149 0.056073
-0.034903 -0.056773 0.017679
-0.076292 -0.038770 0.026692
-0.075034 -0.077893 0.068161
-0.021403 -0.032676 0.006908
-0.048251 -0.066378 0.048097
-0.073857 -0.063554 -0.023444
-0.078667 -0.039232 0.060247
-0.034724 -0.094261 0.019063
-0.056810 -0.051800 -0.012740
-0.030115 -0.054806 -0.035272
-0.056373 -0.075435 0.003217
-0.083703 -0.037151 -0.006852
-0.080949 -0.069854 0.035805
-0.063149 -0.037258 0.011783
-0.067395 -0.045334 0.031773
-0.002324 -0.067104 0.009657
-0.068361 -0.080884 -0.041294
-0.074860 -0.086553 0.027551
-0.075768 -0.095473 -0.008792
-0.079187 -0.072633 -0.014871
-0.077617 -0.051433 -0.029105
-0.010591 -0.049897 0.042186
-0.058835 -0.066710 0.047356
-0.040348 -0.032615 0.016508
-0.018911 -0.090647 0.021806
-0.048191 -0.051794 0.045716
-0.049999 -0.021785 0.057717
-0.031079 -0.054842 0.116586
-0.050589 -0.057369 0.079035
-0.013136 -0.048732 0.029753
-0.033593 -0.026744 0.093614
-0.019163 -0.092963 0.093267
-0.026198 -0.056882 0.058804
-0.060250 -0.038060 0.064601
-0.048620 -0.084541 0.105913
-0.022340 -0.027484 0.044270
-0.027333 -0.069794 0.083540
-0.046149 -0.072595 0.017964
-0.055465 -0.042334 0.100263
-0.024732 -0.105480 0.058067
-0.034843 -0.056451 0.028830
-0.023524 -0.060416 0.003658
-0.033719 -0.081665 0.044471
-0.056907 -0.038935 0.035836
-0.064127 -0.076636 0.074278
-0.035303 -0.036588 0.049942
-0.040698 -0.041441 0.073782
-0.009383 -0.071109 0.051167
-0.038855 -0.089102 -0.001564
-0.045572 -0.093146 0.068049
-0.049783 -0.104253 0.035435
-0.061899 -0.083857 0.029402
-0.056408 -0.053030 0.012145
-0.014143 -0.042461 0.082488
-0.083790 -0.009780 0.019824
-0.083772 0.008420 0.012400
-0.083431 -0.018121 0.010520
-0.083442 -0.003157 0.019429
-0.083600 0.011508 0.024184
-0.083288 -0.007687 0.041655
-0.083633 -0.004826 0.034697
-0.084024 -0.002564 0.011003
-0.083547 0.008324 0.034733
-0.083682 -0.020183 0.033537
-0.083650 -0.005869 0.024028
-0.083516 0.005631 0.027873
-0.083147 -0.015655 0.040020
-0.083749 0.006371 0.019548
-0.083567 -0.011337 0.034927
-0.083558 -0.010307 0.010441
-0.083222 -0.000136 0.039254
-0.083655 -0.022024 0.025345
-0.083560 -0.006418 0.014732
-0.083404 -0.004330 0.004475
-0.083475 -0.017163 0.021242
-0.083648 0.001763 0.015954
-0.083632 -0.008628 0.029230
-0.083521 0.000786 0.023396
-0.083494 -0.002504 0.028517
-0.083887 -0.012530 0.024611
-0.083550 -0.012986 0.004368
-0.083586 -0.015663 0.029497
-0.083332 -0.021666 0.016688
-0.083486 -0.013529 0.015745
-0.083442 0.003282 0.007017
-0.083955 0.001735 0.032475
-0.083694 0.019059 0.029937
-0.082972 0.031725 0.022001
-0.083564 0.012639 0.019828
-0.083258 0.023938 0.030789
-0.082251 0.033271 0.036068
-0.083254 0.022149 0.056120
-0.083550 0.023571 0.047340
-0.084047 0.024050 0.020556
-0.082710 0.031418 0.047711
-0.083759 0.011424 0.044647
-0.083630 0.022218 0.034865
-0.082747 0.029952 0.039503
-0.083044 0.015821 0.052688
-0.083206 0.030407 0.029812
-0.083755 0.018439 0.046848
-0.083565 0.018793 0.019163
-0.082974 0.026780 0.052080
-0.083648 0.010056 0.035905
-0.083709 0.021696 0.025146
-0.083225 0.024491 0.012453
-0.083433 0.013332 0.031070
-0.083180 0.026678 0.026251
-0.083568 0.020386 0.040841
-0.083237 0.027083 0.034584
-0.083309 0.024544 0.039382
-0.084069 0.017224 0.035196
-0.083534 0.016543 0.011810
-0.083578 0.014950 0.040327
-0.083153 0.009471 0.025733
-0.083414 0.016308 0.025289
-0.082938 0.028674 0.016313
-0.083808 0.027604 0.043775
-0.083894 -0.095022 -0.019249
-0.083493 -0.079904 -0.027108
-0.083311 -0.102260 -0.029891
-0.083365 -0.089539 -0.019264
-0.083205 -0.077168 -0.014153
-0.083162 -0.093067 0.005602
-0.083572 -0.090470 -0.002514
-0.083712 -0.089189 -0.028868
-0.083201 -0.079816 -0.002832
-0.083380 -0.103913 -0.004068
-0.083511 -0.091604 -0.014320
-0.083399 -0.082020 -0.010420
-0.083145 -0.099973 0.003559
-0.083394 -0.081299 -0.019514
-0.083430 -0.096273 -0.002261
-0.083643 -0.095509 -0.030202
-0.083177 -0.086534 0.002480
-0.083473 -0.105354 -0.013095
-0.083527 -0.092267 -0.024548
-0.083223 -0.090048 -0.036757
-0.083360 -0.101191 -0.017811
-0.083552 -0.085418 -0.023813
-0.083798 -0.093988 -0.008528
-0.083313 -0.086030 -0.015094
-0.083439 -0.088773 -0.009865
-0.083605 -0.097291 -0.014072
-0.083583 -0.097962 -0.037551
-0.083483 -0.099973 -0.008674
-0.083248 -0.105020 -0.022810
-0.083698 -0.098029 -0.024259
-0.083459 -0.084042 -0.033406
-0.083622 -0.085233 -0.005376
0.082122 -0.097896 0.111018
0.082323 -0.068478 0.094264
0.081682 -0.109017 0.088464
0.083132 -0.086124 0.111945
0.082088 -0.063535 0.121292
0.082610 -0.094069 0.171248
0.082746 -0.087919 0.148795
0.082825 -0.085936 0.090762
0.082441 -0.068431 0.149291
0.081389 -0.112383 0.146353
0.082607 -0.091635 0.122579
0.082791 -0.072630 0.130841
0.082154 -0.106546 0.164208
0.082782 -0.071809 0.110762
0.082669 -0.099396 0.151337
0.082157 -0.096352 0.086853
0.083000 -0.081801 0.160700
0.080724 -0.113631 0.126468
0.082833 -0.092027 0.100616
0.082962 -0.087140 0.073845
0.082014 -0.109320 0.114052
0.082536 -0.079507 0.101639
0.082482 -0.095807 0.135902
0.082846 -0.080138 0.121279
0.083057 -0.086629 0.132358
0.082335 -0.100653 0.122937
0.082030 -0.101167 0.071206
0.082086 -0.104451 0.134536
0.081442 -0.114656 0.103314
0.082238 -0.102178 0.099828
0.082810 -0.076478 0.081139
0.082660 -0.078744 0.142168
0.023374 -0.116734 0.075849
0.056808 -0.115807 0.049511
0.073366 -0.118045 0.049632
0.043548 -0.116355 0.055317
0.030044 -0.112799 0.063455
0.049706 -0.114147 0.118633
0.042690 -0.114558 0.092610
0.081494 -0.114285 0.060584
0.062242 -0.110981 0.110462
0.076104 -0.113986 0.109381
0.058184 -0.114055 0.086096
0.010708 -0.114928 0.088485
0.024198 -0.116195 0.108791
0.073977 -0.111261 0.070523
0.067517 -0.114794 0.097516
0.032313 -0.116860 0.044530
0.038353 -0.113752 0.106301
0.070115 -0.117516 0.083439
0.065357 -0.115549 0.060353
0.065460 -0.116514 0.036506
0.061579 -0.116243 0.073729
0.035498 -0.114700 0.080853
0.025804 -0.115422 0.092915
0.051794 -0.114650 0.065693
0.053244 -0.114263 0.099884
0.082977 -0.114186 0.077950
0.047654 -0.118204 0.036304
0.048885 -0.116670 0.079336
0.039097 -0.119424 0.067582
0.009477 -0.116687 0.068434
0.017785 -0.116838 0.053614
0.080292 -0.112810 0.093227
-0.023943 -0.046577 0.137188
0.032459 -0.043799 0.106785
0.062565 -0.052864 0.113509
0.011143 -0.042767 0.112568
-0.014063 -0.040876 0.121322
0.019908 -0.044196 0.183923
0.007276 -0.041309 0.153780
0.078570 -0.042753 0.119492
0.045142 -0.041304 0.175720
0.071064 -0.042191 0.174818
0.039391 -0.039889 0.147828
-0.041805 -0.046706 0.151798
-0.020344 -0.052984 0.172771
0.064898 -0.041092 0.132964
0.054953 -0.043852 0.160976
-0.006895 -0.043730 0.101404
-0.001007 -0.041911 0.171594
0.055526 -0.058840 0.145460
0.049785 -0.041220 0.120413
0.052703 -0.043697 0.094652
0.041385 -0.044074 0.134834
-0.003011 -0.041858 0.140734
-0.020358 -0.042494 0.157673
0.022508 -0.040521 0.127730
0.027173 -0.041699 0.162867
0.082012 -0.043598 0.139970
0.018509 -0.045842 0.090311
0.020512 -0.046059 0.144176
0.003265 -0.063528 0.125706
-0.044491 -0.048198 0.127960
-0.031649 -0.046482 0.109447
0.073604 -0.041944 0.152982
-0.078993 -0.119443 -0.034340
-0.075243 -0.122504 -0.051594
-0.065254 -0.123803 -0.056208
-0.077211 -0.121042 -0.045177
-0.078340 -0.118932 -0.039851
-0.076397 -0.120067 -0.002523
-0.077246 -0.119424 -0.023798
-0.055001 -0.123197 -0.047809
-0.074110 -0.121099 -0.013111
-0.062430 -0.122695 -0.014275
-0.073085 -0.121437 -0.027247
-0.079804 -0.116021 -0.025957
-0.078229 -0.118320 -0.010028
-0.064236 -0.122980 -0.039527
-0.069120 -0.121788 -0.020228
-0.077687 -0.120574 -0.060081
-0.077479 -0.119621 -0.014827
-0.066438 -0.122892 -0.029493
-0.071284 -0.122465 -0.045510
-0.070651 -0.122956 -0.066797
-0.071722 -0.122557 -0.034236
-0.078925 -0.119745 -0.028906
-0.078647 -0.119093 -0.019726
-0.074974 -0.121885 -0.038144
-0.074936 -0.121334 -0.020099
-0.048823 -0.122801 -0.033405
-0.077173 -0.121616 -0.075471
-0.075809 -0.121287 -0.030903
-0.076103 -0.121624 -0.037862
-0.079606 -0.117609 -0.043541
-0.079286 -0.117819 -0.052426
-0.057956 -0.122740 -0.024387
-0.071072 0.035300 0.051136
-0.061950 0.034029 0.039170
-0.055723 0.031474 0.037436
-0.064863 0.034258 0.042614
-0.067929 0.034712 0.046055
-0.063387 0.038825 0.073326
-0.064749 0.037241 0.057287
-0.049124 0.032678 0.041754
-0.059919 0.038519 0.066812
-0.052753 0.036186 0.065551
-0.062156 0.036748 0.054777
-0.075177 0.035846 0.056980
-0.071732 0.037215 0.066474
-0.055370 0.034951 0.047605
-0.058956 0.036803 0.059039
-0.067003 0.032876 0.036948
-0.065666 0.038374 0.063674
-0.057848 0.035598 0.052970
-0.059100 0.034108 0.043454
-0.057623 0.031831 0.031912
-0.060892 0.035103 0.049729
-0.067587 0.036452 0.053419
-0.069560 0.036445 0.058298
-0.062878 0.035106 0.046464
-0.062790 0.037624 0.061081
-0.044980 0.032289 0.050835
-0.064385 0.031910 0.030186
-0.063646 0.036087 0.052205
-0.065895 0.035036 0.048273
-0.076741 0.033598 0.048095
-0.072622 0.033116 0.040920
-0.051690 0.035366 0.056824
-0.083105 0.019743 0.020217
-0.081855 0.033526 0.012452
-0.083063 0.010019 0.008527
-0.082663 0.026099 0.021809
-0.080443 0.035146 0.028416
-0.082866 0.023859 0.055621
-0.082946 0.025302 0.041760
-0.083550 0.026370 0.009722
-0.081591 0.033329 0.043684
-0.083266 0.007936 0.039001
-0.083172 0.024104 0.026559
-0.081808 0.032369 0.032024
-0.082530 0.014598 0.050206
-0.081910 0.032751 0.020961
-0.083439 0.018750 0.042337
-0.082939 0.018723 0.007640
-0.082316 0.029065 0.048273
-0.083079 0.004822 0.027976
-0.083258 0.023430 0.014967
-0.082843 0.025325 0.000542
-0.083061 0.011368 0.021597
-0.082320 0.029285 0.016902
-0.083018 0.020841 0.034010
-0.082648 0.029541 0.026135
-0.082710 0.026701 0.031959
-0.083778 0.017075 0.026803
-0.083012 0.015231 -0.001154
-0.083075 0.013001 0.032983
-0.082451 0.005310 0.015151
-0.082675 0.015781 0.014952
-0.081910 0.030887 0.005225
-0.082880 0.030456 0.037287
-0.083916 -0.060469 -0.017297
-0.083523 -0.044543 -0.024583
-0.083715 -0.068373 -0.026839
-0.083409 -0.054553 -0.017576
-0.083257 -0.041763 -0.012714
-0.083350 -0.058386 0.004199
-0.083600 -0.055905 -0.002516
-0.083898 -0.054109 -0.026024
-0.083298 -0.044345 -0.002563
-0.083951 -0.070313 -0.003810
-0.083659 -0.056756 -0.012952
-0.083330 -0.046810 -0.009176
-0.083337 -0.065916 0.002602
-0.083491 -0.046033 -0.017560
-0.083664 -0.061856 -0.002340
-0.083716 -0.061182 -0.026865
-0.083180 -0.051639 0.001841
-0.084070 -0.072198 -0.011891
-0.083623 -0.057516 -0.022324
-0.083411 -0.055424 -0.032810
-0.083758 -0.067309 -0.016045
-0.083510 -0.050257 -0.021491
-0.083816 -0.059578 -0.008000
-0.083377 -0.050936 -0.013678
-0.083460 -0.053838 -0.008697
-0.083938 -0.063008 -0.012593
-0.083785 -0.063458 -0.033092
-0.083779 -0.066070 -0.007760
-0.083666 -0.071853 -0.020633
-0.083772 -0.063954 -0.021526
-0.083328 -0.049046 -0.030229
-0.083785 -0.050084 -0.004720
-0.063757 0.018520 0.096493
-0.067322 0.038439 0.083622
-0.051884 -0.004633 0.070491
-0.062186 0.030477 0.096485
-0.069496 0.044089 0.112570
-0.054447 0.029367 0.158041
-0.062161 0.031572 0.127107
-0.050206 0.026574 0.083995
-0.064061 0.042277 0.137667
-0.050060 -0.007812 0.127501
-0.057776 0.026155 0.106614
-0.072122 0.038946 0.115714
-0.057734 0.008212 0.143363
-0.058274 0.037867 0.100187
-0.054211 0.017897 0.126208
-0.058797 0.015353 0.067397
-0.064316 0.038764 0.143471
-0.053676 -0.022482 0.102448
-0.059977 0.022464 0.087475
-0.058235 0.023213 0.056185
-0.057408 0.005051 0.090653
-0.068671 0.034422 0.094355
-0.068077 0.019084 0.115029
-0.062293 0.036179 0.106360
-0.062259 0.034540 0.115793
-0.039318 0.013607 0.102064
-0.059273 -0.000596 0.040156
-0.059493 0.001905 0.107986
-0.058647 -0.017272 0.078265
-0.068457 0.009028 0.081232
-0.068121 0.030351 0.073613
-0.050577 0.035491 0.125728
-0.083845 -0.019361 -0.005070
-0.083705 -0.002913 -0.012424
-0.083596 -0.027209 -0.014508
-0.083460 -0.013384 -0.005629
-0.083509 -0.000039 -0.000984
-0.083345 -0.017496 0.016261
-0.083645 -0.014856 0.009484
-0.084045 -0.012868 -0.013821
-0.083522 -0.002891 0.009464
-0.083862 -0.029092 0.008493
-0.083693 -0.015724 -0.000791
-0.083453 -0.005376 0.002796
-0.083242 -0.024905 0.014762
-0.083708 -0.004670 -0.005463
-0.083671 -0.020838 0.009780
-0.083618 -0.019950 -0.014642
-0.083233 -0.010550 0.013884
-0.083877 -0.030919 0.000393
-0.083622 -0.016429 -0.010187
-0.083436 -0.014415 -0.020409
-0.083642 -0.026173 -0.003734
-0.083634 -0.008937 -0.009020
-0.083734 -0.018446 0.004246
-0.083506 -0.009761 -0.001712
-0.083523 -0.012700 0.003549
-0.083984 -0.021966 -0.000428
-0.083665 -0.022418 -0.020663
-0.083708 -0.024917 0.004384
-0.083502 -0.030515 -0.008189
-0.083615 -0.022893 -0.009250
-0.083402 -0.007591 -0.017818
-0.083943 -0.008920 0.007295
-0.084069 -0.083285 -0.031380
-0.083381 -0.065355 -0.040286
-0.083802 -0.091158 -0.042302
-0.083438 -0.076642 -0.031322
-0.082900 -0.062436 -0.025675
-0.083382 -0.080752 -0.004645
-0.083741 -0.077723 -0.013021
-0.083845 -0.076160 -0.041842
-0.082993 -0.065392 -0.013241
-0.083886 -0.093191 -0.015148
-0.083693 -0.079338 -0.026265
-0.083161 -0.068080 -0.021653
-0.083454 -0.088633 -0.006958
-0.083271 -0.067179 -0.031695
-0.083729 -0.084526 -0.013036
-0.083935 -0.083557 -0.042644
-0.083196 -0.073173 -0.007586
-0.083968 -0.094629 -0.024854
-0.083713 -0.079529 -0.037104
-0.083409 -0.076979 -0.049986
-0.083742 -0.090450 -0.029851
-0.083496 -0.071717 -0.036031
-0.083924 -0.081781 -0.019879
-0.083356 -0.072590 -0.026768
-0.083458 -0.075936 -0.021226
-0.083966 -0.085616 -0.025713
-0.083874 -0.086122 -0.050207
-0.083874 -0.088609 -0.019925
-0.083759 -0.094714 -0.035301
-0.083860 -0.086451 -0.036639
-0.083318 -0.070170 -0.046890
-0.083661 -0.071652 -0.016117
-0.083704 0.012590 0.005201
-0.083276 0.028030 -0.003537
-0.083324 0.005634 -0.004221
-0.083268 0.018105 0.005540
-0.082949 0.029934 0.009864
-0.083217 0.015298 0.028763
-0.083577 0.017256 0.021008
-0.083910 0.018567 -0.003939
-0.083061 0.027449 0.021040
-0.083576 0.003902 0.018952
-0.083538 0.015939 0.009561
-0.083106 0.025320 0.013677
-0.083039 0.008423 0.026145
-0.083438 0.025999 0.004493
-0.083578 0.011650 0.020725
-0.083505 0.012479 -0.004945
-0.083069 0.021073 0.025469
-0.083473 0.002071 0.010871
-0.083516 0.015701 0.000329
-0.083141 0.018691 -0.011823
-0.083269 0.006276 0.006525
-0.083370 0.021981 0.001397
-0.083513 0.014048 0.015133
-0.083308 0.021575 0.009216
-0.083314 0.018683 0.013879
-0.083822 0.010596 0.010130
-0.083371 0.010263 -0.011946
-0.083505 0.007829 0.014967
-0.083120 0.002104 0.001581
-0.083371 0.009751 0.000898
-0.083205 0.023998 -0.008323
-0.083804 0.022311 0.017995
-0.042062 -0.042702 0.077462
-0.007542 -0.027108 0.043616
0.019562 -0.066153 0.055447
-0.014389 -0.034394 0.061267
-0.037796 -0.018164 0.071733
-0.009838 -0.035475 0.134283
-0.030280 -0.031213 0.089558
0.037726 -0.031970 0.055910
0.009659 -0.021215 0.116270
0.028388 -0.044902 0.121438
0.009673 -0.029731 0.083400
-0.058040 -0.032571 0.084691
-0.031131 -0.061456 0.121928
0.023041 -0.021975 0.073161
0.007712 -0.040294 0.104388
-0.025570 -0.041975 0.044276
-0.030612 -0.028297 0.112500
0.013717 -0.074581 0.090193
0.008832 -0.029660 0.055814
0.018435 -0.034974 0.034208
0.003003 -0.046841 0.069280
-0.029084 -0.028304 0.066506
-0.049480 -0.043728 0.104996
-0.009945 -0.024896 0.078560
-0.008349 -0.029540 0.100168
0.043915 -0.040938 0.080615
-0.009016 -0.051302 0.025593
-0.017332 -0.056410 0.091244
-0.027357 -0.079945 0.059436
-0.057733 -0.049703 0.058873
-0.046779 -0.035125 0.040954
0.033397 -0.029623 0.095520
-0.083811 -0.081182 -0.041448
-0.083299 -0.064924 -0.049472
-0.083484 -0.089048 -0.051509
-0.083248 -0.075183 -0.041569
-0.082969 -0.062143 -0.036517
-0.083166 -0.078947 -0.018418
-0.083477 -0.076462 -0.025642
-0.083656 -0.074715 -0.050782
-0.083019 -0.064800 -0.025767
-0.083617 -0.090993 -0.027162
-0.083472 -0.077499 -0.036887
-0.083139 -0.067300 -0.032906
-0.083200 -0.086571 -0.020234
-0.083238 -0.066432 -0.041804
-0.083480 -0.082554 -0.025540
-0.083596 -0.081682 -0.051604
-0.083053 -0.072093 -0.021005
-0.083732 -0.092706 -0.035703
-0.083479 -0.078130 -0.046692
-0.083191 -0.075780 -0.058201
-0.083512 -0.088012 -0.040132
-0.083349 -0.070827 -0.045999
-0.083695 -0.080168 -0.031511
-0.083186 -0.071473 -0.037555
-0.083301 -0.074478 -0.032489
-0.083679 -0.083646 -0.036469
-0.083598 -0.084193 -0.058449
-0.083582 -0.086705 -0.031358
-0.083444 -0.092400 -0.044933
-0.083603 -0.084551 -0.045979
-0.083180 -0.069443 -0.055357
-0.083545 -0.070611 -0.028135
-0.083506 -0.103120 -0.055029
-0.083540 -0.089788 -0.063563
-0.082662 -0.108457 -0.068175
-0.083124 -0.098486 -0.053975
-0.083264 -0.087189 -0.049013
-0.082914 -0.101547 -0.028480
-0.083353 -0.098783 -0.036626
-0.083695 -0.098352 -0.066216
-0.083252 -0.089850 -0.037862
-0.082703 -0.109911 -0.038669
-0.083259 -0.100394 -0.049266
-0.083267 -0.091736 -0.045331
-0.082588 -0.107049 -0.030401
-0.083463 -0.091411 -0.054923
-0.083039 -0.103896 -0.036109
-0.083213 -0.102689 -0.070106
-0.083110 -0.095904 -0.031897
-0.082632 -0.110754 -0.047599
-0.083263 -0.100742 -0.060430
-0.082997 -0.098165 -0.078107
-0.082699 -0.107807 -0.052788
-0.083498 -0.094982 -0.059897
-0.083340 -0.101658 -0.042588
-0.083175 -0.095485 -0.049500
-0.083280 -0.098000 -0.045033
-0.083405 -0.104618 -0.048840
-0.083075 -0.105317 -0.081362
-0.082879 -0.106421 -0.043138
-0.082356 -0.110227 -0.058795
-0.083070 -0.105199 -0.061628
-0.083434 -0.093129 -0.071665
-0.083728 -0.094881 -0.040260
-0.083952 -0.029269 -0.022815
-0.083676 -0.011535 -0.030564
-0.083828 -0.037024 -0.032675
-0.083502 -0.022829 -0.023268
-0.083357 -0.008424 -0.018121
-0.083436 -0.027014 0.000759
-0.083720 -0.024102 -0.006664
-0.084091 -0.022332 -0.032222
-0.083383 -0.011528 -0.006639
-0.084059 -0.039056 -0.008143
-0.083805 -0.025378 -0.018318
-0.083254 -0.014194 -0.014174
-0.083330 -0.034666 -0.001134
-0.083686 -0.013509 -0.023069
-0.083806 -0.030607 -0.006634
-0.083805 -0.029964 -0.033085
-0.083227 -0.019596 -0.001781
-0.084069 -0.040747 -0.016937
-0.083726 -0.025616 -0.028199
-0.083508 -0.023736 -0.039310
-0.083759 -0.036301 -0.021369
-0.083618 -0.017694 -0.026372
-0.083728 -0.027934 -0.012566
-0.083530 -0.018879 -0.019040
-0.083540 -0.022073 -0.013537
-0.084207 -0.031660 -0.017756
-0.083827 -0.032309 -0.039626
-0.083861 -0.034708 -0.012589
-0.083708 -0.040664 -0.026206
-0.083628 -0.032661 -0.027544
-0.083343 -0.016471 -0.036464
-0.083981 -0.018001 -0.009290
-0.035994 -0.041359 0.130037
0.002472 -0.025778 0.093080
0.034376 -0.047051 0.097024
-0.010305 -0.035613 0.109166
-0.030152 -0.017552 0.117586
-0.000926 -0.034578 0.189377
-0.015834 -0.036337 0.147413
0.052073 -0.032677 0.107986
0.015430 -0.022054 0.174732
0.042139 -0.042854 0.175502
0.014748 -0.032191 0.141649
-0.048536 -0.031887 0.142232
-0.036453 -0.043176 0.175558
0.036907 -0.022229 0.122958
0.024356 -0.040211 0.159403
-0.022752 -0.040824 0.091998
-0.021585 -0.029714 0.169813
0.029343 -0.051845 0.137769
0.017540 -0.033976 0.107637
0.028110 -0.033793 0.076925
0.013544 -0.043525 0.124409
-0.023218 -0.030100 0.130472
-0.037340 -0.036749 0.153673
-0.000373 -0.028323 0.123227
-0.000461 -0.031943 0.158371
0.056548 -0.039678 0.132777
-0.004910 -0.042017 0.074481
-0.004234 -0.047617 0.138509
-0.016833 -0.053123 0.118901
-0.048000 -0.041792 0.116356
-0.039224 -0.033390 0.094554
0.046468 -0.029972 0.152824
0.080002 -0.057669 0.089991
0.079202 -0.041434 0.072283
0.082745 -0.068524 0.069183
0.082907 -0.050512 0.089739
0.075882 -0.034071 0.098406
0.081580 -0.052922 0.143225
0.081679 -0.050367 0.120297
0.081890 -0.054035 0.073295
0.078694 -0.038892 0.122149
0.082239 -0.072472 0.119104
0.082156 -0.053938 0.098867
0.069939 -0.044695 0.104831
0.082845 -0.063304 0.134012
0.081198 -0.043539 0.086672
0.082662 -0.058723 0.121160
0.082975 -0.057401 0.066572
0.079961 -0.046970 0.131087
0.080962 -0.075064 0.101673
0.082286 -0.055460 0.080252
0.081450 -0.050485 0.056364
0.082507 -0.067046 0.088421
0.079451 -0.047848 0.083555
0.075062 -0.056921 0.111929
0.081325 -0.046267 0.097276
0.082159 -0.051334 0.106045
0.083517 -0.061548 0.098359
0.081898 -0.062643 0.050429
0.083434 -0.063599 0.106693
0.082918 -0.074841 0.080439
0.066967 -0.059180 0.079271
0.077370 -0.047105 0.065216
0.081915 -0.048200 0.113787
-0.083780 -0.024557 -0.026696
-0.083462 -0.007404 -0.034072
-0.083452 -0.032223 -0.036218
-0.083288 -0.018359 -0.027126
-0.083278 -0.004398 -0.022334
-0.083177 -0.022607 -0.004948
-0.083506 -0.019774 -0.011822
-0.083797 -0.017880 -0.035591
-0.083234 -0.007458 -0.011791
-0.083700 -0.034092 -0.013003
-0.083529 -0.020879 -0.022493
-0.083268 -0.009992 -0.018652
-0.083128 -0.029975 -0.006563
-0.083479 -0.009381 -0.026936
-0.083507 -0.025953 -0.011675
-0.083500 -0.024967 -0.036431
-0.083068 -0.015479 -0.007359
-0.083729 -0.035801 -0.021163
-0.083444 -0.021423 -0.031815
-0.083216 -0.019319 -0.042400
-0.083476 -0.031323 -0.025320
-0.083466 -0.013857 -0.030465
-0.083578 -0.023373 -0.017160
-0.083300 -0.014605 -0.023177
-0.083335 -0.017747 -0.018032
-0.083840 -0.026981 -0.021962
-0.083539 -0.027655 -0.042747
-0.083576 -0.029923 -0.017096
-0.083385 -0.035524 -0.029846
-0.083467 -0.028036 -0.031000
-0.083258 -0.012185 -0.039569
-0.083702 -0.013854 -0.014174
0.072430 -0.111483 0.059875
0.083409 -0.080580 0.035281
0.081621 -0.114741 0.035201
0.085194 -0.101588 0.060391
0.082787 -0.072556 0.078565
0.083497 -0.106082 0.127977
0.083672 -0.101308 0.097757
0.085228 -0.099770 0.039463
0.082470 -0.079022 0.102034
0.079376 -0.117160 0.097833
0.084829 -0.098840 0.072293
0.083803 -0.091863 0.077818
0.075891 -0.114597 0.115975
0.084327 -0.082059 0.054305
0.084669 -0.105603 0.102230
0.080382 -0.109735 0.025577
0.084777 -0.095747 0.114925
0.070955 -0.118216 0.077015
0.084098 -0.106832 0.047314
0.085373 -0.099106 0.017480
0.081348 -0.115498 0.060200
0.083310 -0.093838 0.046374
0.071545 -0.112656 0.089170
0.085542 -0.090826 0.067721
0.085473 -0.100549 0.081644
0.084391 -0.108649 0.071473
0.081719 -0.112048 0.007856
0.083198 -0.110870 0.080630
