-0.141601 0.154708 0.046023
-0.138086 0.140321 0.128311
-0.143127 0.146900 0.084642
-0.141011 0.141464 0.171849
-0.153160 0.155074 0.091507
-0.145648 0.155160 0.077657
-0.145066 0.154905 0.123194
-0.138372 0.153231 0.067331
-0.137422 0.134404 0.085850
-0.168526 0.154892 0.105962
-0.144822 0.154739 0.144028
-0.150057 0.155010 0.061978
-0.138360 0.150791 0.144501
-0.149356 0.149921 0.151306
-0.140680 0.154418 0.103061
-0.149437 0.154799 0.180192
-0.155081 0.146408 0.100598
-0.150455 0.155732 0.118325
-0.135296 0.151547 0.114846
-0.156358 0.154918 0.159438
-0.163168 0.156034 0.132833
-0.141655 0.152119 0.203465
-0.150025 0.149991 0.041112
-0.136786 0.145874 0.055324
-0.096803 0.113067 0.166836
-0.049066 0.112987 0.199297
-0.048194 0.113085 0.165135
-0.065213 0.113117 0.141995
-0.073089 0.113002 0.186786
-0.052726 0.113226 0.214701
-0.054646 0.112623 0.176170
-0.063291 0.113256 0.223108
-0.077525 0.113102 0.146756
-0.055808 0.113230 0.190069
-0.079091 0.113235 0.177907
-0.071391 0.113190 0.212064
-0.085461 0.113115 0.169194
-0.069802 0.113086 0.170896
-0.065468 0.112850 0.195404
-0.067787 0.112979 0.156318
-0.060081 0.112992 0.165985
-0.100942 0.112879 0.184575
-0.074814 0.113046 0.199937
-0.077596 0.113116 0.161989
-0.060409 0.113088 0.205492
-0.083750 0.113234 0.206129
-0.064435 0.113055 0.181363
-0.080995 0.113321 0.219886
-0.089185 0.113278 0.181386
-0.083176 0.113300 0.191544
-0.045314 0.112928 0.183339
-0.094292 0.112954 0.214891
-0.094145 0.113250 0.197638
-0.073605 0.113102 0.232617
-0.088243 0.113058 0.154099
-0.055631 0.112940 0.152997
0.028701 0.111879 0.246872
0.081891 0.111892 0.282998
0.082495 0.111956 0.243795
0.062784 0.111939 0.213642
0.054993 0.111358 0.269481
0.078160 0.111898 0.301016
0.074563 0.111464 0.256319
0.065866 0.112132 0.309209
0.049827 0.111983 0.220497
0.074097 0.111903 0.272411
0.048862 0.111985 0.258751
0.057146 0.111832 0.297834
0.042373 0.111906 0.249331
0.058644 0.111917 0.250268
0.063673 0.111641 0.278502
0.060777 0.111876 0.232374
0.068875 0.111522 0.244018
0.023921 0.111352 0.267466
0.053239 0.111831 0.284188
0.050251 0.111911 0.239248
0.068998 0.111928 0.290403
0.043681 0.111853 0.291019
0.064239 0.111849 0.262808
0.046194 0.112154 0.306055
0.037736 0.111775 0.263107
0.044188 0.111939 0.275131
0.085480 0.111761 0.264876
0.031897 0.111659 0.299846
0.031301 0.111777 0.282189
0.054296 0.111979 0.319806
0.038066 0.111624 0.230159
0.074052 0.111542 0.227753
-0.175907 0.168544 0.097257
-0.124344 0.168322 0.134206
-0.124113 0.168765 0.097772
-0.143072 0.168796 0.069207
-0.150738 0.168293 0.121051
-0.128982 0.168907 0.150159
-0.132054 0.168360 0.110582
-0.140996 0.168856 0.158190
-0.156331 0.168892 0.074393
-0.133012 0.169088 0.124942
-0.156890 0.169435 0.112395
-0.149223 0.169187 0.147391
-0.164077 0.168702 0.100704
-0.147316 0.168843 0.103123
-0.143311 0.168505 0.130472
-0.145893 0.168832 0.085147
-0.137375 0.168745 0.097053
-0.179250 0.167778 0.117828
-0.152619 0.168700 0.134536
-0.156138 0.168545 0.092872
-0.137458 0.168722 0.141288
-0.161515 0.169038 0.141474
-0.142013 0.168898 0.115274
-0.159125 0.168998 0.156690
-0.167744 0.168899 0.114383
-0.161594 0.168890 0.126893
-0.121425 0.168620 0.116935
-0.172309 0.168147 0.150101
-0.172657 0.168528 0.131952
-0.150680 0.168812 0.167509
-0.168234 0.168906 0.081388
-0.132112 0.168957 0.082710
0.039558 0.169218 0.269248
0.100156 0.168617 0.302176
0.100360 0.169317 0.270927
0.079219 0.169240 0.246516
0.069647 0.165446 0.291460
0.095472 0.169043 0.316159
0.091438 0.168732 0.280804
0.082823 0.169022 0.322709
0.064634 0.169122 0.250235
0.089819 0.169806 0.294896
0.061342 0.169897 0.282431
0.072969 0.169666 0.312519
0.053818 0.169073 0.271899
0.073595 0.169167 0.275933
0.077956 0.168959 0.298005
0.075855 0.169235 0.260640
0.083482 0.167292 0.271096
0.031955 0.168728 0.285628
0.067490 0.169019 0.301958
0.064936 0.169024 0.266416
0.085430 0.169072 0.307978
0.055448 0.169594 0.306193
0.080718 0.168987 0.285422
0.061550 0.169338 0.319007
0.048943 0.169903 0.284292
0.057686 0.169453 0.293782
0.102403 0.168936 0.287743
0.043835 0.168610 0.315298
0.043570 0.169544 0.297747
0.070968 0.168999 0.329137
0.051260 0.169537 0.255648
0.090286 0.169674 0.258938
-0.060232 0.169542 0.183424
-0.004573 0.168829 0.216722
-0.004627 0.169438 0.183928
-0.023773 0.169328 0.158340
-0.032536 0.165420 0.205934
-0.009004 0.169321 0.231833
-0.012788 0.168972 0.194163
-0.020997 0.169220 0.238958
-0.037576 0.169204 0.162670
-0.013915 0.169836 0.208558
-0.039458 0.169984 0.196808
-0.030226 0.169790 0.228406
-0.046675 0.169300 0.185985
-0.028886 0.169396 0.188990
-0.024632 0.169154 0.212652
-0.026874 0.169361 0.173089
-0.019796 0.167763 0.183577
-0.065834 0.169108 0.200387
-0.034228 0.169243 0.216848
-0.037317 0.169231 0.179185
-0.018257 0.169234 0.223088
-0.044749 0.169625 0.221947
-0.022749 0.169235 0.199343
-0.040406 0.169588 0.235910
-0.051221 0.169940 0.198459
-0.043721 0.169585 0.208695
-0.002602 0.169134 0.201301
-0.056511 0.169104 0.230331
-0.056602 0.169678 0.213054
-0.031266 0.169273 0.246884
-0.049985 0.169655 0.169613
-0.013070 0.169628 0.170842
0.135390 0.139761 0.270924
0.134157 0.146429 0.306839
0.134043 0.146588 0.286784
0.134349 0.145950 0.249564
0.134634 0.137701 0.291373
0.134395 0.138747 0.321590
0.134654 0.153923 0.282379
0.134152 0.150725 0.338727
0.134634 0.144685 0.264925
0.134572 0.125821 0.307555
0.134688 0.133001 0.280830
0.134565 0.128544 0.324823
0.134873 0.149540 0.292934
0.134656 0.150841 0.275793
0.134570 0.154921 0.310841
0.134631 0.141767 0.279615
0.134527 0.125585 0.289512
0.134541 0.154819 0.294964
0.134901 0.149192 0.318072
0.134418 0.152591 0.263911
0.134498 0.132903 0.313812
0.134373 0.135171 0.334014
0.134903 0.151963 0.303272
0.134678 0.145436 0.329360
0.134921 0.131133 0.297904
0.135015 0.143786 0.298171
0.134316 0.137483 0.304059
0.134767 0.153449 0.325215
0.134927 0.142487 0.312927
0.134375 0.142829 0.346042
0.135063 0.136059 0.256362
0.134442 0.128801 0.269553
0.108960 0.170575 0.318692
0.164582 0.169243 0.349079
0.164483 0.169873 0.320279
0.156227 0.170695 0.296640
0.137998 0.170982 0.338735
0.163340 0.169863 0.361860
0.159800 0.170309 0.328141
0.155576 0.170549 0.369558
0.138223 0.170544 0.300332
0.161132 0.171255 0.341772
0.129701 0.170901 0.330774
0.142123 0.171300 0.360115
0.122137 0.170718 0.321675
0.144264 0.170881 0.324210
0.147045 0.170446 0.345158
0.147956 0.170899 0.309168
0.157113 0.170627 0.316990
0.100847 0.170387 0.334768
0.133947 0.170923 0.349827
0.134864 0.171042 0.315483
0.154885 0.170691 0.354399
0.119961 0.171120 0.352900
0.151004 0.170751 0.332949
0.130067 0.171106 0.366801
0.115418 0.170706 0.332472
0.124249 0.170734 0.341040
0.165148 0.169748 0.334788
0.108892 0.170816 0.363165
0.110418 0.170889 0.345886
0.142330 0.170841 0.375466
0.122252 0.171008 0.307486
0.162186 0.170320 0.307064
-0.114784 0.113145 0.142770
-0.073466 0.113056 0.180294
-0.072017 0.113117 0.141464
-0.087760 0.113163 0.112742
-0.094839 0.113033 0.166107
-0.076399 0.113210 0.198421
-0.078082 0.112592 0.153120
-0.086307 0.113264 0.210175
-0.098905 0.113102 0.119548
-0.078986 0.113230 0.169260
-0.099018 0.113190 0.155641
-0.093580 0.113199 0.197304
-0.105075 0.113087 0.146187
-0.091610 0.113068 0.146480
-0.087401 0.112814 0.175976
-0.089884 0.112999 0.130073
-0.082083 0.112932 0.140686
-0.116980 0.113001 0.164812
-0.095675 0.113010 0.181837
-0.098990 0.113076 0.136444
-0.083366 0.113108 0.187916
-0.102980 0.113239 0.190141
-0.087127 0.113011 0.159425
-0.101605 0.113345 0.206999
-0.107853 0.113362 0.159104
-0.103470 0.113347 0.172029
-0.069260 0.112973 0.161593
-0.112563 0.112949 0.199521
-0.111848 0.113349 0.179537
-0.095476 0.113130 0.222829
-0.108656 0.113072 0.127786
-0.078345 0.112950 0.126052
0.116070 0.170025 0.299004
0.157340 0.169472 0.328712
0.158204 0.169965 0.313048
0.145913 0.170423 0.288726
0.128557 0.158384 0.321171
0.156157 0.159191 0.335562
0.153207 0.169886 0.302929
0.152468 0.170235 0.342156
0.130200 0.170016 0.289153
0.144919 0.159986 0.323783
0.135190 0.159180 0.307261
0.136345 0.159490 0.340593
0.122230 0.170012 0.312259
0.134482 0.170461 0.311887
0.138569 0.170180 0.322808
0.139692 0.170384 0.299996
0.155152 0.159472 0.311112
0.110742 0.169495 0.311898
0.132473 0.170340 0.333015
0.128832 0.170153 0.302193
0.144674 0.170470 0.332621
0.118854 0.159262 0.334211
0.145149 0.170245 0.312882
0.128317 0.170388 0.344228
0.115295 0.159282 0.313044
0.125567 0.170465 0.323427
0.150264 0.169879 0.321712
0.118809 0.170005 0.336749
0.113380 0.170039 0.324840
0.139363 0.170402 0.348092
0.123872 0.159533 0.294815
0.148630 0.159685 0.294057
-0.128040 0.113502 0.117673
-0.098885 0.113270 0.163259
-0.096701 0.113312 0.119778
-0.109977 0.113285 0.081482
-0.116221 0.112966 0.146520
-0.101775 0.113131 0.184716
-0.102513 0.112747 0.130259
-0.109735 0.113175 0.203829
-0.117795 0.113232 0.091894
-0.102746 0.113297 0.150142
-0.116943 0.113095 0.133475
-0.114920 0.113267 0.187707
-0.122468 0.113245 0.124036
-0.112899 0.113146 0.121821
-0.109749 0.112748 0.157885
-0.111025 0.113055 0.103791
-0.103515 0.112941 0.114822
-0.128448 0.113440 0.146484
-0.116023 0.112993 0.166404
-0.119059 0.113198 0.110116
-0.106832 0.113162 0.172754
-0.120246 0.113259 0.177909
-0.109618 0.113037 0.138398
-0.120882 0.113406 0.200052
-0.123668 0.113636 0.136662
-0.121976 0.113307 0.153981
-0.094704 0.113179 0.140979
-0.127030 0.113077 0.188224
-0.126337 0.113661 0.163596
-0.117170 0.113171 0.220858
-0.125488 0.113263 0.099408
-0.101339 0.113029 0.099077
0.085707 0.114032 0.257917
0.127768 0.113584 0.291779
0.128296 0.113956 0.257889
0.117655 0.113429 0.231410
0.109302 0.113130 0.278993
0.125846 0.113638 0.307052
0.123621 0.113191 0.267293
0.118492 0.113393 0.316277
0.106840 0.113322 0.237337
0.124192 0.113770 0.282038
0.104818 0.113731 0.269530
0.111216 0.113633 0.305751
0.097697 0.113622 0.260951
0.112775 0.113442 0.262133
0.116014 0.113107 0.287127
0.114527 0.113375 0.246467
0.120672 0.113511 0.255660
0.079932 0.113864 0.277563
0.108043 0.113426 0.292783
0.105632 0.113545 0.253258
0.120076 0.113438 0.297976
0.098866 0.113780 0.298872
0.117040 0.113405 0.273110
0.102996 0.113848 0.314157
0.093785 0.113801 0.273158
0.099798 0.113702 0.283844
0.130211 0.113742 0.275020
0.088549 0.113538 0.308633
0.087770 0.114038 0.290929
0.110486 0.113530 0.325810
0.095696 0.113692 0.244511
0.124130 0.113507 0.243146
-0.133954 0.114496 0.046711
-0.116551 0.113314 0.095823
-0.116671 0.113691 0.063180
-0.127291 0.112949 0.007703
-0.129931 0.112787 0.082918
-0.120956 0.112900 0.115375
-0.132763 0.127617 0.063875
-0.129464 0.114298 0.139486
-0.130197 0.113983 0.025775
-0.123170 0.113187 0.088595
-0.128195 0.113180 0.066016
-0.126262 0.113160 0.125306
-0.133941 0.115847 0.064245
-0.132429 0.116234 0.053940
-0.135219 0.133729 0.091730
-0.127525 0.112756 0.044338
-0.123287 0.113212 0.055867
-0.135504 0.126208 0.077817
-0.132793 0.116040 0.103605
-0.134791 0.127653 0.039799
-0.124689 0.113107 0.105126
-0.132258 0.113751 0.113418
-0.130986 0.116877 0.078601
-0.134055 0.115110 0.131278
-0.133676 0.114108 0.071863
-0.133621 0.114299 0.087035
-0.119463 0.112926 0.078459
-0.134240 0.128474 0.117118
-0.134912 0.114648 0.097604
-0.131776 0.113199 0.151982
-0.133048 0.114264 0.023309
-0.120829 0.113100 0.035368
0.072443 0.168822 0.274540
0.122460 0.168721 0.304914
0.124205 0.169040 0.286914
0.106227 0.169105 0.261835
0.090128 0.158448 0.297448
0.119046 0.158900 0.311750
0.116897 0.168764 0.276463
0.114677 0.168970 0.318963
0.090294 0.168903 0.263718
0.106667 0.158935 0.298931
0.097067 0.158711 0.283324
0.098559 0.158587 0.317835
0.080660 0.168811 0.288200
0.094519 0.169012 0.288440
0.100255 0.169158 0.298430
0.100435 0.168816 0.274944
0.118934 0.157933 0.286422
0.062521 0.168745 0.286936
0.094007 0.169026 0.309910
0.088796 0.169107 0.278452
0.106437 0.168731 0.309001
0.078185 0.158981 0.311668
0.107840 0.168978 0.286865
0.087485 0.169096 0.321329
0.073486 0.158633 0.288367
0.086123 0.169137 0.300437
0.113612 0.168593 0.297099
0.075721 0.168602 0.312821
0.069411 0.169012 0.299825
0.099852 0.168819 0.325543
0.083575 0.158778 0.269718
0.108704 0.158985 0.267220
-0.018532 0.158808 0.213978
0.046194 0.158425 0.249590
0.047749 0.158770 0.211330
0.026165 0.158553 0.182580
0.013072 0.158583 0.237396
0.039886 0.158794 0.265550
0.037379 0.158493 0.225074
0.026611 0.158607 0.273435
0.009130 0.158641 0.188501
0.035321 0.159230 0.239938
0.005701 0.159011 0.226884
0.016232 0.159146 0.263752
-0.003257 0.158683 0.216406
0.017517 0.158537 0.218841
0.022543 0.158595 0.245886
0.020909 0.158585 0.199939
0.030185 0.158958 0.212573
-0.026148 0.158414 0.234259
0.010987 0.158682 0.251594
0.007993 0.158652 0.208162
0.029327 0.158642 0.256585
-0.002115 0.158808 0.256080
0.025026 0.158657 0.230216
0.002636 0.158717 0.271540
-0.008775 0.159098 0.230665
0.000493 0.158885 0.242005
0.049217 0.158656 0.232012
-0.014787 0.158395 0.265883
-0.015196 0.158844 0.247625
0.012478 0.158523 0.283243
-0.005493 0.159039 0.198214
0.037898 0.159077 0.196983
0.080406 0.113820 0.245215
0.122671 0.113781 0.273878
0.122644 0.113935 0.244063
0.107844 0.113606 0.224185
0.100970 0.113457 0.262354
0.119656 0.113896 0.287832
0.116782 0.113385 0.253178
0.110452 0.113794 0.294730
0.097090 0.113506 0.227625
0.116342 0.113903 0.265324
0.095947 0.113828 0.254484
0.102971 0.113811 0.285035
0.090280 0.113683 0.246823
0.103808 0.113651 0.248447
0.107777 0.113471 0.269839
0.105409 0.113550 0.235606
0.112151 0.113668 0.243996
0.077034 0.113638 0.260213
0.099616 0.113608 0.273830
0.096963 0.113729 0.240895
0.112331 0.113699 0.279131
0.092157 0.113870 0.279131
0.108565 0.113661 0.257559
0.094762 0.113933 0.291598
0.087283 0.113734 0.257341
0.092279 0.113821 0.266500
0.124737 0.113800 0.259530
0.083036 0.113606 0.286264
0.082738 0.113830 0.271465
0.101637 0.113837 0.302575
0.087735 0.113620 0.234245
0.116395 0.113599 0.233115
0.062659 0.113442 0.216165
0.109944 0.113439 0.245936
0.109845 0.113578 0.215185
0.092734 0.113287 0.195267
0.085304 0.113240 0.234115
0.105593 0.113690 0.259547
0.103259 0.113088 0.225010
0.095229 0.113583 0.266043
0.081060 0.113205 0.198701
0.102286 0.113663 0.237512
0.079427 0.113655 0.225779
0.087347 0.113568 0.256733
0.073367 0.113422 0.218031
0.088342 0.113499 0.220182
0.092571 0.113281 0.241858
0.090131 0.113388 0.207059
0.097472 0.113376 0.216104
0.058614 0.113185 0.230909
0.083326 0.113369 0.245890
0.080960 0.113483 0.212305
0.097925 0.113497 0.251008
0.074896 0.113612 0.250486
0.093832 0.113487 0.229418
0.077972 0.113704 0.262584
0.069969 0.113473 0.228870
0.075731 0.113621 0.237984
0.112274 0.113468 0.231468
0.065497 0.113381 0.257452
0.064987 0.113514 0.242626
0.085397 0.113533 0.273306
0.071023 0.113300 0.205050
0.102121 0.113288 0.204497
0.128548 0.158232 0.281045
0.167199 0.160509 0.317807
0.167723 0.161263 0.283872
0.163556 0.158711 0.249098
0.151602 0.158378 0.302865
0.166135 0.159828 0.334691
0.164892 0.159886 0.290455
0.162178 0.158561 0.350421
0.152616 0.158220 0.256327
0.166674 0.160037 0.308286
0.146562 0.158440 0.292910
0.153499 0.159285 0.337149
0.139825 0.158217 0.283780
0.155681 0.158597 0.284101
0.157630 0.158689 0.310828
0.158606 0.158897 0.267332
0.164621 0.159422 0.276401
0.120068 0.158062 0.302542
0.149300 0.158244 0.318712
0.149458 0.158363 0.274860
0.162602 0.159023 0.325628
0.139871 0.158236 0.324633
0.160164 0.158632 0.295800
0.145159 0.158644 0.348071
0.134587 0.158073 0.296054
0.140006 0.158314 0.308204
0.167811 0.160722 0.299773
0.131244 0.157794 0.336414
0.128997 0.158402 0.316080
0.155191 0.158670 0.361827
0.138997 0.158515 0.264450
0.167126 0.160351 0.263987
-0.110227 0.169036 0.115221
-0.053549 0.168410 0.147073
-0.053708 0.168853 0.114936
-0.073559 0.168808 0.091409
-0.082076 0.165202 0.136300
-0.058679 0.168970 0.161565
-0.062207 0.168431 0.125345
-0.070827 0.168793 0.168280
-0.087663 0.168688 0.094820
-0.063192 0.169352 0.138897
-0.089389 0.169551 0.127986
-0.080321 0.169334 0.158101
-0.096691 0.168774 0.117321
-0.078654 0.168942 0.120376
-0.074252 0.168632 0.143263
-0.076855 0.168833 0.104962
-0.069118 0.167680 0.114831
-0.115623 0.168577 0.131312
-0.084465 0.168845 0.146807
-0.087235 0.168690 0.110899
-0.068010 0.168757 0.153237
-0.094803 0.169218 0.152247
-0.072410 0.168805 0.130143
-0.090666 0.169210 0.165495
-0.101261 0.169404 0.129649
-0.093729 0.169082 0.139589
-0.051912 0.168653 0.132013
-0.106719 0.168657 0.159975
-0.106948 0.169102 0.143511
-0.081341 0.168928 0.175712
-0.100083 0.169088 0.102007
-0.062301 0.168968 0.102595
-0.088901 0.175536 0.133162
-0.017357 0.163034 0.215815
-0.015066 0.179574 0.162110
-0.039602 0.175753 0.097013
-0.067900 0.117378 0.183835
-0.026435 0.114767 0.231582
-0.019030 0.155995 0.145891
-0.034086 0.163006 0.246212
-0.066717 0.166024 0.108971
-0.048764 0.112913 0.201723
-0.050722 0.115857 0.150462
-0.063082 0.110952 0.247638
-0.082584 0.155770 0.161349
-0.065263 0.166608 0.148750
-0.042017 0.155512 0.197238
-0.047216 0.175659 0.130557
-0.022982 0.110796 0.168512
-0.099535 0.155853 0.168103
-0.066313 0.162447 0.218446
-0.076116 0.160640 0.128833
-0.048728 0.171501 0.220072
-0.084589 0.112967 0.226026
-0.046645 0.163465 0.164677
-0.079891 0.170881 0.251452
-0.084226 0.111048 0.166151
-0.072098 0.175626 0.193000
-0.036742 0.178650 0.188505
-0.081466 0.157178 0.225116
-0.096806 0.177983 0.200359
-0.060361 0.178260 0.268677
-0.070048 0.112600 0.117063
-0.034393 0.111709 0.114663
0.028848 0.113719 0.194063
0.077486 0.113485 0.221901
0.077023 0.113690 0.194065
0.059878 0.113617 0.175570
0.052294 0.113553 0.210676
0.072934 0.113806 0.234402
0.070419 0.113294 0.203084
0.062749 0.113737 0.240808
0.048423 0.113581 0.178567
0.069777 0.113837 0.214627
0.045779 0.113798 0.203311
0.054990 0.113841 0.231578
0.039766 0.113648 0.195897
0.055475 0.113609 0.198549
0.059338 0.113385 0.218023
0.057432 0.113558 0.186572
0.064778 0.113636 0.194935
0.023777 0.113464 0.207666
0.050326 0.113662 0.221739
0.048246 0.113688 0.191168
0.065219 0.113665 0.226473
0.041289 0.113903 0.225630
0.061240 0.113586 0.206847
0.045451 0.113857 0.237072
0.036158 0.113802 0.206210
0.042808 0.113786 0.214206
0.079447 0.113614 0.208780
0.032387 0.113501 0.233114
0.031368 0.113806 0.218369
0.052905 0.113819 0.247466
0.038098 0.113731 0.183720
0.069456 0.113608 0.184523
-0.176213 0.163122 0.036588
-0.152116 0.168319 0.081043
-0.149386 0.168479 0.054372
-0.163521 0.168349 0.012317
-0.170635 0.156776 0.066795
-0.156212 0.157774 0.092827
-0.156588 0.169051 0.045502
-0.160804 0.168651 0.106143
-0.169537 0.167713 0.020294
-0.161305 0.157781 0.073523
-0.167833 0.158275 0.048817
-0.168292 0.157999 0.100945
-0.173039 0.167642 0.051585
-0.167984 0.168232 0.045964
-0.165415 0.169224 0.071986
-0.163327 0.168181 0.033962
-0.155386 0.157534 0.049501
-0.177927 0.163836 0.059317
-0.170111 0.168049 0.083829
-0.171243 0.167744 0.033842
-0.163005 0.168390 0.088298
-0.174712 0.158588 0.088658
-0.161952 0.168569 0.057491
-0.174551 0.165492 0.107811
-0.174486 0.158025 0.054544
-0.172998 0.167484 0.070750
-0.156293 0.168113 0.067607
-0.173740 0.167560 0.094844
-0.177654 0.163117 0.077671
-0.169009 0.167534 0.119677
-0.172689 0.157851 0.021860
-0.159027 0.157292 0.029686
-0.028609 0.168891 0.156395
0.017128 0.168599 0.189505
0.018665 0.168880 0.168574
0.001852 0.168700 0.140992
-0.012005 0.158024 0.180494
0.012310 0.158707 0.196518
0.010777 0.168918 0.160602
0.008936 0.168734 0.205370
-0.012901 0.168718 0.144561
0.002608 0.158507 0.182237
-0.007322 0.158372 0.166085
-0.005936 0.158527 0.201686
-0.021321 0.168812 0.170017
-0.008745 0.169080 0.169396
-0.003780 0.169341 0.182848
-0.003052 0.168694 0.155732
0.011115 0.158098 0.168078
-0.035941 0.168970 0.170070
-0.009306 0.168853 0.194839
-0.015007 0.169146 0.158820
0.002586 0.168774 0.193457
-0.021792 0.158556 0.193661
0.002324 0.168821 0.170666
-0.015432 0.169083 0.206996
-0.026114 0.158550 0.171930
-0.016706 0.169157 0.183592
0.009601 0.168654 0.179804
-0.025775 0.168642 0.196973
-0.030771 0.168867 0.183814
-0.003461 0.168606 0.213822
-0.019132 0.158576 0.151901
0.004218 0.158707 0.150312
0.006141 0.113697 0.172642
0.054980 0.113416 0.201667
0.054677 0.113689 0.172830
0.037758 0.113656 0.153139
0.029997 0.113576 0.190096
0.050668 0.113802 0.214789
0.048110 0.113252 0.182052
0.040490 0.113710 0.221817
0.026114 0.113588 0.156579
0.047591 0.113860 0.194192
0.023417 0.113820 0.182459
0.032697 0.113878 0.212000
0.017273 0.113639 0.174716
0.033245 0.113604 0.177404
0.037074 0.113324 0.197690
0.035236 0.113575 0.164939
0.042582 0.113668 0.173601
0.000952 0.113445 0.187000
0.028076 0.113669 0.201669
0.025919 0.113657 0.169679
0.043014 0.113667 0.206591
0.018865 0.113910 0.205951
0.039010 0.113555 0.186081
0.023191 0.113816 0.218049
0.013633 0.113846 0.185482
0.020294 0.113779 0.193815
0.057265 0.113593 0.188026
0.009726 0.113435 0.213949
0.008760 0.113819 0.198328
0.030720 0.113783 0.229054
0.015488 0.113801 0.161731
0.047217 0.113644 0.162776
0.085522 0.158849 0.264825
0.139905 0.158043 0.298969
0.141318 0.158434 0.266261
0.129302 0.158270 0.236214
0.118188 0.154780 0.288530
0.136505 0.158393 0.314964
0.134053 0.157825 0.274284
0.129455 0.158360 0.325384
0.118250 0.158207 0.243250
0.134821 0.158884 0.290375
0.112550 0.158715 0.278185
0.120407 0.158604 0.314691
0.102586 0.158450 0.268642
0.123187 0.158352 0.269641
0.125106 0.158072 0.294621
0.126419 0.158369 0.253620
0.131421 0.157644 0.262996
0.071257 0.158400 0.284877
0.116456 0.158294 0.301301
0.114973 0.158184 0.260353
0.129940 0.158303 0.306401
0.103050 0.158718 0.306491
0.127888 0.158128 0.280700
0.110618 0.158621 0.324477
0.096566 0.158945 0.281377
0.106291 0.158517 0.292039
0.141064 0.158444 0.282379
0.089590 0.157957 0.318517
0.087035 0.159275 0.298649
0.120693 0.158367 0.335629
0.102285 0.158836 0.250154
0.136604 0.158530 0.250041
0.095395 0.169434 0.246636
0.147209 0.169059 0.279893
0.147827 0.169481 0.246569
0.131486 0.169552 0.221852
0.122069 0.169242 0.267436
0.143435 0.169520 0.294203
0.141486 0.168956 0.257074
0.133296 0.169294 0.301715
0.118368 0.169476 0.226428
0.140760 0.169654 0.270949
0.115153 0.169624 0.258396
0.124120 0.169508 0.291923
0.108193 0.169568 0.249041
0.125805 0.169574 0.251417
0.130061 0.169256 0.275850
0.127840 0.169522 0.236028
0.136125 0.169456 0.246828
0.088530 0.169213 0.263681
0.119796 0.169408 0.280255
0.117831 0.169551 0.242251
0.135732 0.169408 0.285677
0.109273 0.169588 0.285454
0.131830 0.169361 0.261762
0.114150 0.169588 0.299072
0.103434 0.169669 0.261155
0.110724 0.169787 0.271737
0.150778 0.169222 0.264075
0.098350 0.169200 0.293781
0.097880 0.169597 0.276676
0.122833 0.169232 0.309449
0.106518 0.169663 0.233602
0.140672 0.169725 0.233573
-0.124567 0.110823 0.067265
-0.086482 0.109903 0.123453
-0.084348 0.110246 0.071522
-0.101531 0.110316 0.019640
-0.108683 0.109426 0.104416
-0.089734 0.109843 0.148595
-0.093256 0.109078 0.084261
-0.100399 0.110265 0.168507
-0.110943 0.110412 0.033722
-0.092359 0.110354 0.109332
-0.109529 0.110240 0.088166
-0.106545 0.110374 0.151169
-0.116363 0.110297 0.076537
-0.104893 0.110117 0.073851
-0.101444 0.110492 0.117573
-0.102780 0.110344 0.049965
-0.094365 0.109702 0.064854
-0.125129 0.110213 0.105028
-0.108446 0.109943 0.128014
-0.112652 0.109785 0.057583
-0.097133 0.110173 0.134509
-0.114481 0.110376 0.140421
-0.100655 0.110080 0.095176
-0.113831 0.110429 0.165493
-0.118464 0.110776 0.092648
-0.115504 0.110278 0.113000
-0.083057 0.110143 0.097053
-0.122357 0.109730 0.154252
-0.121797 0.110674 0.125446
-0.108909 0.110402 0.187709
-0.121830 0.110475 0.041558
-0.090684 0.109950 0.043361
-0.025285 0.113589 0.155399
0.022596 0.113496 0.185315
0.022568 0.113654 0.154702
0.005476 0.113728 0.135432
-0.001571 0.113639 0.173259
0.019064 0.113846 0.199331
0.016662 0.113244 0.164575
0.008766 0.113819 0.206597
-0.006232 0.113724 0.138547
0.015637 0.113861 0.176887
-0.008041 0.113802 0.165308
0.000834 0.113791 0.196125
-0.014113 0.113668 0.157352
0.001498 0.113675 0.159715
0.005796 0.113467 0.181385
0.003324 0.113588 0.147019
0.010870 0.113658 0.155851
-0.029954 0.113453 0.170454
-0.003251 0.113672 0.185342
-0.005933 0.113722 0.151856
0.011440 0.113669 0.190449
-0.012421 0.113848 0.190179
0.007165 0.113600 0.168937
-0.008563 0.113865 0.202523
-0.017734 0.113866 0.168361
-0.011117 0.113806 0.177100
0.025737 0.113510 0.170999
-0.022014 0.113506 0.198728
-0.022137 0.113792 0.182260
-0.001429 0.113718 0.214636
-0.016378 0.113655 0.144718
0.015014 0.113595 0.144721
-0.052385 0.113568 0.124667
-0.005589 0.113401 0.153038
-0.005521 0.113570 0.124566
-0.021936 0.113616 0.106231
-0.029307 0.113547 0.141673
-0.009274 0.113703 0.166030
-0.011579 0.113191 0.133625
-0.019052 0.113697 0.173126
-0.033320 0.113626 0.109128
-0.012457 0.113727 0.145455
-0.035703 0.113719 0.134243
-0.026762 0.113714 0.163240
-0.041579 0.113613 0.126669
-0.026193 0.113536 0.129188
-0.022323 0.113319 0.149322
-0.024260 0.113498 0.117296
-0.017120 0.113548 0.125539
-0.057239 0.113432 0.138894
-0.031035 0.113608 0.153097
-0.033360 0.113653 0.121612
-0.016681 0.113592 0.157925
-0.040156 0.113752 0.157564
-0.020609 0.113507 0.137738
-0.036111 0.113745 0.169246
-0.045250 0.113762 0.137113
-0.038680 0.113722 0.145301
-0.002810 0.113439 0.139713
-0.049294 0.113451 0.165767
-0.049692 0.113721 0.150068
-0.028935 0.113647 0.180360
-0.043420 0.113643 0.114507
-0.012907 0.113518 0.115173
0.133858 0.123912 0.215941
0.132739 0.132953 0.243477
0.132565 0.133170 0.226479
0.132909 0.129965 0.203624
0.132995 0.121957 0.231095
0.132655 0.123296 0.256372
0.133173 0.148708 0.223244
0.132633 0.138563 0.269004
0.133053 0.132753 0.213164
0.132755 0.113682 0.243997
0.132815 0.118389 0.223052
0.132587 0.115442 0.257750
0.133151 0.137945 0.233483
0.133219 0.139707 0.221091
0.132743 0.150112 0.245557
0.133062 0.126613 0.222818
0.133006 0.113912 0.229873
0.132997 0.147201 0.233634
0.133116 0.136965 0.252797
0.132885 0.143297 0.211201
0.132700 0.118802 0.249058
0.132795 0.119514 0.267255
0.132957 0.141699 0.242154
0.132795 0.130881 0.261308
0.133063 0.117053 0.236392
0.133232 0.128928 0.235992
0.132713 0.122930 0.241423
0.132925 0.145847 0.258250
0.133013 0.127249 0.248906
0.132791 0.126402 0.273884
0.133467 0.119602 0.206656
0.132737 0.115115 0.215401
0.060908 0.168717 0.217307
0.110829 0.168546 0.247617
0.113443 0.168829 0.228081
0.095833 0.168871 0.202575
0.080002 0.157977 0.239790
0.106273 0.158528 0.254381
0.103575 0.168784 0.220973
0.101487 0.168679 0.261998
0.080193 0.168700 0.205977
0.095828 0.158412 0.241350
0.084459 0.158494 0.225635
0.086803 0.158442 0.259332
0.069732 0.168638 0.229607
0.083925 0.169043 0.229642
0.088591 0.169264 0.241451
0.090094 0.168810 0.216354
0.104515 0.157948 0.227623
0.050651 0.168576 0.230035
0.082622 0.168834 0.252023
0.077532 0.168866 0.219662
0.094688 0.168807 0.251236
0.067978 0.158530 0.252233
0.094956 0.168625 0.230314
0.075239 0.169068 0.263604
0.063815 0.158524 0.231544
0.074805 0.169440 0.242176
0.103003 0.168630 0.238376
0.064282 0.168418 0.255076
0.058446 0.168899 0.242803
0.086955 0.168653 0.269667
0.071995 0.158488 0.211858
0.098781 0.158660 0.210085
0.029429 0.159232 0.187623
0.089067 0.159362 0.222277
0.090327 0.159367 0.186554
0.068877 0.158977 0.158390
0.058303 0.158859 0.210534
0.083306 0.159182 0.237237
0.079284 0.162712 0.197875
0.071132 0.159236 0.245644
0.053013 0.159368 0.164359
0.077957 0.159412 0.212747
0.050984 0.159135 0.199412
0.060347 0.159435 0.236616
0.042941 0.160055 0.190755
0.060388 0.159489 0.191567
0.066318 0.162846 0.218931
0.064340 0.159143 0.175193
0.073490 0.159260 0.187994
0.022181 0.159942 0.206562
0.056070 0.159763 0.224490
0.051938 0.162910 0.183063
0.072250 0.159301 0.228506
0.044438 0.159154 0.228343
0.067932 0.159427 0.202959
0.047180 0.159441 0.242953
0.038141 0.159050 0.203061
0.046308 0.159919 0.213880
0.090220 0.159099 0.205567
0.034197 0.162723 0.234219
0.032509 0.159326 0.219947
0.057257 0.159199 0.255063
0.040321 0.158996 0.172880
0.080006 0.159326 0.172020
-0.166647 0.169053 0.040973
-0.114140 0.168208 0.072654
-0.113790 0.168755 0.048669
-0.133243 0.168740 0.022094
-0.146142 0.157879 0.065798
-0.118931 0.167020 0.084717
-0.123379 0.168310 0.048150
-0.128110 0.168743 0.092075
-0.146287 0.168763 0.025397
-0.127260 0.164036 0.067696
-0.145792 0.162071 0.050084
-0.139809 0.161479 0.085876
-0.156302 0.168761 0.050682
-0.140975 0.168807 0.051241
-0.137916 0.168427 0.068063
-0.136920 0.168710 0.037167
-0.127523 0.157727 0.047741
-0.172282 0.168342 0.057696
-0.144581 0.168720 0.077242
-0.148365 0.168447 0.040903
-0.131173 0.168556 0.078975
-0.155908 0.166074 0.079291
-0.132188 0.168608 0.056719
-0.150616 0.168894 0.092377
-0.161893 0.162431 0.056157
-0.152360 0.168973 0.066473
-0.119729 0.168583 0.062550
-0.163490 0.168307 0.085214
-0.166237 0.168827 0.070790
-0.139600 0.168878 0.099483
-0.157793 0.166163 0.030143
-0.123987 0.167348 0.031688
0.127148 0.170054 0.254069
0.166587 0.167742 0.280721
0.166678 0.164828 0.257585
0.163335 0.169619 0.231598
0.152757 0.164348 0.271692
0.166995 0.166526 0.293371
0.164689 0.168717 0.260060
0.162836 0.169428 0.301010
0.150487 0.169951 0.236289
0.166538 0.166405 0.276591
0.143603 0.170549 0.265651
0.153133 0.170953 0.292153
0.137538 0.169936 0.256793
0.155019 0.169958 0.257977
0.156970 0.169518 0.276037
0.158459 0.170001 0.244866
0.164196 0.166054 0.250996
0.120943 0.169850 0.268462
0.147808 0.170084 0.281715
0.147481 0.170066 0.250282
0.162735 0.169412 0.286922
0.136357 0.170481 0.285033
0.160347 0.169643 0.265966
0.143243 0.170301 0.299802
0.131724 0.170429 0.266523
0.138740 0.169956 0.274748
0.167122 0.167244 0.268662
0.126860 0.169903 0.293166
0.128126 0.170407 0.278300
0.155212 0.170027 0.308343
0.135909 0.170594 0.242473
0.167069 0.167447 0.242153
-0.082884 0.113691 0.086861
-0.035298 0.113417 0.114976
-0.035001 0.113648 0.087199
-0.051286 0.113693 0.068593
-0.059461 0.113559 0.103878
-0.039464 0.113722 0.127381
-0.041490 0.113230 0.096073
-0.049221 0.113682 0.134441
-0.062978 0.113683 0.071599
-0.042355 0.113780 0.107813
-0.065991 0.113780 0.096558
-0.057019 0.113776 0.124963
-0.072048 0.113683 0.088961
-0.056155 0.113582 0.091701
-0.052611 0.113309 0.111290
-0.054109 0.113563 0.079831
-0.046983 0.113583 0.088031
-0.088091 0.113514 0.100974
-0.061455 0.113622 0.115100
-0.063400 0.113689 0.084086
-0.046855 0.113632 0.119753
-0.070802 0.113812 0.119323
-0.050528 0.113537 0.100043
-0.066583 0.113770 0.131013
-0.075864 0.113827 0.099466
-0.069199 0.113758 0.107458
-0.032689 0.113539 0.101918
-0.080062 0.113475 0.127453
-0.080563 0.113794 0.112035
-0.058960 0.113690 0.141371
-0.073541 0.113796 0.076534
-0.042439 0.113613 0.077777
-0.144562 0.169079 0.047799
-0.094541 0.168104 0.078430
-0.094343 0.168615 0.055569
-0.112723 0.168595 0.030490
-0.125158 0.158198 0.071122
-0.098806 0.166203 0.089232
-0.102649 0.168204 0.053858
-0.106799 0.168507 0.096497
-0.125729 0.168600 0.033347
-0.107019 0.163037 0.072811
-0.124107 0.161251 0.055798
-0.118778 0.160788 0.090990
-0.135141 0.168688 0.057843
-0.120622 0.168686 0.058154
-0.116890 0.168359 0.073571
-0.116507 0.168584 0.044683
-0.105525 0.157573 0.054555
-0.150357 0.168517 0.063007
-0.123408 0.168586 0.083119
-0.127616 0.168533 0.048220
-0.110226 0.168502 0.083982
-0.134769 0.165219 0.084431
-0.111155 0.168441 0.062271
-0.129145 0.168730 0.096997
-0.140589 0.161752 0.061964
-0.131020 0.168859 0.072464
-0.099963 0.168445 0.068796
-0.141783 0.168289 0.089516
-0.144678 0.168826 0.075634
-0.118059 0.168694 0.103587
-0.135821 0.165564 0.038379
-0.104625 0.166573 0.038914
-0.147105 0.156856 0.047010
-0.081853 0.156740 0.083513
-0.081864 0.156919 0.045150
-0.105867 0.156580 0.018723
-0.115772 0.156597 0.070148
-0.088523 0.157051 0.099329
-0.091024 0.156563 0.058794
-0.102547 0.156983 0.106604
-0.121902 0.156766 0.023578
-0.092857 0.156946 0.073569
-0.124002 0.156978 0.059373
-0.112794 0.157093 0.096782
-0.132247 0.156847 0.049711
-0.111722 0.156909 0.052593
-0.105947 0.156937 0.079308
-0.109366 0.156746 0.034833
-0.099319 0.156876 0.047272
-0.152888 0.156543 0.066593
-0.117854 0.156990 0.084833
-0.121465 0.156730 0.042070
-0.098675 0.156924 0.089928
-0.130291 0.156999 0.089296
-0.104192 0.156908 0.063916
-0.125509 0.157036 0.103727
-0.137007 0.157095 0.063538
-0.128010 0.157165 0.074804
-0.078511 0.156765 0.066131
-0.141770 0.156602 0.098503
-0.142641 0.157004 0.080474
-0.115872 0.156961 0.115531
-0.135384 0.156847 0.031914
-0.092952 0.156883 0.031655
-0.135810 0.130606 -0.002835
-0.136124 0.139925 0.057760
-0.136053 0.140086 0.021452
-0.137144 0.139082 -0.031652
-0.135834 0.129247 0.029919
-0.136161 0.130836 0.085560
-0.135341 0.150131 0.018000
-0.136572 0.145618 0.114664
-0.135995 0.137049 -0.011595
-0.135461 0.117278 0.058025
-0.135518 0.123010 0.012750
-0.135959 0.118691 0.092106
-0.136116 0.144146 0.031558
-0.135959 0.145522 0.004553
-0.135170 0.150641 0.066173
-0.136059 0.133898 0.008975
-0.135083 0.117169 0.025717
-0.136367 0.150689 0.038426
-0.135760 0.143366 0.077582
-0.136547 0.148240 -0.010857
-0.135675 0.123797 0.072143
-0.136247 0.125283 0.107848
-0.135868 0.147284 0.049768
-0.136503 0.138989 0.100065
-0.135915 0.121325 0.040868
-0.135848 0.136679 0.041903
-0.136254 0.128142 0.052061
-0.135485 0.148752 0.092492
-0.136469 0.134913 0.069373
-0.136688 0.134900 0.127598
-0.135534 0.125215 -0.023774
-0.136015 0.118741 -0.006451
-0.110064 0.113669 0.043721
-0.068734 0.113429 0.076602
-0.068186 0.113701 0.043921
-0.083050 0.113656 0.020064
-0.090082 0.113531 0.064082
-0.072238 0.113689 0.091419
-0.074027 0.113197 0.053809
-0.081449 0.113664 0.100724
-0.093685 0.113554 0.025003
-0.074542 0.113721 0.067741
-0.094955 0.113786 0.055222
-0.088373 0.113761 0.090035
-0.100555 0.113651 0.046614
-0.086969 0.113621 0.048202
-0.083408 0.113319 0.072564
-0.085331 0.113596 0.034140
-0.078326 0.113504 0.043621
-0.112979 0.113481 0.061708
-0.091285 0.113569 0.077434
-0.093960 0.113651 0.039453
-0.078742 0.113629 0.082698
-0.098913 0.113774 0.083547
-0.082279 0.113556 0.058901
-0.096319 0.113761 0.097739
-0.103556 0.113850 0.058138
-0.098704 0.113849 0.068757
-0.065496 0.113548 0.060867
-0.107555 0.113411 0.091874
-0.107525 0.113824 0.074591
-0.089784 0.113631 0.110298
-0.103264 0.113703 0.030997
-0.074494 0.113582 0.031291
-0.177910 0.166864 0.011742
-0.139806 0.168042 0.043849
-0.137561 0.168444 0.024505
-0.153735 0.168489 -0.003292
-0.166738 0.156442 0.035480
-0.145022 0.157429 0.050987
-0.145706 0.168590 0.016280
-0.148889 0.168524 0.058981
-0.166002 0.168301 0.000093
-0.154383 0.157326 0.037838
-0.162179 0.157344 0.021252
-0.161871 0.157457 0.056012
-0.172812 0.167963 0.024930
-0.162670 0.168476 0.023252
-0.159226 0.168850 0.037243
-0.157598 0.168242 0.010882
-0.145952 0.156900 0.022800
-0.182644 0.166661 0.026876
-0.164223 0.168353 0.048019
-0.168077 0.168193 0.013310
-0.154509 0.168411 0.048293
-0.174432 0.157698 0.048898
-0.153488 0.168539 0.026103
-0.170163 0.167701 0.061658
-0.176649 0.157517 0.026737
-0.169853 0.168219 0.038352
-0.147321 0.168064 0.034928
-0.175878 0.167683 0.052160
-0.180180 0.166860 0.040627
-0.160023 0.168114 0.067044
-0.171744 0.157539 0.004980
-0.151054 0.157454 0.005903
-0.080058 0.169246 0.082309
-0.033857 0.168544 0.114996
-0.031870 0.169437 0.092523
-0.049578 0.169099 0.064379
-0.063170 0.157656 0.106216
-0.039151 0.158423 0.122814
-0.040893 0.169116 0.086719
-0.043720 0.168904 0.131411
-0.063755 0.168685 0.069357
-0.048119 0.158171 0.107797
-0.058885 0.158111 0.091488
-0.057702 0.158178 0.128396
-0.072430 0.168716 0.095250
-0.059767 0.169329 0.093494
-0.054748 0.169568 0.109007
-0.054122 0.169228 0.080105
-0.040267 0.157723 0.092148
-0.087372 0.168945 0.096727
-0.060840 0.168800 0.120065
-0.066741 0.169112 0.083359
-0.049283 0.169038 0.118948
-0.073134 0.158087 0.120134
-0.049780 0.168810 0.096259
-0.067912 0.169681 0.132289
-0.077908 0.158282 0.097953
-0.067688 0.170296 0.108712
-0.041283 0.169295 0.104290
-0.077733 0.168635 0.122524
-0.082754 0.168902 0.110042
-0.056442 0.168671 0.140272
-0.070567 0.158112 0.075928
-0.045757 0.158446 0.074297
-0.067199 0.158350 0.100237
-0.006802 0.158149 0.141494
-0.006285 0.158226 0.096589
-0.027914 0.157915 0.061739
-0.036629 0.157947 0.127025
-0.010350 0.158570 0.161484
-0.014790 0.158431 0.111743
-0.023797 0.158498 0.170615
-0.043183 0.158041 0.070202
-0.016041 0.158519 0.128938
-0.043419 0.158404 0.114050
-0.033924 0.158656 0.159483
-0.051869 0.158335 0.103047
-0.033157 0.158325 0.104164
-0.026601 0.158855 0.137200
-0.030956 0.158125 0.082922
-0.021380 0.158365 0.097437
-0.072017 0.158245 0.124337
-0.037188 0.158447 0.144278
-0.042758 0.158411 0.092383
-0.020911 0.158445 0.149674
-0.049192 0.158371 0.150214
-0.026387 0.158367 0.118371
-0.045080 0.158560 0.167845
-0.056450 0.158462 0.118429
-0.048055 0.158726 0.132114
-0.003274 0.158222 0.120707
-0.061475 0.158434 0.160066
-0.061510 0.158421 0.140004
-0.036008 0.158374 0.183710
-0.056703 0.158359 0.081682
-0.015850 0.158462 0.078353
0.133171 0.129082 0.188643
0.131962 0.137686 0.219135
0.131997 0.137637 0.200505
0.132094 0.135208 0.174595
0.132494 0.126539 0.205592
0.132012 0.127934 0.232665
0.132392 0.150412 0.196931
0.132037 0.142950 0.245930
0.132458 0.136781 0.185526
0.132410 0.115469 0.219386
0.132552 0.122145 0.196513
0.132232 0.117859 0.234183
0.132493 0.141959 0.207688
0.132585 0.143711 0.193912
0.132102 0.151684 0.221425
0.132445 0.131460 0.196034
0.132623 0.115500 0.203575
0.132123 0.149431 0.208362
0.132547 0.141199 0.229071
0.132094 0.146412 0.183094
0.132234 0.122472 0.224677
0.132240 0.123881 0.243599
0.132402 0.145363 0.217002
0.132139 0.135900 0.238013
0.132701 0.120280 0.211021
0.132689 0.133883 0.211118
0.132095 0.127337 0.216628
0.132326 0.148494 0.234870
0.132446 0.132493 0.224837
0.132073 0.132066 0.251355
0.132954 0.124103 0.178407
0.132233 0.117834 0.187826
0.093632 0.114112 0.195298
0.130174 0.113781 0.230258
0.130779 0.114137 0.195263
0.122300 0.113579 0.166761
0.114797 0.113177 0.216870
0.129389 0.113758 0.246173
0.127302 0.113193 0.204663
0.123370 0.113457 0.256609
0.112310 0.113350 0.173406
0.127991 0.113906 0.220063
0.111062 0.113747 0.207381
0.116489 0.113684 0.245557
0.104481 0.113584 0.198375
0.118067 0.113430 0.199012
0.121005 0.113089 0.225356
0.119374 0.113414 0.182770
0.125274 0.113644 0.191959
0.089136 0.113918 0.216246
0.114116 0.113422 0.231285
0.111309 0.113530 0.189938
0.124483 0.113490 0.237007
0.105892 0.113768 0.238264
0.121737 0.113480 0.210590
0.109719 0.113890 0.254497
0.101042 0.113810 0.210609
0.106232 0.113700 0.222238
0.132592 0.113948 0.212955
0.096424 0.113591 0.248111
0.096159 0.114110 0.229792
0.116705 0.113495 0.267237
0.101899 0.113663 0.181254
0.127872 0.113687 0.179367
0.037451 0.169337 0.195502
0.113390 0.169302 0.233244
0.114595 0.169426 0.194265
0.090009 0.169408 0.165997
0.076777 0.169266 0.218773
0.108479 0.169459 0.249781
0.104278 0.169049 0.208174
0.092929 0.169425 0.257191
0.071126 0.169451 0.171465
0.102473 0.169754 0.223193
0.066185 0.169827 0.208286
0.080407 0.169685 0.245594
0.055769 0.169511 0.197692
0.081342 0.169504 0.201516
0.087351 0.169066 0.228597
0.084672 0.169366 0.183104
0.095934 0.169228 0.196242
0.026332 0.168892 0.214847
0.072852 0.169477 0.233220
0.070655 0.169366 0.190589
0.096065 0.169461 0.239672
0.056781 0.169562 0.237699
0.090228 0.169358 0.212853
0.065181 0.169726 0.252637
0.049391 0.169469 0.212263
0.061166 0.169636 0.223038
0.117312 0.169417 0.215416
0.041936 0.169180 0.248991
0.041610 0.169489 0.228303
0.076726 0.169390 0.265416
0.054697 0.169471 0.179335
0.102981 0.169544 0.180251
-0.129237 0.113482 0.027410
-0.104123 0.113198 0.072942
-0.102058 0.113236 0.031879
-0.114577 0.113209 -0.006553
-0.120333 0.112799 0.056517
-0.107703 0.112934 0.093131
-0.107692 0.112701 0.040771
-0.114854 0.113070 0.112908
-0.120782 0.113142 0.004064
-0.107774 0.113142 0.060790
-0.120316 0.112985 0.043601
-0.118960 0.113054 0.097159
-0.125365 0.113214 0.035085
-0.117093 0.113053 0.032281
-0.114599 0.112542 0.067846
-0.115011 0.112946 0.015739
-0.108059 0.112783 0.026174
-0.129712 0.113600 0.056075
-0.120279 0.112857 0.076340
-0.122630 0.113247 0.020788
-0.111800 0.112941 0.082031
-0.123691 0.113158 0.087689
-0.114128 0.112944 0.049110
-0.124551 0.113341 0.109211
-0.126186 0.113588 0.046669
-0.125121 0.113244 0.063858
-0.100549 0.112953 0.051651
-0.128963 0.113157 0.097394
-0.128571 0.113707 0.073252
-0.121704 0.113034 0.129425
-0.127501 0.113210 0.009612
-0.106393 0.112782 0.011290
0.009589 0.168486 0.140450
0.059251 0.168323 0.171796
0.060533 0.168524 0.152633
0.041984 0.168449 0.127634
0.026827 0.157777 0.163565
0.054773 0.158128 0.178170
0.051845 0.168556 0.143846
0.050387 0.168427 0.185927
0.025870 0.168461 0.129613
0.042968 0.158331 0.165009
0.032045 0.158231 0.149750
0.034053 0.158438 0.183115
0.017167 0.168477 0.153924
0.030491 0.168658 0.154046
0.035871 0.169018 0.165387
0.036319 0.168376 0.140630
0.052677 0.158009 0.152222
0.001738 0.168762 0.152951
0.030035 0.168524 0.176669
0.024017 0.168880 0.143764
0.042836 0.168378 0.175518
0.015796 0.158297 0.175894
0.042852 0.168486 0.153689
0.023427 0.168624 0.187606
0.011012 0.158300 0.155081
0.022277 0.168760 0.166528
0.050679 0.168237 0.163185
0.012951 0.168374 0.178533
0.007527 0.168517 0.165859
0.036065 0.168341 0.193026
0.019183 0.158180 0.136770
0.045178 0.158288 0.134817
0.085779 0.113954 0.172181
0.125912 0.113865 0.201180
0.126131 0.114040 0.171238
0.112772 0.113707 0.150359
0.105827 0.113481 0.189781
0.123123 0.113976 0.215069
0.120664 0.113449 0.180124
0.114736 0.113849 0.222821
0.102420 0.113572 0.154321
0.120470 0.113960 0.192651
0.101217 0.113914 0.181806
0.107627 0.113918 0.213115
0.095528 0.113768 0.173921
0.108685 0.113703 0.175439
0.112295 0.113503 0.197194
0.110246 0.113659 0.162233
0.116718 0.113762 0.170629
0.082267 0.113763 0.187925
0.104714 0.113687 0.201562
0.101993 0.113825 0.167738
0.116475 0.113782 0.206643
0.097139 0.113918 0.206994
0.113222 0.113746 0.184775
0.099943 0.113995 0.219989
0.092479 0.113829 0.184406
0.097490 0.113892 0.193926
0.127977 0.113918 0.186665
0.088282 0.113703 0.214454
0.088197 0.113937 0.199151
0.106619 0.113907 0.231265
0.093095 0.113735 0.160961
0.120645 0.113735 0.159741
-0.013297 0.111573 0.136171
0.038268 0.111434 0.178017
0.039434 0.111539 0.131979
0.019538 0.111972 0.097039
0.013021 0.111254 0.162074
0.036063 0.111821 0.200346
0.031469 0.110944 0.146014
0.023775 0.111972 0.212264
0.006497 0.111956 0.106060
0.031348 0.111557 0.165068
0.007757 0.111762 0.149808
0.015274 0.111619 0.197313
0.001077 0.111688 0.139174
0.016201 0.111676 0.139019
0.022160 0.111335 0.172696
0.018098 0.111625 0.118894
0.026527 0.111276 0.131804
-0.016603 0.111201 0.160880
0.012263 0.111596 0.179912
0.007727 0.111727 0.127178
0.026670 0.111652 0.187333
0.003362 0.111540 0.189947
0.021608 0.111486 0.153783
0.005168 0.111978 0.208120
-0.003371 0.111595 0.154778
0.002887 0.111752 0.169039
0.042621 0.111227 0.156526
-0.008937 0.111335 0.200927
-0.008811 0.111451 0.178421
0.011829 0.111724 0.227139
-0.005375 0.111409 0.117174
0.031353 0.111310 0.113716
0.049904 0.112145 0.159994
0.105514 0.112107 0.199975
0.105654 0.112249 0.156700
0.085872 0.112056 0.122257
0.078278 0.111621 0.185019
0.102816 0.112291 0.220096
0.097681 0.111376 0.170791
0.089987 0.112395 0.229874
0.072092 0.112097 0.130858
0.097783 0.112274 0.188296
0.072023 0.112409 0.173404
0.081133 0.112199 0.217033
0.064680 0.111983 0.162715
0.081893 0.112066 0.163915
0.087586 0.111512 0.195240
0.083689 0.112101 0.143441
0.092203 0.111895 0.156427
0.045413 0.111358 0.183326
0.077073 0.111971 0.201641
0.072757 0.111875 0.152099
0.092965 0.112112 0.208252
0.066570 0.112151 0.209356
0.087772 0.112025 0.177658
0.070072 0.112432 0.226203
0.060126 0.112162 0.177994
0.067423 0.112043 0.191133
0.108972 0.112028 0.179876
0.054356 0.111689 0.219765
0.054322 0.112018 0.199163
0.078207 0.112265 0.242647
0.059212 0.111939 0.140939
0.097550 0.111887 0.138718
-0.131691 0.120961 -0.038784
-0.133296 0.131082 0.016160
-0.133796 0.132208 -0.016762
-0.133453 0.129129 -0.068865
-0.132308 0.120692 -0.008465
-0.133840 0.121409 0.043927
-0.132008 0.146750 -0.021929
-0.133243 0.136519 0.070827
-0.132646 0.129638 -0.048191
-0.131354 0.113071 0.018013
-0.132178 0.115227 -0.024458
-0.131688 0.113373 0.048433
-0.132776 0.136891 -0.006316
-0.132650 0.138650 -0.031311
-0.132036 0.147001 0.024883
-0.132573 0.125317 -0.027993
-0.130704 0.113405 -0.011898
-0.132474 0.147402 -0.000575
-0.132492 0.135186 0.035524
-0.133216 0.142751 -0.045874
-0.132138 0.116532 0.032084
-0.132407 0.116366 0.065952
-0.132485 0.140037 0.011449
-0.133034 0.129760 0.056566
-0.131743 0.114599 0.002447
-0.132331 0.127589 0.001394
-0.132909 0.119466 0.011802
-0.132313 0.142902 0.047961
-0.132672 0.125388 0.027403
-0.133253 0.123735 0.084310
-0.131930 0.116560 -0.061123
-0.131993 0.112981 -0.043352
0.099491 0.158446 0.211565
0.153592 0.158334 0.244609
0.155238 0.158769 0.210710
0.137895 0.158307 0.185752
0.126120 0.157910 0.232482
0.149292 0.158572 0.259530
0.147199 0.158019 0.221010
0.138938 0.158289 0.267679
0.123686 0.158278 0.190483
0.145964 0.158697 0.235438
0.119837 0.158297 0.222636
0.128938 0.158477 0.257527
0.112644 0.158480 0.214270
0.130588 0.158497 0.216057
0.134832 0.158343 0.240247
0.133517 0.158350 0.200499
0.141568 0.158481 0.210879
0.092642 0.158253 0.229263
0.124398 0.158424 0.245523
0.122583 0.158311 0.206798
0.140503 0.158394 0.250809
0.113767 0.158472 0.250781
0.136660 0.158262 0.226325
0.118225 0.158485 0.264960
0.107939 0.158420 0.226389
0.114921 0.158650 0.236768
0.156442 0.158466 0.228602
0.102695 0.158108 0.259279
0.101525 0.158613 0.242404
0.127265 0.158339 0.276308
0.111205 0.158406 0.198294
0.147336 0.158611 0.197306
0.055033 0.113730 0.135408
0.104130 0.113511 0.163533
0.103919 0.113774 0.135731
0.086756 0.113504 0.116912
0.078421 0.113439 0.152548
0.099218 0.113802 0.175245
0.097336 0.113228 0.144814
0.088917 0.113687 0.181190
0.074729 0.113408 0.120019
0.096149 0.113838 0.156438
0.071974 0.113887 0.144979
0.080869 0.113869 0.172768
0.065693 0.113656 0.137479
0.081591 0.113670 0.140350
0.085588 0.113385 0.159717
0.083751 0.113632 0.128070
0.091212 0.113620 0.136899
0.049833 0.113408 0.148928
0.076175 0.113587 0.163290
0.074174 0.113731 0.132649
0.091468 0.113658 0.167874
0.067102 0.113868 0.166877
0.087584 0.113626 0.148602
0.070748 0.113854 0.177929
0.061989 0.113785 0.147663
0.068357 0.113842 0.155894
0.106245 0.113618 0.150647
0.057966 0.113589 0.173531
0.056817 0.113814 0.159672
0.078746 0.113711 0.187230
0.064382 0.113676 0.125088
0.096132 0.113573 0.126020
0.106099 0.170058 0.206083
0.163751 0.168651 0.239322
0.163849 0.169273 0.207419
0.153390 0.169943 0.180044
0.135119 0.170261 0.228481
0.162018 0.169380 0.252915
0.158146 0.169524 0.216343
0.153434 0.169950 0.260847
0.134796 0.169843 0.185034
0.159334 0.170668 0.231442
0.127299 0.170358 0.219500
0.139581 0.170701 0.251172
0.119134 0.170048 0.209558
0.141337 0.170206 0.211839
0.144791 0.169674 0.235393
0.145301 0.170229 0.194820
0.155105 0.169904 0.203962
0.098265 0.169840 0.224526
0.131332 0.170251 0.240535
0.131475 0.170267 0.202195
0.152833 0.170042 0.245133
0.117760 0.170520 0.243881
0.148552 0.170035 0.221956
0.127202 0.170495 0.258285
0.112701 0.170134 0.221511
0.121373 0.170206 0.231025
0.164387 0.169055 0.223870
0.106457 0.170226 0.254224
0.107565 0.170334 0.236563
0.139270 0.170225 0.267750
0.118574 0.170382 0.192906
0.160575 0.169671 0.192063
0.066993 0.159288 0.186886
0.136978 0.158779 0.217609
0.138357 0.159230 0.186376
0.117005 0.159022 0.163596
0.102799 0.158852 0.206324
0.130723 0.159253 0.230692
0.128239 0.159046 0.196104
0.118638 0.159060 0.238154
0.100433 0.159190 0.167188
0.126563 0.159664 0.209914
0.093439 0.159458 0.196748
0.106390 0.159610 0.228964
0.083894 0.159422 0.188783
0.107547 0.159336 0.191866
0.112584 0.159642 0.213322
0.111542 0.159165 0.176806
0.121392 0.159347 0.187222
0.054584 0.159102 0.202684
0.099514 0.159390 0.218613
0.098408 0.159493 0.183412
0.119917 0.159194 0.222776
0.083839 0.159493 0.221421
0.116190 0.159002 0.200796
0.091877 0.159266 0.235088
0.077345 0.159444 0.200536
0.088451 0.159583 0.209344
0.138730 0.158980 0.202945
0.071929 0.159304 0.230541
