-0.106674 0.142980 0.443558
-0.106758 0.163971 0.443879
-0.061718 0.144540 0.447009
-0.119494 0.163970 0.413091
-0.052710 0.149002 0.447786
-0.117104 0.145423 0.397413
-0.068103 0.149053 0.434020
-0.130139 0.163972 0.387456
-0.094692 0.147134 0.403896
-0.051223 0.163968 0.442644
-0.102712 -0.171778 0.251135
-0.092124 0.147514 0.387426
-0.063543 0.163967 0.412866
-0.011537 0.140733 0.440261
-0.088273 0.143968 0.384512
-0.120952 0.151936 0.363426
-0.051549 -0.116095 0.294853
-0.061562 0.152250 0.401131
-0.000888 -0.158457 0.307677
-0.032167 -0.125432 0.298407
-0.070844 -0.127528 0.268539
-0.071770 -0.158138 0.251167
-0.008285 -0.133907 0.306664
0.018055 -0.171378 0.306730
-0.013658 -0.091131 0.318501
-0.075862 0.163966 0.383089
-0.032167 -0.094714 0.298407
-0.042004 -0.170450 0.251209
0.010096 0.148341 0.428427
-0.032167 -0.074235 0.298407
-0.084074 0.163965 0.363238
-0.007750 -0.143043 0.282692
-0.051791 -0.140797 0.251189
0.058019 0.145359 0.452617
-0.052884 0.152902 0.375342
0.007247 -0.166330 0.278843
-0.032167 -0.053756 0.298407
-0.022391 -0.123859 0.274386
0.037440 0.145737 0.433619
-0.014034 0.143124 0.394107
-0.033037 0.143161 0.378104
-0.042823 -0.114735 0.257579
-0.092278 0.163962 0.343381
-0.070171 0.149637 0.352598
-0.022391 -0.103638 0.274386
-0.086159 0.152940 0.339211
0.004656 -0.118380 0.284983
-0.009613 0.067296 0.356706
-0.047911 -0.123050 0.244241
-0.013297 -0.162328 0.251231
-0.032167 -0.023038 0.298407
-0.042823 -0.094337 0.257579
0.031800 0.142712 0.409805
0.062535 0.152410 0.436060
-0.022756 -0.128150 0.251229
-0.022391 -0.073305 0.274386
-0.032167 -0.002560 0.298407
-0.030115 0.129689 0.356484
-0.042823 -0.073940 0.257579
0.012765 -0.169440 0.252264
-0.123858 0.158807 0.292260
-0.119787 0.160352 0.295923
0.017138 0.132996 0.383038
-0.042823 -0.053543 0.257579
-0.032167 0.023038 0.298407
-0.059893 0.152340 0.333332
-0.022391 -0.042972 0.274386
0.083676 0.160844 0.437308
-0.032777 0.105951 0.329382
-0.041512 0.013286 0.281677
-0.112869 0.163968 0.293791
-0.042823 -0.022947 0.257579
-0.032167 0.053756 0.298407
-0.022391 -0.012639 0.274386
0.063721 0.153243 0.408128
0.045339 0.152410 0.394556
-0.083059 0.152482 0.297231
-0.121105 0.163970 0.273954
0.015027 0.123962 0.354201
-0.032167 0.074235 0.298407
-0.027147 0.122910 0.321284
-0.048917 0.163960 0.321357
-0.022391 0.012639 0.274386
-0.032167 0.094714 0.298407
0.090922 0.148763 0.409112
-0.035775 0.012696 0.259174
-0.129342 0.163972 0.254117
0.031413 0.145465 0.362276
0.102683 0.152408 0.415224
-0.042823 0.033146 0.257579
0.008141 0.148151 0.342955
-0.022391 0.042972 0.274386
-0.032167 0.115192 0.298407
0.031702 0.152920 0.358712
-0.059497 0.087847 0.261317
0.133086 0.164261 0.431368
-0.042823 0.053543 0.257579
-0.035705 0.138777 0.294796
0.041597 0.136348 0.348922
-0.022391 0.073305 0.274386
-0.032167 0.145910 0.298407
0.064631 0.146656 0.366635
-0.083371 0.156439 0.263545
-0.009914 -0.064348 0.219792
0.089731 0.152409 0.383970
-0.054089 0.148378 0.276430
-0.022391 0.093527 0.274386
-0.035775 0.083796 0.259174
-0.112115 0.159490 0.234604
-0.084892 0.149177 0.249061
-0.042823 0.104536 0.257579
-0.074765 0.163958 0.258896
-0.022391 0.113748 0.274386
0.004779 0.091591 0.282296
0.132641 0.172688 0.408023
0.069794 0.140186 0.349621
-0.022391 0.133970 0.274386
0.012456 -0.007444 0.236301
0.132311 0.153040 0.390708
-0.082740 0.163960 0.239690
0.092540 0.164127 0.364753
-0.035775 0.134581 0.259174
-0.118844 0.153985 0.205952
0.073079 0.152410 0.343786
-0.022391 0.154192 0.274386
-0.042823 0.155529 0.257579
-0.066239 0.134802 0.228121
-0.011793 0.150069 0.273704
-0.029815 0.118090 0.241583
0.129600 0.152407 0.369706
-0.094702 0.163963 0.210880
-0.096084 0.156985 0.206683
0.039862 0.151409 0.300346
0.013242 0.146927 0.275000
0.056427 0.152411 0.303601
0.012344 0.141058 0.265808
-0.102676 0.163965 0.191672
0.050305 0.141662 0.289875
-0.076364 0.136671 0.189477
0.110762 0.162190 0.335457
0.131553 0.165352 0.350931
-0.051275 0.145266 0.209080
-0.046868 0.149714 0.213595
-0.091867 0.159388 0.184791
0.045337 0.152410 0.276803
-0.116633 0.163968 0.158058
0.056701 0.148596 0.275965
-0.117646 0.161051 0.151255
0.104494 0.152409 0.309121
0.131127 0.155074 0.328586
0.048285 0.154951 0.267149
-0.050728 0.163968 0.198300
-0.033087 0.159009 0.206496
-0.128596 0.163971 0.129245
-0.062296 0.163967 0.170361
0.130811 0.172791 0.312008
0.105590 0.149965 0.277210
-0.083270 0.158461 0.142220
0.084768 0.152410 0.261518
0.130394 0.153418 0.290140
0.090731 0.154529 0.259158
-0.073797 0.163958 0.142388
0.049874 0.154900 0.225593
-0.104299 0.159773 0.112367
-0.058432 0.130952 0.132784
0.097430 0.160907 0.260053
0.075801 0.152410 0.239879
0.015707 0.137437 0.186836
-0.053848 0.150672 0.140931
-0.044028 0.139009 0.141332
0.009299 0.147195 0.183567
-0.083450 0.163960 0.119113
0.066834 0.152411 0.218241
0.129982 0.170696 0.268537
0.111589 0.151993 0.243739
0.029168 0.146609 0.179111
-0.080638 0.161580 0.104604
-0.095044 0.163962 0.091187
-0.016309 0.089253 0.115999
0.084815 0.156040 0.217676
0.056083 0.152410 0.192270
0.061205 0.149665 0.190392
0.129474 0.155859 0.241898
-0.117793 0.164537 0.061141
0.049952 0.165881 0.184231
0.111416 0.152409 0.221947
-0.104706 0.163965 0.067914
0.047126 0.152409 0.170626
-0.026700 0.148355 0.113561
-0.112435 0.163967 0.049296
-0.070448 0.149645 0.073652
0.102718 0.152409 0.200955
-0.054510 0.139055 0.078599
-0.059677 0.157112 0.082380
-0.042508 0.148116 0.086292
-0.052376 0.163967 0.082554
-0.108207 0.163179 0.037910
0.128974 0.172631 0.215658
0.042254 0.161186 0.143205
0.114941 0.160109 0.194425
0.090539 0.152410 0.171566
0.128677 0.154005 0.200101
-0.127895 0.163971 0.012058
-0.041870 0.058404 0.026265
-0.063617 0.163969 0.055456
0.035964 0.149337 0.118343
0.081840 0.152410 0.150573
0.060281 0.153831 0.133536
-0.078525 0.168150 0.035454
-0.076208 0.153000 0.028767
0.128384 0.166654 0.184682
0.033711 0.148342 0.103360
-0.057025 0.162501 0.039064
0.128092 0.152644 0.169400
0.073141 0.152411 0.129581
0.075195 0.156447 0.130206
0.089409 0.153074 0.132444
-0.105079 0.163666 -0.008817
-0.084130 0.163961 0.005739
0.012828 0.154539 0.070498
0.116573 0.160549 0.146069
0.060974 0.152410 0.100185
-0.088475 0.158599 -0.009531
0.127803 0.169592 0.154252
0.117937 0.152409 0.139827
-0.093492 0.163962 -0.016844
0.050385 0.166396 0.090507
0.051896 0.163946 0.083087
0.109491 0.152409 0.119443
-0.015435 0.135403 0.011226
-0.104739 0.163964 -0.043939
-0.061765 -0.011484 -0.092390
0.045334 0.152408 0.062390
0.127328 0.172730 0.129299
-0.079347 0.152762 -0.037352
0.083845 0.163065 0.087596
0.097665 0.152410 0.090905
-0.045170 0.161893 -0.015482
0.126952 0.163034 0.109597
-0.117862 0.163968 -0.075551
-0.055718 0.163964 -0.030879
0.089219 0.152410 0.070521
0.020311 0.158072 0.017888
0.126581 0.153450 0.090122
0.071269 0.147999 0.042456
0.110551 0.154094 0.073297
-0.046107 0.156704 -0.041979
-0.109539 0.162476 -0.087576
-0.129111 0.163971 -0.102648
0.080772 0.152411 0.050137
0.035702 0.158216 0.015428
-0.050426 0.156899 -0.052122
-0.060436 0.139556 -0.069783
-0.072049 0.163961 -0.070362
0.004687 0.175861 -0.010381
-0.036167 0.160190 -0.048915
-0.011795 0.129587 -0.044936
-0.041449 -0.116862 -0.186375
0.068955 0.152410 0.021595
-0.102431 0.157713 -0.106072
0.092493 0.167904 0.039709
0.111714 0.157761 0.044524
-0.089705 0.146573 -0.111886
0.060518 0.152409 0.001206
-0.076606 0.170373 -0.094106
-0.047689 0.147700 -0.083250
-0.088411 0.163963 -0.109835
0.063793 0.153192 -0.001226
0.125851 0.168797 0.051837
0.110957 0.152409 0.030637
0.053727 0.141514 -0.019373
0.052081 0.152408 -0.019183
0.026102 0.136001 -0.048409
0.102749 0.152410 0.010827
0.089560 0.151430 -0.003481
-0.076547 0.148661 -0.131866
0.043645 0.152407 -0.039571
-0.000618 -0.123780 -0.205952
-0.104773 0.163964 -0.149308
0.094540 0.152410 -0.008983
0.079367 0.146127 -0.024920
0.071211 0.158457 -0.026846
0.035208 0.152407 -0.059959
-0.003868 0.136983 -0.097949
-0.104560 0.158581 -0.165205
0.125050 0.166662 0.009795
0.024828 0.094246 -0.098360
0.086331 0.152411 -0.028793
-0.049403 0.008495 -0.200719
-0.117513 0.163967 -0.180006
-0.042372 0.101192 -0.152917
-0.044976 -0.102253 -0.255196
-0.025899 -0.124236 -0.250863
-0.071396 -0.166126 -0.308120
0.107624 0.163097 -0.016171
-0.062434 0.163965 -0.146434
-0.094708 0.165802 -0.174479
0.124526 0.152717 -0.017647
-0.072253 0.152887 -0.167176
-0.001413 -0.151480 -0.260091
0.073208 0.152410 -0.060494
-0.071441 -0.135120 -0.308113
-0.130257 0.163971 -0.210705
-0.006357 -0.130676 -0.259107
0.027499 -0.169376 -0.253312
-0.032978 -0.093879 -0.262532
0.037736 0.142692 -0.097319
0.019045 -0.039277 -0.199317
0.118730 0.152409 -0.037888
-0.043397 -0.154033 -0.308085
0.065009 0.152409 -0.080308
-0.078315 0.163964 -0.184800
0.076863 0.152241 -0.073301
-0.053216 0.151148 -0.175853
-0.044475 -0.123931 -0.303650
0.000411 -0.154267 -0.285788
-0.101341 0.152817 -0.218232
-0.028627 0.132118 -0.172746
-0.016463 -0.167929 -0.308062
-0.032978 -0.045848 -0.262532
-0.005671 -0.125476 -0.280490
-0.024210 -0.113977 -0.289928
0.032108 0.165977 -0.114031
-0.001215 0.158618 -0.143779
0.111135 0.155024 -0.062541
0.105956 0.152410 -0.068717
0.053530 0.152408 -0.108048
0.021399 -0.168428 -0.285405
-0.090683 0.163965 -0.214637
-0.020156 0.146617 -0.169219
-0.011013 -0.097482 -0.279916
-0.044475 -0.093492 -0.303650
0.088136 0.141200 -0.094069
0.123758 0.163222 -0.057960
0.058521 0.165512 -0.105790
0.036347 0.140756 -0.134454
-0.032978 -0.015283 -0.262532
-0.024210 -0.083870 -0.289928
-0.002541 -0.149409 -0.306117
-0.016504 -0.129671 -0.308055
-0.099518 0.163966 -0.235950
-0.044475 -0.067401 -0.303650
0.018566 -0.167709 -0.305437
-0.084543 0.157718 -0.230090
0.009550 0.151941 -0.160294
0.021708 0.141007 -0.156055
-0.022826 -0.078778 -0.295558
-0.032978 0.006550 -0.262532
0.093182 0.152411 -0.099545
-0.024210 -0.053763 -0.289928
0.037131 0.152406 -0.147674
-0.110726 0.159972 -0.259453
-0.044475 -0.036962 -0.303650
-0.032978 0.032748 -0.262532
-0.022352 -0.023683 -0.281734
0.123173 0.153479 -0.088631
0.085202 0.152410 -0.118814
0.105379 0.166579 -0.106507
0.107264 0.160445 -0.110619
-0.032978 0.063314 -0.262532
-0.055215 0.133910 -0.247189
0.077227 0.152410 -0.138085
-0.061914 0.163965 -0.239073
-0.044475 0.006523 -0.303650
-0.063914 0.145744 -0.253555
-0.024210 0.006452 -0.289928
0.014617 -0.001952 -0.264851
-0.032978 0.085146 -0.262532
0.122762 0.160570 -0.110183
-0.022352 0.036601 -0.281734
-0.060275 0.146973 -0.259096
0.067658 0.152409 -0.161210
-0.044475 0.032613 -0.303650
-0.131338 0.163970 -0.312674
0.082265 0.152669 -0.159817
-0.016528 0.105457 -0.257667
-0.044475 0.054356 -0.303650
0.110547 0.152410 -0.140268
-0.097369 0.158890 -0.297407
-0.027074 0.106327 -0.267990
-0.036535 0.158074 -0.256449
0.028499 0.153431 -0.208312
0.122357 0.167566 -0.131445
0.056493 0.152408 -0.188189
-0.044475 0.076098 -0.303650
-0.032978 0.146276 -0.262532
-0.024210 0.075268 -0.289928
0.102776 0.152410 -0.159022
-0.087676 0.163966 -0.301262
-0.016894 0.139115 -0.262618
0.062060 0.161395 -0.192889
0.010809 0.138364 -0.243971
-0.024907 0.136088 -0.274123
-0.044475 0.106537 -0.303650
-0.024210 0.113977 -0.289928
0.109906 0.159488 -0.169872
-0.022352 0.135639 -0.281734
0.031172 0.157803 -0.230908
0.090347 0.152410 -0.189030
-0.081987 0.157919 -0.319754
-0.028013 0.085093 -0.312410
-0.099705 0.163967 -0.330283
0.121799 0.166003 -0.160736
0.038949 0.152406 -0.230583
-0.044475 0.132628 -0.303650
0.086493 0.159302 -0.194318
0.070418 0.147001 -0.217182
-0.065107 0.158710 -0.320933
-0.029365 0.152916 -0.297560
0.088617 0.159419 -0.206416
-0.091088 0.153431 -0.347518
-0.111735 0.163968 -0.359304
0.077928 0.152409 -0.219040
0.121251 0.152580 -0.189486
0.121406 0.172852 -0.181326
0.048765 0.152397 -0.247160
-0.081148 0.167956 -0.344268
-0.064726 0.163961 -0.334848
-0.100937 0.161486 -0.365446
0.056769 0.152143 -0.249498
0.103974 0.150729 -0.214669
-0.069652 0.152736 -0.348559
-0.036412 0.150035 -0.326294
-0.123764 0.163969 -0.388325
-0.092262 0.153910 -0.369168
0.065508 0.152408 -0.249050
-0.029135 0.137882 -0.332401
0.110358 0.152410 -0.219062
-0.079440 0.148418 -0.368996
0.077257 0.151103 -0.247111
0.009513 0.148267 -0.300741
0.007803 0.127237 -0.314912
-0.076443 0.163963 -0.363094
0.120865 0.171266 -0.209698
-0.132360 0.163970 -0.409055
0.057747 0.152407 -0.267807
-0.046224 0.149645 -0.350553
0.079670 0.162647 -0.255082
0.048492 0.153601 -0.284052
-0.084813 0.163965 -0.383269
0.017609 0.140276 -0.321896
0.053973 0.162262 -0.284834
0.093713 0.152410 -0.259252
0.045328 0.152406 -0.297816
0.034228 0.126019 -0.326688
-0.019105 0.141238 -0.363125
-0.039079 0.148187 -0.377571
-0.098204 0.163968 -0.415551
0.120110 0.165163 -0.249339
0.070719 0.156448 -0.293415
0.081616 0.152409 -0.288482
0.107444 0.154115 -0.268898
0.032909 0.152405 -0.327824
-0.102858 0.163502 -0.430035
0.046242 0.152205 -0.320155
-0.106574 0.163969 -0.435728
0.100562 0.164291 -0.277013
0.119739 0.152517 -0.268777
-0.079167 0.154652 -0.428930
-0.062574 0.163966 -0.413848
0.069519 0.152408 -0.317712
-0.054957 0.154460 -0.414798
-0.086307 0.163073 -0.440365
0.013695 0.149726 -0.368716
0.078331 0.164475 -0.313251
0.119519 0.171163 -0.280320
-0.070726 0.163967 -0.433501
0.097646 0.155380 -0.308990
0.104277 0.152411 -0.308111
0.061982 0.150079 -0.343957
0.026731 0.145539 -0.373505
0.055911 0.152406 -0.350595
-0.081377 0.161650 -0.454219
-0.006773 0.153401 -0.402135
0.053901 0.155639 -0.355872
0.034249 0.146374 -0.376613
0.066762 0.152453 -0.355820
0.078071 0.156823 -0.345006
-0.018649 0.157594 -0.421036
-0.034311 0.161173 -0.432804
0.091012 0.152409 -0.340163
0.093075 0.163175 -0.335731
0.043814 0.152405 -0.379824
0.118585 0.153226 -0.329332
0.008244 0.152617 -0.420647
0.038482 0.156969 -0.400815
0.031718 0.152404 -0.409053
0.074800 0.152408 -0.379336
-0.043241 0.167796 -0.469669
0.006190 0.156588 -0.438851
0.111508 0.154834 -0.366017
0.118025 0.170425 -0.358703
0.104257 0.152410 -0.378872
0.058589 0.152406 -0.418508
0.089160 0.170248 -0.388474
0.089699 0.162527 -0.393139
0.095633 0.152409 -0.399711
0.103036 0.166564 -0.389899
0.000126 0.164372 -0.473741
0.087008 0.152409 -0.420550
0.117408 0.164829 -0.391053
0.029385 0.159365 -0.464164
0.086005 0.161388 -0.419271
0.117071 0.152775 -0.408716
0.065631 0.153539 -0.451442
0.114084 0.156864 -0.415232
0.083387 0.161904 -0.442744
0.069051 0.166225 -0.452236
0.067223 0.171079 -0.455945
0.090332 0.157619 -0.444906
0.084700 0.152327 -0.452726
0.097632 0.157890 -0.441919
