0.119995 0.154935 -0.245852
0.119696 0.164950 -0.279072
0.120435 0.158997 -0.228597
0.120410 0.154696 -0.303550
0.113851 0.152799 -0.261311
0.113749 0.152011 -0.281054
0.118284 0.153132 -0.240555
0.120441 0.155846 -0.276125
0.120713 0.158528 -0.287616
0.119731 0.165898 -0.260608
0.119573 0.152673 -0.290913
0.119877 0.153398 -0.281598
0.112998 0.156772 -0.269512
0.120778 0.157315 -0.252662
0.120288 0.163091 -0.295074
0.119322 0.152963 -0.251698
0.112004 0.152420 -0.242268
0.120901 0.161769 -0.269454
0.119045 0.152942 -0.233070
0.108176 0.152669 -0.271696
0.117910 0.152359 -0.265606
0.119883 0.153859 -0.264240
0.119989 0.164400 -0.243797
0.107418 0.151859 -0.255365
0.120471 0.152745 -0.219211
0.115593 0.152159 -0.305869
0.119384 0.154018 -0.297722
-0.127309 0.154534 -0.432957
-0.075466 0.153686 -0.406179
-0.071647 0.154351 -0.433710
-0.089694 0.154662 -0.447319
-0.103342 0.154034 -0.416119
-0.082985 0.154063 -0.393171
-0.081852 0.153709 -0.425394
-0.093205 0.153949 -0.384414
-0.103591 0.154429 -0.446006
-0.085020 0.154432 -0.412931
-0.109202 0.154528 -0.424049
-0.102456 0.154475 -0.393425
-0.115574 0.154253 -0.430496
-0.098162 0.154389 -0.428264
-0.095950 0.154021 -0.410087
-0.095010 0.154436 -0.439124
-0.087753 0.154444 -0.432300
-0.135100 0.153521 -0.419638
-0.106040 0.154212 -0.404550
-0.105338 0.154075 -0.434874
-0.091191 0.154094 -0.400338
-0.116326 0.154283 -0.399519
-0.092589 0.154243 -0.420648
-0.113170 0.154125 -0.385454
-0.120877 0.154474 -0.420319
-0.114021 0.154455 -0.412476
-0.073601 0.153927 -0.419360
-0.126064 0.153121 -0.391353
-0.127595 0.154225 -0.407176
-0.104135 0.153967 -0.376115
-0.115803 0.154627 -0.441810
-0.079708 0.154673 -0.441586
-0.081590 0.167123 -0.409741
-0.039961 0.166927 -0.377387
-0.039602 0.167222 -0.406741
-0.055001 0.167271 -0.428278
-0.062880 0.165053 -0.388984
-0.044559 0.167121 -0.361899
-0.047458 0.166989 -0.400269
-0.053128 0.167209 -0.350824
-0.065652 0.166986 -0.424643
-0.048454 0.167551 -0.385441
-0.066727 0.167347 -0.397792
-0.060934 0.167504 -0.363599
-0.072506 0.167362 -0.405881
-0.059482 0.167331 -0.404824
-0.056504 0.167289 -0.382185
-0.058011 0.167095 -0.416489
-0.052597 0.166038 -0.408199
-0.085141 0.167238 -0.393874
-0.063209 0.167159 -0.376664
-0.066142 0.167249 -0.412432
-0.052126 0.167136 -0.370863
-0.070911 0.167357 -0.370348
-0.055010 0.167156 -0.394571
-0.068708 0.167430 -0.353445
-0.074976 0.167699 -0.395206
-0.070312 0.167627 -0.385625
-0.040351 0.166994 -0.392145
-0.079104 0.167058 -0.361198
-0.079428 0.167393 -0.379828
-0.061591 0.167212 -0.339565
-0.075365 0.167015 -0.420850
-0.046309 0.167073 -0.418166
0.053246 0.151910 -0.320238
0.092566 0.151964 -0.298533
0.093129 0.152047 -0.319000
0.078851 0.151813 -0.333716
0.071638 0.151455 -0.306848
0.087845 0.152009 -0.289339
0.086252 0.152367 -0.313297
0.079887 0.151694 -0.283931
0.069235 0.151744 -0.332056
0.084963 0.152204 -0.304090
0.066654 0.151958 -0.312907
0.073061 0.152060 -0.290672
0.061562 0.152056 -0.318546
0.073916 0.151970 -0.316667
0.076505 0.152980 -0.302047
0.076061 0.151779 -0.325339
0.081903 0.151961 -0.319023
0.049268 0.151844 -0.309872
0.069677 0.151952 -0.298577
0.068014 0.152501 -0.322413
0.081028 0.151913 -0.295238
0.062680 0.151878 -0.296049
0.078766 0.151899 -0.310121
0.064426 0.151848 -0.286398
0.058575 0.151900 -0.310781
0.063601 0.152020 -0.304670
0.092651 0.151864 -0.308359
0.055498 0.152156 -0.291289
0.054425 0.151714 -0.301412
0.071421 0.151707 -0.278845
0.060479 0.151872 -0.328279
0.086481 0.152052 -0.326764
-0.101022 0.153864 -0.431832
-0.045638 0.153232 -0.402405
-0.043167 0.153775 -0.431627
-0.061951 0.153787 -0.450393
-0.074726 0.153394 -0.413122
-0.052730 0.153538 -0.389401
-0.052582 0.153247 -0.422361
-0.063833 0.153361 -0.381340
-0.076546 0.153558 -0.447814
-0.055181 0.153822 -0.409808
-0.081157 0.153745 -0.422001
-0.072980 0.153787 -0.390621
-0.088169 0.153599 -0.428780
-0.069692 0.153784 -0.426065
-0.066655 0.153306 -0.406348
-0.066857 0.153755 -0.438957
-0.058971 0.153702 -0.430251
-0.108935 0.153147 -0.416663
-0.077372 0.153626 -0.401127
-0.077696 0.153481 -0.434162
-0.060957 0.153598 -0.396954
-0.088667 0.153618 -0.397024
-0.063588 0.153690 -0.417452
-0.084115 0.153590 -0.383554
-0.093371 0.153739 -0.417935
-0.085551 0.153875 -0.409829
-0.043508 0.153576 -0.415942
-0.098920 0.152898 -0.388531
-0.099958 0.153732 -0.404457
-0.075187 0.153416 -0.372402
-0.089482 0.153754 -0.442932
-0.051657 0.153847 -0.441527
-0.116350 0.164553 -0.439610
-0.075807 0.165650 -0.418670
-0.070843 0.164917 -0.432438
-0.085215 0.163588 -0.447813
-0.099829 0.157643 -0.422637
-0.080585 0.161701 -0.410375
-0.080194 0.167490 -0.434709
-0.086772 0.165325 -0.402178
-0.094832 0.165824 -0.443913
-0.086988 0.160187 -0.421035
-0.097788 0.159533 -0.433866
-0.095514 0.159883 -0.405183
-0.107195 0.166464 -0.430437
-0.095362 0.165686 -0.432068
-0.093332 0.168293 -0.421843
-0.088812 0.164093 -0.437578
-0.081376 0.156701 -0.431243
-0.123817 0.165435 -0.429756
-0.098781 0.166103 -0.413311
-0.101558 0.167924 -0.437040
-0.090169 0.164965 -0.414726
-0.108033 0.160653 -0.411119
-0.088182 0.165515 -0.427911
-0.107937 0.164861 -0.400204
-0.113252 0.159524 -0.428616
-0.104868 0.165126 -0.421781
-0.080540 0.164262 -0.425021
-0.112996 0.167676 -0.410959
-0.119033 0.164043 -0.417902
-0.096834 0.164162 -0.394077
-0.106941 0.161424 -0.446535
-0.077145 0.162806 -0.442400
-0.019163 0.152856 -0.367290
0.030741 0.163140 -0.333784
0.035372 0.152026 -0.359197
0.016275 0.151691 -0.386293
0.008409 0.153042 -0.341617
0.025290 0.153353 -0.320880
0.024117 0.166367 -0.357676
0.017982 0.162135 -0.309331
0.009937 0.164026 -0.378571
0.020516 0.153938 -0.339937
0.001507 0.153761 -0.353925
0.010305 0.153979 -0.315170
-0.004395 0.167553 -0.352178
0.007180 0.161950 -0.359592
0.013153 0.167544 -0.334955
0.012817 0.151473 -0.368137
0.019476 0.153574 -0.356210
-0.028024 0.165305 -0.351202
0.005389 0.163886 -0.325543
-0.003006 0.167657 -0.368809
0.014978 0.151948 -0.326403
-0.004401 0.153735 -0.324125
0.016778 0.162831 -0.348635
-0.007983 0.159983 -0.309067
-0.012557 0.154965 -0.349022
-0.003527 0.153721 -0.338709
0.031748 0.151612 -0.343993
-0.015644 0.167207 -0.323951
-0.021632 0.152791 -0.333051
0.003958 0.151396 -0.299008
-0.004460 0.153658 -0.376841
0.025320 0.153682 -0.371514
0.022497 0.170926 -0.304897
0.088571 0.170519 -0.269331
0.089678 0.170991 -0.304370
0.069701 0.170995 -0.328132
0.057951 0.170687 -0.283771
0.083704 0.171050 -0.253649
0.081627 0.170354 -0.293449
0.071767 0.170585 -0.245173
0.053743 0.171002 -0.324399
0.079165 0.171150 -0.279208
0.048448 0.170819 -0.293068
0.061170 0.170972 -0.257536
0.039313 0.170930 -0.302350
0.061848 0.170817 -0.298998
0.067130 0.170743 -0.274502
0.064664 0.170826 -0.314059
0.073828 0.171028 -0.303216
0.012460 0.170815 -0.287815
0.054661 0.170699 -0.269646
0.052712 0.170797 -0.308223
0.074094 0.170927 -0.263694
0.040296 0.171062 -0.264642
0.069727 0.170810 -0.288877
0.047525 0.171028 -0.249684
0.033207 0.171436 -0.289175
0.043835 0.171199 -0.279182
0.092072 0.170884 -0.286073
0.026529 0.170351 -0.253054
0.026096 0.171266 -0.273843
0.057833 0.170643 -0.236971
0.038671 0.171043 -0.317990
0.080238 0.171227 -0.315916
0.013972 0.170393 -0.295418
0.112630 0.169353 -0.269421
0.113548 0.169789 -0.294432
0.102753 0.171124 -0.314000
0.068603 0.172240 -0.276691
0.109706 0.170901 -0.259606
0.105551 0.170736 -0.287134
0.099531 0.171522 -0.252790
0.073406 0.171055 -0.311650
0.105345 0.172562 -0.274372
0.053631 0.171526 -0.284430
0.076418 0.172359 -0.261248
0.040290 0.171334 -0.292212
0.079759 0.171786 -0.288888
0.084184 0.171513 -0.272356
0.088204 0.171341 -0.303033
0.101281 0.171675 -0.296205
-0.004910 0.170278 -0.282019
0.059868 0.171938 -0.268021
0.065973 0.171733 -0.296892
0.095424 0.171554 -0.264765
0.032202 0.172234 -0.267422
0.092164 0.171343 -0.282754
0.050496 0.172046 -0.255606
0.025872 0.172024 -0.281824
0.044408 0.171400 -0.276134
0.112013 0.169789 -0.281679
0.014979 0.171439 -0.255715
0.013683 0.171180 -0.272550
0.070782 0.172062 -0.249073
0.046019 0.171702 -0.305899
0.110258 0.171124 -0.304910
-0.090244 0.168284 -0.435424
-0.045748 0.168038 -0.407793
-0.044062 0.168512 -0.431650
-0.060533 0.167839 -0.449740
-0.071854 0.162480 -0.415753
-0.052231 0.168385 -0.393439
-0.054673 0.168037 -0.427504
-0.061220 0.168356 -0.381445
-0.071464 0.167679 -0.446338
-0.056097 0.169323 -0.412977
-0.074855 0.169030 -0.423854
-0.069829 0.169362 -0.394750
-0.080528 0.168623 -0.431276
-0.066882 0.168647 -0.429924
-0.065357 0.168512 -0.412316
-0.064300 0.168267 -0.439373
-0.060250 0.163749 -0.432915
-0.095833 0.168325 -0.422193
-0.072270 0.168525 -0.406332
-0.073465 0.168295 -0.436207
-0.060909 0.168379 -0.401239
-0.080534 0.169072 -0.400593
-0.062039 0.168327 -0.421608
-0.079015 0.168627 -0.383119
-0.084111 0.169401 -0.422354
-0.079209 0.168863 -0.414762
-0.048018 0.168190 -0.420130
-0.089104 0.168291 -0.391098
-0.089863 0.168661 -0.409013
-0.070674 0.168574 -0.369721
-0.082695 0.168112 -0.444943
-0.050913 0.168344 -0.440829
0.074809 0.151901 -0.306408
0.116426 0.151645 -0.279446
0.116554 0.151824 -0.307011
0.103035 0.151582 -0.326434
0.095841 0.151268 -0.290173
0.113877 0.151723 -0.266528
0.110641 0.151412 -0.298767
0.104875 0.151482 -0.259607
0.092147 0.151492 -0.323654
0.110334 0.151841 -0.287090
0.091086 0.151832 -0.297826
0.097853 0.151733 -0.268408
0.085367 0.151569 -0.304558
0.098752 0.151574 -0.303092
0.102011 0.151255 -0.283147
0.100312 0.151471 -0.315485
0.106761 0.151627 -0.307444
0.071463 0.151534 -0.291505
0.094410 0.151640 -0.279034
0.092241 0.151431 -0.310579
0.106513 0.151681 -0.274082
0.086385 0.151744 -0.274469
0.103365 0.151616 -0.294341
0.089609 0.151835 -0.262497
0.082181 0.151594 -0.294673
0.087581 0.151810 -0.286276
0.117968 0.151699 -0.292593
0.077696 0.151321 -0.266845
0.077663 0.151647 -0.281201
0.095777 0.151791 -0.251744
0.082826 0.151575 -0.317267
0.110910 0.151532 -0.317738
0.077634 0.152199 -0.300257
0.114283 0.151889 -0.276423
0.114955 0.152122 -0.300479
0.104779 0.151871 -0.318429
0.096515 0.151482 -0.285723
0.111996 0.152054 -0.265590
0.110217 0.151626 -0.293388
0.104926 0.151689 -0.258791
0.094529 0.151631 -0.315507
0.109361 0.152206 -0.283048
0.092510 0.151985 -0.292308
0.098092 0.152010 -0.266502
0.087025 0.151898 -0.298452
0.099640 0.151795 -0.297238
0.102049 0.151755 -0.279721
0.101409 0.151608 -0.308306
0.107063 0.151999 -0.301578
0.073636 0.152042 -0.286459
0.095057 0.151878 -0.275991
0.093735 0.151698 -0.303778
0.105608 0.151897 -0.271813
0.087586 0.152057 -0.271412
0.103835 0.151845 -0.289604
0.089875 0.152089 -0.260375
0.083654 0.152102 -0.289448
0.088530 0.152053 -0.282033
0.115712 0.152013 -0.288105
0.079023 0.151671 -0.264364
0.078777 0.152023 -0.277080
0.096219 0.151931 -0.252098
0.085469 0.151875 -0.310028
0.110814 0.152025 -0.310298
0.036653 0.151871 -0.350225
0.076692 0.151737 -0.325612
0.077100 0.151972 -0.348495
0.062588 0.151786 -0.365772
0.055961 0.151520 -0.334787
0.072361 0.151949 -0.316015
0.070957 0.151564 -0.341375
0.064188 0.151724 -0.310870
0.053037 0.151735 -0.363268
0.069540 0.152082 -0.331666
0.050835 0.151861 -0.341387
0.057678 0.151938 -0.317769
0.045608 0.151962 -0.347844
0.058532 0.151954 -0.345510
0.061452 0.152094 -0.329048
0.060282 0.151798 -0.355596
0.066304 0.151852 -0.348192
0.032347 0.151708 -0.338153
0.054237 0.151857 -0.325747
0.052272 0.151889 -0.352069
0.066025 0.151881 -0.322023
0.047067 0.151901 -0.322699
0.063190 0.151846 -0.338121
0.049281 0.151922 -0.313286
0.042665 0.152010 -0.339047
0.047813 0.152081 -0.332000
0.078164 0.151795 -0.336314
0.039342 0.151589 -0.317408
0.038260 0.151905 -0.328653
0.055965 0.151709 -0.305718
0.043964 0.151812 -0.359605
0.070243 0.151999 -0.357379
-0.022616 0.152731 -0.369300
0.033609 0.151792 -0.342725
0.035963 0.152127 -0.367326
0.019994 0.152212 -0.386605
0.009288 0.152107 -0.351696
0.028741 0.152206 -0.332784
0.027882 0.151717 -0.358561
0.019341 0.151975 -0.326742
0.007529 0.152513 -0.383606
0.025359 0.152498 -0.348448
0.002421 0.152407 -0.359072
0.011419 0.152288 -0.333805
-0.006256 0.152698 -0.366206
0.013053 0.152425 -0.362974
0.016082 0.152391 -0.345584
0.016227 0.152169 -0.374618
0.022791 0.152260 -0.365881
-0.034594 0.152382 -0.355546
0.006163 0.152325 -0.341659
0.005081 0.152430 -0.369898
0.021148 0.152205 -0.338214
-0.006093 0.152411 -0.338618
0.018876 0.152269 -0.355480
-0.002286 0.152578 -0.327674
-0.012623 0.152998 -0.355035
-0.002786 0.152665 -0.348490
0.036450 0.152135 -0.354168
-0.018502 0.152081 -0.330456
-0.022319 0.152842 -0.344080
0.007218 0.152093 -0.321499
-0.007081 0.152483 -0.380399
0.027768 0.152568 -0.376501
0.033250 0.151651 -0.353035
0.074425 0.151634 -0.331962
0.074843 0.151884 -0.352575
0.059358 0.151713 -0.366984
0.054440 0.151248 -0.339307
0.069190 0.151760 -0.322978
0.067217 0.160691 -0.345566
0.060706 0.151517 -0.317648
0.049591 0.151681 -0.364984
0.065924 0.151885 -0.338101
0.048418 0.151722 -0.345626
0.054105 0.151932 -0.324474
0.042923 0.151951 -0.352476
0.053637 0.151892 -0.351460
0.056421 0.163529 -0.333730
0.057987 0.151587 -0.358046
0.064564 0.151622 -0.350387
0.028802 0.151715 -0.342020
0.051245 0.151844 -0.332463
0.049634 0.161144 -0.354478
0.061979 0.151601 -0.329235
0.043038 0.151613 -0.329460
0.059059 0.151766 -0.344632
0.044157 0.151631 -0.320738
0.039450 0.151724 -0.343886
0.044548 0.151803 -0.337857
0.074767 0.151522 -0.341871
0.038064 0.160531 -0.329053
0.035096 0.151469 -0.333452
0.051455 0.151423 -0.313146
0.040345 0.151843 -0.361228
0.067383 0.151848 -0.359824
-0.131870 0.154211 -0.446443
-0.068123 0.159376 -0.445838
-0.060005 0.153774 -0.447518
-0.081891 0.157709 -0.446947
-0.104210 0.152523 -0.444340
-0.074306 0.152074 -0.432618
-0.077825 0.165625 -0.446441
-0.084543 0.153239 -0.421543
-0.095653 0.161063 -0.447212
-0.094409 0.152141 -0.434677
-0.098520 0.153249 -0.446200
-0.095853 0.153566 -0.421869
-0.120165 0.161127 -0.447963
-0.103474 0.158216 -0.447260
-0.094758 0.168005 -0.444374
-0.090364 0.154997 -0.447183
-0.085892 0.151825 -0.441293
-0.147217 0.158377 -0.446930
-0.105003 0.161281 -0.438995
-0.107376 0.166052 -0.446119
-0.099457 0.152702 -0.437088
-0.116653 0.151947 -0.433829
-0.086711 0.161581 -0.446721
-0.122449 0.153289 -0.425055
-0.126992 0.151914 -0.440777
-0.117464 0.154461 -0.445333
-0.080027 0.152358 -0.444637
-0.127216 0.166491 -0.442229
-0.141290 0.153095 -0.441715
-0.108496 0.153452 -0.411749
-0.112015 0.152923 -0.445230
-0.072334 0.153087 -0.446177
-0.028081 0.164122 -0.406658
0.031055 0.163981 -0.369033
0.030867 0.164179 -0.404765
0.010993 0.164381 -0.430885
0.001498 0.164187 -0.381905
0.024206 0.164101 -0.353004
0.022826 0.164216 -0.392890
0.012419 0.163830 -0.342862
-0.004949 0.164172 -0.426750
0.021239 0.164628 -0.378297
-0.007157 0.164286 -0.391826
0.002129 0.164270 -0.354612
-0.015584 0.164339 -0.402047
0.004455 0.164452 -0.400204
0.009430 0.164486 -0.372714
0.006180 0.164100 -0.415755
0.015891 0.164429 -0.404107
-0.032850 0.164245 -0.387491
-0.001687 0.164248 -0.367696
-0.005540 0.164430 -0.409694
0.015502 0.163840 -0.362015
-0.012434 0.164169 -0.361069
0.011339 0.164257 -0.388000
-0.011007 0.164260 -0.344678
-0.018990 0.164666 -0.387692
-0.011840 0.164620 -0.376886
0.033193 0.163995 -0.385962
-0.024458 0.164019 -0.353964
-0.025348 0.164039 -0.371921
-0.000253 0.163776 -0.332759
-0.019118 0.164386 -0.421336
0.022725 0.164591 -0.418432
0.010386 0.170334 -0.360552
0.067254 0.170027 -0.329184
0.068013 0.170455 -0.359257
0.050026 0.170353 -0.381032
0.040279 0.170139 -0.341192
0.061295 0.170418 -0.316718
0.060605 0.170002 -0.349045
0.051174 0.169989 -0.310121
0.036527 0.170373 -0.377959
0.058506 0.170746 -0.336684
0.031953 0.170184 -0.348889
0.042695 0.170357 -0.319731
0.024594 0.170358 -0.358058
0.043837 0.170286 -0.354429
0.048019 0.170333 -0.333326
0.046097 0.170291 -0.368349
0.053897 0.170558 -0.357972
0.000776 0.170035 -0.345929
0.037260 0.170188 -0.329517
0.035911 0.170245 -0.362861
0.053795 0.170456 -0.324208
0.025867 0.170505 -0.325014
0.050513 0.170499 -0.345574
0.031102 0.170585 -0.312878
0.019308 0.171073 -0.345833
0.027865 0.170787 -0.336751
0.070300 0.170463 -0.343442
0.014197 0.169785 -0.316561
0.012422 0.170749 -0.333168
0.040243 0.169965 -0.304130
0.023394 0.170355 -0.372510
0.059454 0.170808 -0.369806
-0.000929 0.152423 -0.376844
0.049054 0.151767 -0.351597
0.050955 0.152076 -0.375496
0.035181 0.152024 -0.393363
0.025875 0.151947 -0.360401
0.044026 0.152170 -0.342007
0.043422 0.151586 -0.366988
0.034852 0.151878 -0.336540
0.023778 0.152174 -0.390722
0.041092 0.152402 -0.357366
0.019641 0.152226 -0.367284
0.027525 0.152166 -0.343322
0.012451 0.152403 -0.374193
0.029352 0.152266 -0.371257
0.032152 0.152226 -0.354542
0.031916 0.152044 -0.382309
0.038456 0.152086 -0.374157
-0.009950 0.152139 -0.363973
0.022943 0.152125 -0.350979
0.022096 0.152164 -0.377927
0.036912 0.152105 -0.347412
0.012866 0.152284 -0.347725
0.034587 0.152110 -0.364049
0.015885 0.152367 -0.337731
0.007312 0.152676 -0.363849
0.015145 0.152410 -0.357226
0.051605 0.152063 -0.362743
0.002088 0.151880 -0.340838
-0.000314 0.152556 -0.353340
0.024269 0.151992 -0.331706
0.011353 0.152208 -0.387169
0.043133 0.152344 -0.384201
0.048679 0.151602 -0.360201
0.087021 0.151613 -0.339565
0.087330 0.152013 -0.361315
0.073232 0.151801 -0.375913
0.069472 0.151205 -0.346587
0.082028 0.151847 -0.329895
0.080194 0.165286 -0.353325
0.073959 0.151529 -0.324059
0.063720 0.151694 -0.373305
0.079602 0.151909 -0.346347
0.063460 0.151697 -0.353085
0.067653 0.151976 -0.331469
0.058241 0.151907 -0.360580
0.067203 0.151899 -0.360675
0.070222 0.167492 -0.340140
0.072502 0.151606 -0.366495
0.079183 0.151644 -0.358211
0.044942 0.151449 -0.348566
0.065728 0.151734 -0.340246
0.064700 0.165990 -0.361821
0.075590 0.151561 -0.336581
0.057751 0.151562 -0.336110
0.072412 0.151753 -0.353500
0.057912 0.151570 -0.327358
0.054817 0.151702 -0.351600
0.058807 0.151760 -0.345043
0.087973 0.151580 -0.350143
0.054241 0.165104 -0.338700
0.050506 0.151324 -0.339825
0.065217 0.151330 -0.319369
0.054883 0.151851 -0.368763
0.080831 0.151866 -0.368843
0.054249 0.151815 -0.349441
0.103397 0.151731 -0.319379
0.104291 0.152023 -0.349859
0.086695 0.151682 -0.372534
0.078764 0.151191 -0.330650
0.098545 0.151919 -0.305245
0.095906 0.155181 -0.340452
0.087611 0.151487 -0.297029
0.073947 0.151652 -0.368850
0.094597 0.152218 -0.327904
0.072444 0.152063 -0.339037
0.079258 0.152089 -0.306995
0.065819 0.151665 -0.347805
0.080428 0.151833 -0.346407
0.084224 0.156394 -0.323051
0.083412 0.151610 -0.359334
0.091426 0.151881 -0.349536
0.050295 0.151607 -0.333016
0.076013 0.151741 -0.319137
0.073671 0.155037 -0.354043
0.089484 0.151734 -0.313959
0.066863 0.151850 -0.313617
0.086360 0.151830 -0.336201
0.068819 0.151792 -0.300128
0.061785 0.151766 -0.336417
0.067740 0.151813 -0.326820
0.104575 0.151779 -0.334204
0.057954 0.154859 -0.308053
0.057026 0.151558 -0.321187
0.076853 0.151678 -0.288360
0.062659 0.151840 -0.362098
0.096606 0.151888 -0.361918
-0.046090 0.166795 -0.427538
0.011840 0.166759 -0.389503
0.011934 0.166956 -0.425970
-0.008455 0.166932 -0.448779
-0.017778 0.166841 -0.403938
0.005244 0.167106 -0.372196
0.003862 0.166661 -0.414422
-0.006674 0.166720 -0.360097
-0.023858 0.166540 -0.445611
0.001375 0.167399 -0.399416
-0.025655 0.167018 -0.413460
-0.016422 0.167340 -0.374396
-0.033791 0.166854 -0.423508
-0.014654 0.167057 -0.421200
-0.009589 0.166948 -0.393978
-0.013024 0.166801 -0.435926
-0.003850 0.167115 -0.425042
-0.050833 0.166718 -0.409570
-0.020161 0.166900 -0.388693
-0.024000 0.166893 -0.430279
-0.003585 0.166746 -0.382105
-0.030853 0.167018 -0.381439
-0.007736 0.166988 -0.409400
-0.028482 0.167088 -0.363219
-0.036858 0.167362 -0.409606
-0.030049 0.167257 -0.398644
0.014102 0.166773 -0.407128
-0.042392 0.166561 -0.372421
-0.042791 0.166892 -0.393357
-0.018635 0.166792 -0.348305
-0.037119 0.166864 -0.440834
0.003266 0.167241 -0.438024
-0.058872 0.166154 -0.435801
-0.008024 0.165832 -0.403603
-0.006808 0.166257 -0.430904
-0.025042 0.165809 -0.452540
-0.036204 0.160795 -0.412594
-0.014906 0.165724 -0.389048
-0.016578 0.166282 -0.426127
-0.024198 0.165919 -0.377107
-0.037687 0.165726 -0.449337
-0.018351 0.165898 -0.410043
-0.040225 0.165238 -0.423513
-0.033833 0.165356 -0.388644
-0.047747 0.166465 -0.429702
-0.031735 0.166666 -0.428646
-0.028755 0.166647 -0.408030
-0.028658 0.166104 -0.440264
-0.022090 0.162427 -0.431830
-0.064621 0.166200 -0.420122
-0.036902 0.166371 -0.400922
-0.039698 0.166385 -0.436698
-0.023345 0.166056 -0.396593
-0.046669 0.165605 -0.395861
-0.025376 0.166204 -0.419379
-0.044687 0.166236 -0.378737
-0.051845 0.165554 -0.419978
-0.045181 0.166756 -0.411147
-0.009340 0.165969 -0.416962
-0.056066 0.166218 -0.388409
-0.057762 0.166231 -0.405512
-0.034754 0.165994 -0.366229
-0.050223 0.165420 -0.446780
-0.014497 0.165939 -0.442861
0.070915 0.152156 -0.344352
0.109003 0.152035 -0.322477
0.109523 0.152222 -0.343853
0.096343 0.151959 -0.359102
0.088887 0.151684 -0.330878
0.104975 0.152136 -0.313447
0.103374 0.151858 -0.337189
0.097070 0.151849 -0.308508
0.086533 0.151839 -0.357274
0.102277 0.152317 -0.328078
0.084208 0.152101 -0.336748
0.090336 0.152156 -0.314932
0.079206 0.152078 -0.342727
0.091601 0.152037 -0.340793
0.094133 0.152088 -0.325607
0.093439 0.151889 -0.350414
0.099328 0.152086 -0.343828
0.067100 0.151992 -0.333278
0.087009 0.152043 -0.322646
0.085692 0.151999 -0.346802
0.098369 0.152068 -0.318929
0.080241 0.152130 -0.319478
0.096123 0.152006 -0.334106
0.082121 0.152136 -0.310438
0.076247 0.152092 -0.334600
0.080854 0.152199 -0.328054
0.109936 0.152105 -0.332672
0.072543 0.151818 -0.314543
0.071908 0.152039 -0.324921
0.088852 0.152009 -0.303691
0.077955 0.151996 -0.352894
0.103559 0.152127 -0.352015
0.038893 0.170075 -0.330798
0.100240 0.169810 -0.296456
0.101313 0.170202 -0.329906
0.084238 0.170270 -0.354872
0.072936 0.169916 -0.309756
0.096376 0.170355 -0.282227
0.094111 0.169705 -0.319467
0.085913 0.169952 -0.274728
0.069349 0.170409 -0.350762
0.093073 0.170526 -0.305638
0.064136 0.170178 -0.318655
0.075841 0.170166 -0.285679
0.055680 0.170235 -0.328128
0.077079 0.170125 -0.324726
0.081651 0.170119 -0.301067
0.079291 0.170082 -0.340188
0.087786 0.170244 -0.329696
0.029340 0.169839 -0.313217
0.069787 0.170045 -0.296680
0.068551 0.170071 -0.334084
0.088044 0.170208 -0.291201
0.056022 0.170269 -0.291860
0.083999 0.170194 -0.314781
0.063525 0.170292 -0.278401
0.049318 0.170558 -0.314969
0.059260 0.170431 -0.305106
0.103764 0.170103 -0.312461
0.043101 0.169652 -0.281271
0.041785 0.170302 -0.299751
0.073198 0.169941 -0.267564
0.054766 0.170295 -0.344122
0.093080 0.170468 -0.342609
0.015572 0.152476 -0.387079
0.059003 0.151784 -0.366121
0.060336 0.152001 -0.385678
0.045273 0.152289 -0.400814
0.040861 0.151675 -0.371998
0.053108 0.151846 -0.357259
0.051447 0.168171 -0.379226
0.044857 0.151880 -0.350681
0.035745 0.152287 -0.397917
0.050259 0.152103 -0.371581
0.034449 0.152081 -0.378442
0.038572 0.152188 -0.357240
0.027657 0.152588 -0.385312
0.038250 0.152245 -0.385997
0.041194 0.169036 -0.366021
0.044269 0.151873 -0.390716
0.050657 0.151871 -0.382336
0.007283 0.152955 -0.375552
0.036375 0.152299 -0.365329
0.034884 0.168869 -0.387577
0.046248 0.151865 -0.362934
0.027141 0.151905 -0.362172
0.043735 0.152309 -0.378594
0.026742 0.151995 -0.352481
0.022824 0.152359 -0.376626
0.029311 0.152091 -0.370780
0.058607 0.151729 -0.375838
0.021801 0.168060 -0.363955
0.016246 0.152261 -0.365353
0.035387 0.151630 -0.345519
0.025224 0.152469 -0.395053
0.052880 0.152263 -0.392882
0.108906 0.151353 -0.340995
0.118619 0.157999 -0.314699
0.118385 0.156491 -0.332385
0.118629 0.155192 -0.360646
0.118910 0.152577 -0.326953
0.118450 0.155196 -0.302679
0.118704 0.165981 -0.331669
0.118829 0.160178 -0.285554
0.119673 0.156027 -0.350190
0.112670 0.152732 -0.316701
0.114011 0.151868 -0.334206
0.117225 0.153109 -0.297837
0.119957 0.157694 -0.327715
0.119789 0.160497 -0.338649
0.118646 0.167040 -0.315206
0.118848 0.153259 -0.340467
0.118411 0.153299 -0.332152
0.113267 0.159085 -0.324117
0.119685 0.159012 -0.307776
0.119376 0.163974 -0.345374
0.117955 0.152831 -0.308317
0.112470 0.152313 -0.296670
0.119452 0.163280 -0.321931
0.119306 0.154448 -0.291134
0.107511 0.152380 -0.324593
0.118260 0.153514 -0.321136
0.118520 0.154036 -0.317864
0.119609 0.165035 -0.299926
0.106840 0.151771 -0.310433
0.119156 0.153202 -0.276391
0.116621 0.152168 -0.353954
0.118071 0.153568 -0.346134
-0.020504 0.152811 -0.422614
0.038705 0.151780 -0.391091
0.040581 0.152141 -0.421574
0.019971 0.152551 -0.440822
0.008362 0.151733 -0.402650
0.031490 0.151785 -0.378029
0.030474 0.152029 -0.412829
0.020211 0.151861 -0.370167
0.006199 0.152583 -0.438106
0.027909 0.151992 -0.399069
0.001876 0.152315 -0.412101
0.010959 0.151960 -0.379241
-0.006593 0.152643 -0.418936
0.012529 0.152562 -0.416472
0.016435 0.152226 -0.395436
0.015859 0.152355 -0.428832
0.024032 0.151945 -0.420071
-0.028805 0.152537 -0.407494
0.005669 0.152303 -0.389871
0.003911 0.152464 -0.424816
0.022576 0.152202 -0.385838
-0.005985 0.152099 -0.386282
0.019425 0.152373 -0.407357
-0.001902 0.152316 -0.372914
-0.011624 0.152277 -0.407683
-0.002999 0.152687 -0.399385
0.039938 0.152009 -0.405398
-0.016688 0.152042 -0.378148
-0.018897 0.152480 -0.393983
0.008167 0.151935 -0.362737
-0.007703 0.152562 -0.433709
0.030760 0.152186 -0.431999
-0.002148 0.170440 -0.405967
0.057088 0.170017 -0.373012
0.058522 0.170542 -0.405521
0.039377 0.170276 -0.426943
0.028877 0.170359 -0.385933
0.050763 0.170410 -0.359190
0.050094 0.169940 -0.394413
0.039872 0.169906 -0.351463
0.025060 0.170223 -0.423803
0.047696 0.170794 -0.381223
0.020423 0.170321 -0.394137
0.031058 0.170380 -0.362226
0.012784 0.170373 -0.403483
0.032700 0.170279 -0.399967
0.036959 0.170226 -0.377462
0.034955 0.170300 -0.414386
0.043028 0.170640 -0.403779
-0.011795 0.170102 -0.390701
0.025660 0.170121 -0.373128
0.024504 0.170263 -0.408403
0.042726 0.170391 -0.367356
0.013842 0.170497 -0.367717
0.039494 0.170517 -0.390619
0.019335 0.170487 -0.354152
0.007324 0.171133 -0.390519
0.016049 0.170676 -0.380968
0.060355 0.170583 -0.388553
0.001800 0.169764 -0.358390
0.000117 0.170750 -0.376807
0.028647 0.169872 -0.344247
0.011286 0.170335 -0.418275
0.049497 0.170835 -0.416092
-0.008426 0.153313 -0.430813
0.052411 0.151613 -0.404712
0.055322 0.152214 -0.426224
0.034918 0.153250 -0.445921
0.025126 0.151864 -0.412377
0.044910 0.151829 -0.394988
0.043575 0.156152 -0.420633
0.034338 0.151725 -0.388219
0.022051 0.153058 -0.442035
0.040403 0.152119 -0.409679
0.017023 0.152398 -0.419948
0.025650 0.152136 -0.395714
0.007850 0.152745 -0.426890
0.025928 0.152581 -0.424221
0.028145 0.162129 -0.409501
0.031231 0.152388 -0.433387
0.038764 0.152000 -0.424541
-0.022073 0.152551 -0.418043
0.020546 0.152407 -0.404150
0.018165 0.157397 -0.431035
0.034835 0.151920 -0.401522
0.008452 0.152117 -0.401969
0.033263 0.152172 -0.417088
0.012016 0.152174 -0.390051
0.001702 0.152703 -0.416741
0.011707 0.152517 -0.411203
0.051304 0.151855 -0.415250
-0.002200 0.155939 -0.397672
-0.007472 0.152805 -0.406361
0.022374 0.151791 -0.381500
0.006384 0.153209 -0.441235
0.045050 0.152786 -0.435596
0.053785 0.152153 -0.383440
0.090908 0.151957 -0.362131
0.091015 0.152143 -0.382448
0.077896 0.151993 -0.397339
0.071244 0.151794 -0.370346
0.087052 0.152099 -0.353339
0.085210 0.151901 -0.376029
0.079352 0.151897 -0.348866
0.068759 0.151908 -0.395518
0.084305 0.152316 -0.367460
0.066512 0.152147 -0.375861
0.072961 0.152231 -0.355120
0.061825 0.152135 -0.381848
0.073805 0.152043 -0.379685
0.076374 0.152162 -0.365172
0.075461 0.151923 -0.388810
0.081081 0.152131 -0.382344
0.050068 0.151943 -0.372950
0.069676 0.152090 -0.362486
0.068053 0.152102 -0.385605
0.080679 0.152074 -0.358880
0.063119 0.152145 -0.359705
0.078187 0.152026 -0.373257
0.065231 0.152094 -0.351001
0.059018 0.152117 -0.373943
0.063705 0.152201 -0.367771
0.091751 0.152045 -0.371780
0.055982 0.151831 -0.354951
0.054934 0.152016 -0.364888
0.071804 0.152011 -0.344278
0.060439 0.152107 -0.391742
0.085117 0.152171 -0.390274
-0.097272 0.166026 -0.448289
-0.014665 0.169708 -0.422598
-0.008885 0.167913 -0.448357
-0.039204 0.159145 -0.450282
-0.060005 0.167839 -0.437212
-0.029160 0.169722 -0.409184
-0.027071 0.168120 -0.443176
-0.042875 0.168976 -0.396089
-0.057679 0.158908 -0.450379
-0.032217 0.170344 -0.429890
-0.070056 0.169430 -0.442004
-0.057336 0.169998 -0.409698
-0.079847 0.167743 -0.445520
-0.053100 0.168693 -0.444097
-0.050270 0.169464 -0.428117
-0.047664 0.165953 -0.449101
-0.034595 0.167530 -0.446307
-0.114055 0.168421 -0.441323
-0.065444 0.169574 -0.422862
-0.063166 0.166332 -0.448318
-0.042901 0.169549 -0.417090
-0.081120 0.170059 -0.416870
-0.041630 0.169220 -0.438444
-0.072682 0.169243 -0.398070
-0.087686 0.169239 -0.440402
-0.075738 0.169406 -0.431511
-0.017573 0.169347 -0.436639
-0.093329 0.169133 -0.402716
-0.096000 0.170183 -0.427828
-0.060136 0.168667 -0.388164
-0.076532 0.161567 -0.450603
-0.021131 0.164368 -0.450213
-0.013723 0.161153 -0.447852
0.056951 0.164465 -0.418654
0.064830 0.160049 -0.441742
0.037780 0.160195 -0.452916
0.016651 0.154688 -0.428229
0.046079 0.155484 -0.405661
0.047912 0.165687 -0.443028
0.036654 0.164118 -0.389551
0.021072 0.165640 -0.452185
0.038541 0.156234 -0.423054
0.017221 0.156161 -0.441044
0.022581 0.156196 -0.397287
-0.001516 0.166007 -0.438682
0.020310 0.165763 -0.440886
0.025164 0.166418 -0.423551
0.029798 0.160251 -0.447132
0.042918 0.155335 -0.439348
-0.027365 0.165644 -0.439299
0.012991 0.166085 -0.410410
0.009196 0.166649 -0.446455
0.030660 0.160579 -0.411287
0.001025 0.155622 -0.407071
0.034289 0.165668 -0.433592
0.000473 0.164575 -0.390283
-0.007432 0.156737 -0.434002
0.003585 0.162011 -0.425851
0.051552 0.159682 -0.428852
-0.011998 0.166184 -0.408320
-0.018208 0.160687 -0.420812
0.018232 0.160162 -0.379655
0.006290 0.157250 -0.448820
0.051940 0.157186 -0.449231
0.090136 0.153054 -0.370784
0.117019 0.159218 -0.342706
0.116195 0.156744 -0.370499
0.116201 0.152732 -0.398438
0.112541 0.152264 -0.356827
0.117144 0.153932 -0.331117
0.117301 0.167111 -0.364569
0.117192 0.153248 -0.317360
0.107547 0.151687 -0.393372
0.115267 0.153261 -0.348363
0.105706 0.152725 -0.362849
0.110993 0.152706 -0.328379
0.103048 0.151800 -0.373206
0.112282 0.152313 -0.372526
0.117178 0.166146 -0.347548
0.111736 0.152480 -0.383630
0.119526 0.153177 -0.375236
0.086623 0.152342 -0.350926
0.110578 0.151448 -0.344704
0.115296 0.162210 -0.376880
0.116234 0.152678 -0.337665
0.100243 0.152622 -0.336812
0.117506 0.153791 -0.362893
0.099193 0.151878 -0.319048
0.094976 0.153403 -0.361381
0.099025 0.152572 -0.349736
0.116335 0.154768 -0.355163
0.108799 0.161858 -0.333711
0.092141 0.153397 -0.340335
0.110327 0.152027 -0.308794
0.097028 0.152403 -0.384403
0.117328 0.154847 -0.387168
0.049423 0.170484 -0.357057
0.115042 0.168836 -0.325865
0.115737 0.168896 -0.356260
0.109801 0.171233 -0.380027
0.086753 0.172280 -0.336623
0.113818 0.170307 -0.312582
0.111201 0.170547 -0.349291
0.107088 0.171448 -0.301055
0.088830 0.171463 -0.375934
0.111699 0.171893 -0.333859
0.076562 0.171625 -0.345217
0.091156 0.172262 -0.312409
0.066935 0.171467 -0.353753
0.094294 0.171923 -0.351913
0.097326 0.171698 -0.330219
0.099424 0.171422 -0.366740
0.108773 0.171314 -0.360301
0.037965 0.170218 -0.339538
0.080995 0.171947 -0.324483
0.083736 0.171863 -0.360322
0.104672 0.171541 -0.319995
0.063436 0.172497 -0.319742
0.102055 0.171444 -0.343353
0.074816 0.172280 -0.303803
0.057780 0.171958 -0.341436
0.069120 0.171630 -0.333414
0.115150 0.169074 -0.341412
0.048619 0.171223 -0.307746
0.049961 0.171040 -0.326614
0.089652 0.172279 -0.292465
0.068714 0.171542 -0.369289
0.114251 0.170559 -0.369857
0.077132 0.152574 -0.372698
0.112820 0.152324 -0.345789
0.113784 0.152618 -0.372976
0.104523 0.152249 -0.394370
0.096092 0.151874 -0.356180
0.111114 0.152483 -0.333374
0.109453 0.151971 -0.365195
0.104406 0.152059 -0.325048
0.094080 0.151914 -0.390432
0.108606 0.152638 -0.353427
0.092425 0.152337 -0.363711
0.097483 0.152401 -0.333870
0.086606 0.152239 -0.370712
0.099226 0.152140 -0.369762
0.101706 0.152143 -0.349500
0.100946 0.151985 -0.382396
0.106757 0.152405 -0.374833
0.073240 0.152437 -0.356726
0.094867 0.152210 -0.345180
0.093132 0.152044 -0.377079
0.105009 0.152309 -0.340356
0.087468 0.152445 -0.339656
0.103305 0.152244 -0.360883
0.089563 0.152438 -0.326639
0.083384 0.152536 -0.360731
0.087943 0.152424 -0.351945
0.114626 0.152535 -0.359171
0.078516 0.152020 -0.331898
0.078604 0.152430 -0.346206
0.096036 0.152238 -0.316723
0.084515 0.152183 -0.384172
0.110313 0.152516 -0.384761
0.030514 0.152383 -0.423105
0.071931 0.151845 -0.402898
0.073147 0.152188 -0.421637
0.058271 0.152033 -0.435537
0.049462 0.151961 -0.410817
0.066970 0.152057 -0.394194
0.065395 0.151771 -0.415514
0.058334 0.151940 -0.389240
0.047876 0.152018 -0.433801
0.063735 0.152361 -0.407794
0.044307 0.152330 -0.415781
0.051558 0.152464 -0.395975
0.039288 0.152165 -0.421386
0.052525 0.152028 -0.418825
0.054903 0.151903 -0.405940
0.054751 0.151986 -0.427320
0.060681 0.152245 -0.421273
0.025362 0.152018 -0.413249
0.047412 0.152151 -0.403228
0.046539 0.152056 -0.424363
0.059496 0.152085 -0.399829
0.039810 0.152346 -0.400610
0.057409 0.152013 -0.413219
0.042825 0.152201 -0.391633
0.035941 0.152291 -0.413702
0.041456 0.152209 -0.408512
0.072313 0.152040 -0.411942
0.032390 0.151738 -0.395071
0.031292 0.152255 -0.405633
0.049551 0.152192 -0.384150
0.038324 0.152419 -0.431225
0.066320 0.152301 -0.428448
0.000409 0.170708 -0.375845
0.077478 0.170282 -0.341489
0.081184 0.170612 -0.376001
0.060921 0.170679 -0.399883
0.042885 0.170502 -0.354691
0.072095 0.170859 -0.327160
0.069899 0.170163 -0.365133
0.059427 0.170345 -0.318966
0.041102 0.170963 -0.396014
0.068033 0.171101 -0.350323
0.032416 0.170907 -0.364199
0.047096 0.170918 -0.330608
0.020981 0.170853 -0.373223
0.048366 0.170573 -0.369310
0.053414 0.170290 -0.346184
0.053097 0.170471 -0.385280
0.061944 0.170769 -0.374829
-0.014234 0.170452 -0.357413
0.037926 0.170658 -0.341332
0.038570 0.170358 -0.379035
0.061230 0.170669 -0.335839
0.019444 0.170990 -0.336717
0.057384 0.170492 -0.359751
0.029614 0.170964 -0.322890
0.013211 0.171203 -0.359417
0.025711 0.170977 -0.350522
0.081171 0.170432 -0.357733
0.003490 0.170264 -0.323921
0.001931 0.170859 -0.344298
0.041565 0.170597 -0.311685
0.022497 0.171067 -0.389764
0.070374 0.170847 -0.387797
0.052829 0.169954 -0.398291
0.096317 0.168120 -0.360989
0.099232 0.169351 -0.382409
0.084418 0.169062 -0.412577
0.068891 0.153409 -0.371702
0.092669 0.154355 -0.351356
0.092488 0.167728 -0.392565
0.088851 0.168190 -0.341744
0.070424 0.168520 -0.408953
0.083570 0.154837 -0.367908
0.076333 0.153889 -0.389004
0.073991 0.153816 -0.343165
0.060004 0.167839 -0.382547
0.073013 0.168615 -0.383695
0.077650 0.167621 -0.369193
0.079465 0.169090 -0.397306
0.096149 0.153082 -0.383762
0.043504 0.168344 -0.382608
0.071454 0.168349 -0.356039
0.067605 0.167870 -0.394165
0.082219 0.169654 -0.356598
0.056884 0.154700 -0.353527
0.083506 0.168309 -0.382284
0.064505 0.169223 -0.339740
0.053902 0.154993 -0.382337
0.064750 0.169623 -0.368423
0.088008 0.169666 -0.371919
0.054509 0.167289 -0.351306
0.048228 0.170308 -0.366809
0.075718 0.169234 -0.331603
0.064138 0.154471 -0.405485
0.086639 0.154369 -0.405526
0.055159 0.152463 -0.403591
0.099972 0.151918 -0.378941
0.101409 0.152338 -0.402568
0.087534 0.152126 -0.419704
0.077645 0.151910 -0.388117
0.095834 0.152127 -0.368716
0.094378 0.151880 -0.395080
0.087010 0.151914 -0.362531
0.075726 0.151969 -0.417424
0.092613 0.152400 -0.385044
0.072488 0.152327 -0.394820
0.079610 0.152379 -0.369907
0.066032 0.152249 -0.401321
0.081118 0.152105 -0.398992
0.083829 0.152008 -0.382153
0.083509 0.151992 -0.409902
0.089790 0.152243 -0.402547
0.048901 0.152238 -0.390324
0.075511 0.152170 -0.378549
0.074450 0.152069 -0.405666
0.088338 0.152130 -0.374742
0.066321 0.152335 -0.374918
0.086310 0.152135 -0.391557
0.069706 0.152315 -0.364317
0.062079 0.152439 -0.391937
0.068414 0.152361 -0.385027
0.101427 0.152186 -0.390295
0.057016 0.151877 -0.367685
0.055966 0.152418 -0.380637
0.077002 0.152110 -0.356224
0.065038 0.152296 -0.413267
0.094935 0.152336 -0.411444
0.033375 0.170853 -0.396019
0.106011 0.170529 -0.363349
0.107717 0.170905 -0.393966
0.095054 0.171217 -0.417615
0.075558 0.171244 -0.374937
0.102279 0.171530 -0.350854
0.100266 0.170756 -0.385702
0.093685 0.171264 -0.341945
0.076354 0.171274 -0.414026
0.100042 0.171946 -0.371691
0.065402 0.171344 -0.383926
0.079580 0.171535 -0.352521
0.054676 0.171336 -0.392680
0.082528 0.171446 -0.389416
0.086046 0.171412 -0.367716
0.086667 0.171126 -0.404334
0.095596 0.171419 -0.395966
0.018748 0.170546 -0.378854
0.070559 0.171418 -0.362793
0.072616 0.171228 -0.398137
0.093169 0.171330 -0.358428
0.051794 0.171668 -0.358587
0.090583 0.171288 -0.380483
0.062894 0.171578 -0.344500
0.045198 0.171739 -0.380081
0.058069 0.171428 -0.371357
0.107823 0.170905 -0.378855
0.036712 0.170839 -0.346879
0.033810 0.171155 -0.365488
0.076400 0.171459 -0.335669
0.056813 0.171360 -0.408575
0.102015 0.171480 -0.406986
-0.020751 0.160666 -0.450920
0.081822 0.166216 -0.440511
0.093460 0.161850 -0.451277
0.049284 0.159463 -0.452553
0.022361 0.152168 -0.445371
0.069102 0.163441 -0.431035
0.064973 0.165155 -0.449253
0.051756 0.165654 -0.414921
0.030814 0.162348 -0.451985
0.045216 0.154442 -0.443403
0.027160 0.156720 -0.451591
0.033217 0.158610 -0.424237
-0.003998 0.165779 -0.448390
0.027209 0.166088 -0.449239
0.037092 0.167365 -0.439867
0.042387 0.162829 -0.451371
0.062365 0.151744 -0.448505
-0.043173 0.165405 -0.448659
0.019488 0.167510 -0.432456
0.015716 0.166245 -0.449634
0.041621 0.165743 -0.436051
-0.000061 0.159559 -0.432710
0.051098 0.166302 -0.446661
0.004205 0.166919 -0.417080
-0.010357 0.152539 -0.447434
0.006338 0.166260 -0.444163
0.067519 0.162914 -0.446887
-0.013861 0.167885 -0.428260
-0.025257 0.166093 -0.441201
0.023462 0.165863 -0.404681
0.009659 0.158116 -0.451704
0.076306 0.158254 -0.454015
0.050279 0.152423 -0.426566
0.094490 0.151870 -0.402920
0.096377 0.152367 -0.425396
0.081869 0.152221 -0.441745
0.071407 0.151915 -0.411655
0.089414 0.152039 -0.393012
0.088718 0.151827 -0.418211
0.080516 0.151832 -0.386967
0.070085 0.152075 -0.439535
0.086547 0.152341 -0.408697
0.066323 0.152330 -0.417968
0.073156 0.152363 -0.394189
0.060320 0.152173 -0.424269
0.075058 0.152110 -0.421825
0.077497 0.151979 -0.406114
0.077579 0.152085 -0.432117
0.083929 0.152301 -0.425065
0.044493 0.152052 -0.414251
0.069084 0.152095 -0.402631
0.068447 0.152084 -0.428316
0.081938 0.152011 -0.398975
0.060499 0.152250 -0.399099
0.080142 0.152054 -0.414923
0.063405 0.152140 -0.388716
0.056479 0.152288 -0.415263
0.062316 0.152263 -0.408814
0.095702 0.152079 -0.413713
0.051734 0.151653 -0.392728
0.050780 0.152239 -0.404876
0.070808 0.151978 -0.380744
0.059296 0.152415 -0.436060
0.089802 0.152404 -0.433718
0.110212 0.169935 -0.411017
0.115847 0.167977 -0.377672
0.116199 0.165554 -0.398717
0.116408 0.168263 -0.435968
0.118039 0.162477 -0.393233
0.115858 0.167903 -0.362048
0.115329 0.168689 -0.402417
0.115563 0.169239 -0.339394
0.117304 0.168376 -0.423405
0.117443 0.159240 -0.379481
0.117088 0.163311 -0.404401
0.117851 0.161164 -0.354124
0.113652 0.170484 -0.397347
0.116028 0.169884 -0.409433
0.113770 0.169901 -0.378933
0.117780 0.166060 -0.410983
0.117436 0.157987 -0.401359
0.105223 0.170677 -0.391435
0.116018 0.169857 -0.369148
0.113949 0.170891 -0.416412
0.117371 0.162659 -0.369909
0.116594 0.165933 -0.357422
0.116772 0.169682 -0.389560
0.116101 0.169818 -0.348444
0.113761 0.163770 -0.391703
0.115091 0.169108 -0.387621
0.116769 0.164501 -0.384208
0.111841 0.170197 -0.358449
0.109267 0.170163 -0.375004
0.117196 0.167151 -0.326058
0.116893 0.166017 -0.427724
0.116884 0.160839 -0.418202
-0.019144 0.154048 -0.448106
0.076958 0.162032 -0.451009
0.089516 0.155951 -0.451522
0.070686 0.155630 -0.450389
0.035326 0.154014 -0.449501
0.080306 0.151491 -0.449105
0.065767 0.165982 -0.448731
0.062620 0.157750 -0.448359
0.046452 0.160299 -0.450096
0.031596 0.148976 -0.441501
0.046759 0.152282 -0.449871
0.054778 0.150282 -0.442370
0.011087 0.163149 -0.448735
0.031129 0.161094 -0.450052
0.048456 0.167792 -0.447059
0.055227 0.155386 -0.450694
0.049348 0.149174 -0.444663
-0.034037 0.162802 -0.448345
0.038751 0.165049 -0.448538
0.024583 0.166765 -0.448022
0.038097 0.150519 -0.447270
0.013709 0.148999 -0.447141
0.055577 0.163339 -0.450094
-0.002049 0.157316 -0.447142
-0.003768 0.149914 -0.444131
0.019016 0.157260 -0.449272
0.062019 0.151290 -0.449856
-0.005657 0.166243 -0.447019
-0.038360 0.153455 -0.447852
0.010507 0.151953 -0.442435
0.027068 0.152076 -0.448732
0.070165 0.150461 -0.448138
0.040252 0.156692 -0.428081
0.088711 0.169771 -0.395960
0.095377 0.157724 -0.416815
0.074786 0.154884 -0.445849
0.062302 0.152753 -0.406243
0.083969 0.152175 -0.385283
0.084155 0.167375 -0.419380
0.075228 0.168774 -0.375184
0.068252 0.169962 -0.438005
0.074243 0.153444 -0.400646
0.060143 0.153357 -0.419140
0.068890 0.153815 -0.377856
0.052627 0.169580 -0.412098
0.064362 0.169454 -0.420118
0.070507 0.166769 -0.398829
0.070402 0.155640 -0.428208
0.078561 0.152761 -0.416022
0.032461 0.169594 -0.413162
0.061216 0.169741 -0.388328
0.053692 0.167278 -0.429713
0.068041 0.155325 -0.389721
0.050365 0.153329 -0.386767
0.073976 0.169249 -0.411190
0.049686 0.168237 -0.374825
0.044351 0.153908 -0.411123
0.053723 0.158867 -0.401438
0.084643 0.156271 -0.404050
0.041645 0.166829 -0.388984
0.034323 0.156136 -0.396813
0.059393 0.155003 -0.363954
0.055278 0.153619 -0.437366
0.084190 0.153033 -0.431723
0.103189 0.152954 -0.431757
0.115157 0.158297 -0.405169
0.115493 0.155909 -0.424352
0.115701 0.155045 -0.446721
0.115528 0.153594 -0.417818
0.114686 0.155657 -0.389721
0.115951 0.166716 -0.424318
0.114832 0.158076 -0.369722
0.116192 0.156596 -0.440059
0.110609 0.153779 -0.406854
0.109191 0.152626 -0.424914
0.112918 0.154217 -0.383352
0.114678 0.156851 -0.422610
0.115755 0.157876 -0.430349
0.116010 0.166329 -0.407866
0.115250 0.153132 -0.432836
0.115478 0.153984 -0.425590
0.104362 0.157036 -0.416111
0.115839 0.156695 -0.399949
0.116199 0.165307 -0.434747
0.114517 0.153342 -0.395705
0.106848 0.152959 -0.388330
0.116741 0.161118 -0.417138
0.112837 0.152807 -0.374391
0.103348 0.153372 -0.417883
0.111418 0.152102 -0.411635
0.115234 0.154060 -0.410618
0.116249 0.164914 -0.390203
0.101823 0.152373 -0.400915
0.114464 0.152929 -0.358847
0.109917 0.152831 -0.440559
0.116034 0.154829 -0.436964
-0.007136 0.154306 -0.446717
0.079013 0.154875 -0.450530
0.085596 0.153065 -0.449759
0.065307 0.154841 -0.450116
0.040847 0.151836 -0.447160
0.073960 0.152796 -0.444458
0.067504 0.162047 -0.449864
0.062860 0.150674 -0.435831
0.050729 0.156368 -0.449422
0.050674 0.152615 -0.442478
0.043574 0.153096 -0.448527
0.050762 0.153642 -0.436629
0.017427 0.156939 -0.448932
0.040143 0.154850 -0.450260
0.050544 0.164596 -0.450095
0.056392 0.153443 -0.449686
0.060749 0.152557 -0.445864
-0.029746 0.155376 -0.447471
0.038731 0.155687 -0.448350
0.034610 0.162127 -0.448233
0.047667 0.152835 -0.444607
0.018460 0.152465 -0.444597
0.059382 0.156084 -0.450702
0.014045 0.151624 -0.437699
0.005927 0.152591 -0.444790
0.023878 0.153526 -0.448155
0.066714 0.152306 -0.449139
0.002600 0.161055 -0.448471
-0.020693 0.152425 -0.445943
0.027932 0.152014 -0.427891
0.032377 0.152905 -0.447155
0.074192 0.153499 -0.448966
0.113743 0.157655 -0.435195
0.114624 0.161903 -0.411010
0.114630 0.162587 -0.426021
0.115209 0.161795 -0.451662
0.115862 0.156970 -0.422398
0.113862 0.159302 -0.398933
0.114872 0.167999 -0.426866
0.114178 0.164857 -0.383251
0.116151 0.161684 -0.440860
0.113637 0.154137 -0.410621
0.114836 0.154966 -0.429478
0.114146 0.154192 -0.395283
0.116029 0.164988 -0.421077
0.116470 0.165639 -0.432268
0.114557 0.168278 -0.408125
0.115915 0.159124 -0.431894
0.114333 0.153921 -0.424060
0.112047 0.167991 -0.419085
0.115706 0.164171 -0.402699
0.115457 0.167570 -0.438485
0.114836 0.155711 -0.404213
0.114382 0.155658 -0.388499
0.115482 0.166291 -0.413436
0.115935 0.161493 -0.391172
0.112691 0.154606 -0.417776
0.116087 0.160136 -0.417955
0.114875 0.157673 -0.412655
0.114861 0.167072 -0.395859
0.112186 0.158469 -0.406236
0.115164 0.158850 -0.374414
0.115733 0.155792 -0.447271
0.114537 0.154760 -0.438294
0.035093 0.170776 -0.438911
0.099081 0.171153 -0.408239
0.102383 0.171052 -0.438040
0.085003 0.169896 -0.451936
0.068540 0.171467 -0.422010
0.092369 0.171625 -0.392513
0.092277 0.170639 -0.430709
0.082756 0.171240 -0.377982
0.069548 0.169887 -0.450294
0.089770 0.171928 -0.416923
0.059226 0.171356 -0.429927
0.070483 0.171878 -0.393285
0.051343 0.170975 -0.436303
0.074400 0.170901 -0.433627
0.076700 0.171349 -0.413601
0.078123 0.170658 -0.444142
0.086850 0.171312 -0.437484
0.022021 0.170810 -0.426108
0.063651 0.171217 -0.407703
0.066003 0.170695 -0.439661
0.082699 0.171435 -0.401414
0.048781 0.171870 -0.400418
0.081976 0.171181 -0.426232
0.055700 0.171568 -0.380629
0.043960 0.171786 -0.426272
0.053428 0.171030 -0.416575
0.100382 0.171218 -0.424226
0.036106 0.170756 -0.386448
0.034808 0.171658 -0.410818
0.067073 0.171407 -0.368057
0.053030 0.170443 -0.447426
0.094887 0.171043 -0.445674
0.025864 0.163796 -0.449288
0.090546 0.167105 -0.436857
0.095226 0.165892 -0.451790
0.070533 0.160065 -0.449776
0.056145 0.160751 -0.446858
0.080253 0.167197 -0.421380
0.078965 0.165707 -0.449297
0.070240 0.166047 -0.404734
0.060098 0.160949 -0.449650
0.076122 0.167584 -0.441285
0.048540 0.166342 -0.448716
0.057115 0.167668 -0.419065
0.039221 0.165666 -0.449861
0.060935 0.166033 -0.449513
0.062855 0.166359 -0.440630
0.066557 0.164270 -0.450934
0.076225 0.162643 -0.450099
0.008870 0.165785 -0.448022
0.050936 0.166513 -0.434637
0.054614 0.165179 -0.450029
0.068459 0.166848 -0.429422
0.037936 0.167514 -0.428316
0.070310 0.166345 -0.447459
0.043300 0.166600 -0.406518
0.033688 0.163897 -0.448732
0.042526 0.166241 -0.442154
0.085825 0.166584 -0.446964
0.027276 0.166501 -0.416344
0.024722 0.167219 -0.438702
0.054828 0.166272 -0.394829
0.046331 0.160249 -0.450518
0.086280 0.162764 -0.450664
0.022082 0.169836 -0.438676
0.086622 0.170804 -0.407660
0.090801 0.170626 -0.439291
0.069410 0.167414 -0.448669
0.051114 0.170404 -0.422836
0.077288 0.170827 -0.391172
0.077892 0.170149 -0.431706
0.065756 0.170200 -0.377036
0.053160 0.167364 -0.447244
0.073608 0.170855 -0.417215
0.044180 0.170754 -0.430368
0.053758 0.170945 -0.392067
0.035612 0.170200 -0.435636
0.057062 0.170255 -0.434520
0.059628 0.170331 -0.413411
0.061584 0.169489 -0.443003
0.070862 0.170316 -0.437754
0.011287 0.170445 -0.426857
0.047092 0.170419 -0.407473
0.048516 0.169580 -0.440277
0.065398 0.170552 -0.400930
0.034010 0.171024 -0.399302
0.065320 0.170369 -0.426375
0.039304 0.170695 -0.379992
0.029693 0.170859 -0.427051
0.038109 0.170363 -0.417360
0.086173 0.170498 -0.424442
0.022204 0.170210 -0.384922
0.021900 0.170899 -0.411045
0.049783 0.170313 -0.368214
0.037840 0.168538 -0.445323
0.081558 0.169272 -0.445226
0.069931 0.165959 -0.449880
0.117977 0.169517 -0.438953
0.120456 0.166413 -0.444272
0.108646 0.162937 -0.448933
0.096662 0.157273 -0.448165
0.115972 0.169433 -0.431263
0.115076 0.168551 -0.445691
0.113668 0.170264 -0.420903
0.099837 0.167998 -0.449194
0.106976 0.158117 -0.445515
0.096913 0.161984 -0.451056
0.104174 0.163609 -0.430723
0.080215 0.168687 -0.448535
0.101525 0.169879 -0.446066
0.104969 0.170260 -0.440730
0.108904 0.167913 -0.448635
0.113247 0.154700 -0.446370
0.057082 0.170199 -0.447456
0.097983 0.170928 -0.436040
0.093552 0.170758 -0.445201
0.110223 0.170269 -0.439293
0.082569 0.165881 -0.439977
0.111115 0.169498 -0.446326
0.089499 0.171149 -0.422789
0.076099 0.157587 -0.448720
0.087990 0.169570 -0.445325
0.115563 0.167745 -0.445049
0.076655 0.170881 -0.435289
0.067112 0.170160 -0.444003
0.102704 0.171385 -0.410993
0.087184 0.162991 -0.451241
0.119211 0.164696 -0.446415
0.051705 0.153796 -0.450198
0.114736 0.159619 -0.451584
0.121117 0.155436 -0.450622
0.105391 0.156251 -0.450669
0.082041 0.153437 -0.450246
0.111876 0.153927 -0.446837
0.106121 0.165015 -0.451183
0.102767 0.151015 -0.445462
0.089898 0.158195 -0.451038
0.084587 0.153594 -0.438698
