-0.113947 -0.168497 0.379859
-0.128303 -0.136258 0.379845
-0.107113 -0.130396 0.397396
-0.126202 -0.074074 0.401587
-0.113992 -0.030848 0.419972
-0.128303 -0.097327 0.379845
-0.107113 -0.091555 0.397396
-0.128303 -0.063958 0.379845
-0.107113 -0.058262 0.397396
-0.132292 0.007436 0.401113
-0.107113 -0.024969 0.397396
-0.128303 -0.025027 0.379845
-0.128303 0.002781 0.379845
-0.134696 0.075524 0.406021
-0.107113 0.013872 0.397396
-0.132020 0.039337 0.377704
-0.137654 0.127441 0.403422
-0.107113 0.063811 0.397396
-0.129547 0.145166 0.414223
-0.113947 0.046958 0.379859
-0.128303 0.086204 0.379845
-0.135187 0.164481 0.404936
-0.104184 0.113844 0.402492
-0.136151 0.156828 0.395216
-0.126774 0.113843 0.378042
-0.092087 0.166101 0.423110
-0.153452 0.156129 0.367876
-0.141518 0.107591 0.343796
-0.058827 0.157356 0.423266
-0.117185 0.137093 0.369951
-0.088977 0.149192 0.394403
-0.063739 0.137394 0.397651
-0.022939 0.165759 0.428790
0.130858 -0.150663 0.399943
0.120812 -0.169692 0.380228
-0.053729 0.159268 0.396858
-0.103265 0.163818 0.362899
-0.002256 0.144529 0.426199
0.130012 -0.081595 0.416891
-0.136679 0.148783 0.323846
0.108078 -0.041083 0.411314
-0.017870 0.113838 0.387642
0.120812 -0.130343 0.380228
-0.029618 0.130248 0.382905
0.109446 -0.101433 0.380212
-0.046641 0.113842 0.356626
0.010691 0.158240 0.415176
0.004871 0.112024 0.391111
-0.143543 0.166174 0.305254
0.130842 -0.090992 0.391017
-0.068187 0.113841 0.333322
-0.035569 0.118772 0.356731
0.109446 -0.061849 0.380212
0.130858 -0.051868 0.399943
-0.131123 0.164538 0.303764
-0.096914 0.113840 0.302250
-0.022381 0.155236 0.366660
-0.087497 0.128705 0.306123
-0.064033 0.160329 0.335186
0.038150 0.150677 0.404913
-0.004006 0.164325 0.375861
0.130858 -0.002470 0.399943
0.120812 -0.022134 0.380228
0.059801 0.169975 0.419212
0.029450 0.126896 0.375028
0.109446 0.012370 0.380212
0.119392 0.001395 0.381110
0.082027 0.161431 0.417426
0.081319 0.113837 0.396426
0.130858 0.041988 0.399943
0.133569 0.049898 0.401902
0.051475 0.147901 0.384705
0.109446 0.042057 0.380212
0.123852 0.159096 0.438744
0.060648 0.113847 0.374278
0.081173 0.161256 0.407538
-0.114533 0.157917 0.260638
0.130858 0.071627 0.399943
0.110393 0.120819 0.405320
-0.131867 0.135510 0.235810
0.040058 0.113846 0.352009
-0.093807 0.158505 0.272598
-0.041900 0.159807 0.310709
0.109446 0.071745 0.380212
0.135215 0.024091 0.376438
0.019468 0.113845 0.329739
0.115186 0.165727 0.417643
0.087819 0.140659 0.385880
0.130267 0.101859 0.398872
-0.129732 0.166864 0.238003
-0.063775 0.159018 0.282974
-0.155608 0.162233 0.215977
0.021500 0.158152 0.343115
-0.001121 0.113845 0.307470
0.130858 0.111145 0.399943
0.109446 0.101433 0.380212
-0.025142 0.113844 0.281490
-0.045731 0.113843 0.259221
0.141140 0.167967 0.415898
0.167716 0.159814 0.430398
0.133685 0.150110 0.395415
-0.073182 0.113841 0.229531
0.091239 0.161330 0.367011
0.010908 0.123186 0.290182
0.125370 0.149151 0.382597
0.130794 0.118787 0.365356
0.132612 0.113838 0.361867
0.061240 0.159223 0.329017
-0.131570 0.113845 0.166495
0.133644 0.143325 0.368953
-0.113412 0.166028 0.198706
0.109520 0.113851 0.337132
-0.008000 0.155591 0.268260
0.165448 0.171975 0.397434
-0.153422 0.159580 0.158665
0.120989 0.164566 0.359871
-0.062035 0.139763 0.215188
0.079955 0.113849 0.305139
-0.099209 0.156455 0.191675
-0.118520 0.128917 0.163658
0.146350 0.152546 0.357874
0.067818 0.156921 0.301748
-0.070093 0.162077 0.202566
0.040527 0.113847 0.262495
0.133590 0.126583 0.334710
0.167617 0.169199 0.367082
0.010956 0.113846 0.230513
0.133590 0.155243 0.334710
0.040819 0.170156 0.266294
-0.025185 0.113844 0.191425
0.133551 0.125005 0.309774
-0.113993 0.161235 0.138830
-0.146412 0.151221 0.109062
-0.061324 0.113843 0.152338
0.059863 0.125882 0.244219
-0.134676 0.168660 0.119255
0.096039 0.165040 0.286183
-0.018708 0.165864 0.200826
0.135743 0.140047 0.301232
0.165997 0.171328 0.335111
-0.084322 0.113842 0.127466
0.157162 0.166757 0.319274
-0.104034 0.113841 0.106146
0.119751 0.113851 0.265498
-0.123773 0.113843 0.084852
0.118803 0.162493 0.280487
0.035595 0.149497 0.213742
0.100836 0.113851 0.245053
0.081921 0.113850 0.224607
0.166421 0.159089 0.301011
-0.078205 0.167064 0.125606
-0.038543 0.139513 0.140112
0.056712 0.113849 0.197334
-0.159354 0.162222 0.056130
0.008433 0.159532 0.176908
0.037805 0.113848 0.176880
0.133476 0.154182 0.261723
0.135628 0.164762 0.265853
-0.081250 0.130147 0.087397
0.006290 0.113846 0.142796
-0.018921 0.113845 0.115529
0.133428 0.124548 0.230966
0.112783 0.161434 0.230780
0.087367 0.157179 0.206316
-0.131481 0.164887 0.047420
0.167420 0.169794 0.267206
-0.047283 0.113844 0.084854
-0.112357 0.163795 0.054488
-0.099878 0.155403 0.057277
-0.126930 0.137284 0.024653
-0.078796 0.113843 0.050773
-0.145114 0.161652 0.021501
-0.047979 0.158529 0.093300
-0.022556 0.154380 0.107860
0.133715 0.128329 0.209360
0.126155 0.113850 0.196203
0.108659 0.171445 0.207091
-0.107157 0.113841 0.020100
0.047839 0.158772 0.153780
0.107982 0.113850 0.176559
0.013253 0.125412 0.110627
0.085735 0.131245 0.165343
-0.129253 0.113845 -0.003727
0.145430 0.155621 0.216726
0.086781 0.113849 0.153642
0.166109 0.171051 0.230266
0.133381 0.158256 0.201175
0.047407 0.113849 0.111081
0.017128 0.113848 0.078332
-0.146875 0.146284 -0.032838
-0.128818 0.163413 -0.016326
-0.007093 0.113846 0.052133
0.165264 0.159089 0.194104
0.133303 0.114975 0.151233
-0.067583 0.164307 0.023012
-0.028288 0.113845 0.029211
0.033510 0.168160 0.096634
-0.049482 0.113844 0.006290
0.133314 0.154614 0.158203
-0.067649 0.113844 -0.013357
0.057653 0.162873 0.100018
0.152646 0.159022 0.166412
-0.091870 0.113843 -0.039553
0.108963 0.162221 0.128122
0.102931 0.113849 0.100634
0.113473 0.166621 0.130296
-0.113064 0.113842 -0.062473
0.134326 0.139891 0.129244
0.133250 0.117077 0.117164
-0.033301 0.164815 0.014406
-0.085592 0.140943 -0.036473
0.167298 0.168971 0.162499
0.070872 0.113848 0.065981
0.133260 0.151704 0.123875
-0.160566 0.160582 -0.097264
0.030070 0.113848 0.021877
-0.116099 0.160715 -0.072794
0.102215 0.132675 0.076783
0.061944 0.127873 0.045065
0.009669 0.113848 -0.000176
-0.064909 0.166761 -0.035095
-0.109335 0.128447 -0.088314
-0.101524 0.160494 -0.067517
-0.007817 0.113847 -0.019079
-0.022127 0.137486 -0.025948
-0.148255 0.161625 -0.113389
-0.039861 0.113845 -0.053743
0.133198 0.135817 0.084350
0.011153 0.131058 -0.008354
0.167233 0.169246 0.121104
0.133179 0.114083 0.071560
0.040080 0.152813 0.013650
-0.071910 0.113844 -0.088403
-0.103958 0.113843 -0.123061
0.087014 0.113848 0.018090
0.126553 0.160323 0.067018
-0.133134 0.113846 -0.154540
0.097984 0.163894 0.039760
0.061738 0.113847 -0.009232
-0.013946 0.156475 -0.048161
0.133139 0.124706 0.046532
0.133159 0.154439 0.058955
0.153170 0.165262 0.076027
0.044887 0.113847 -0.027446
0.167170 0.161340 0.081581
-0.124389 0.135819 -0.148653
0.016802 0.113847 -0.057803
-0.130054 0.154748 -0.154314
-0.082899 0.131566 -0.131878
-0.105894 0.155278 -0.138820
-0.011282 0.113847 -0.088160
0.056933 0.162090 -0.018658
-0.160882 0.165357 -0.184028
-0.132809 0.160367 -0.168238
-0.033092 0.158636 -0.092728
-0.047787 0.113846 -0.127627
0.152820 0.159088 0.042228
0.140411 0.140574 0.024365
0.089606 0.127580 -0.018529
0.133083 0.126071 0.010314
-0.073053 0.113845 -0.154954
0.018739 0.162069 -0.066066
0.101181 0.162556 -0.004387
-0.089898 0.113844 -0.173171
0.085763 0.113847 -0.044015
0.145137 0.160390 0.014398
-0.132046 0.113846 -0.218692
0.045115 0.113846 -0.087952
0.133028 0.115621 -0.024404
0.163292 0.159088 0.011967
0.020726 0.113846 -0.114315
0.133046 0.155891 -0.012992
-0.000953 0.113846 -0.137748
-0.053608 0.165078 -0.156074
-0.030762 0.113846 -0.169969
-0.136950 0.144030 -0.238795
0.120961 0.141505 -0.044595
-0.024209 0.130160 -0.158866
0.043807 0.137539 -0.107968
-0.055150 0.113845 -0.196331
0.116014 0.113846 -0.067950
0.095441 0.158856 -0.066718
0.092451 0.113846 -0.093419
-0.087662 0.113844 -0.231484
-0.011871 0.160427 -0.152117
-0.125318 -0.171228 -0.402738
-0.081091 0.166192 -0.205994
-0.142372 0.164448 -0.254592
0.034702 0.161401 -0.120270
0.066271 0.113846 -0.121717
-0.108332 -0.141840 -0.383614
-0.110252 0.160813 -0.239099
0.139998 0.158154 -0.051665
-0.125233 0.030137 -0.313450
-0.128308 0.113844 -0.275421
0.036543 0.163974 -0.128546
0.132959 0.143026 -0.068518
-0.114315 0.139623 -0.258837
0.032237 0.113845 -0.158505
-0.125318 -0.130722 -0.402738
0.126837 0.160301 -0.072870
0.166975 0.168450 -0.043731
-0.120577 -0.079428 -0.385195
-0.017505 0.113845 -0.212272
0.131630 0.113844 -0.104010
-0.141732 0.161112 -0.294362
0.103519 0.158376 -0.108097
-0.108349 -0.096912 -0.394969
-0.048921 0.113845 -0.246230
0.159907 0.159088 -0.068990
-0.108332 -0.071841 -0.383614
0.106297 0.113845 -0.131371
0.015675 0.128791 -0.194628
0.132910 0.143939 -0.100078
-0.128143 -0.052490 -0.396651
-0.094526 0.158987 -0.269854
0.080976 0.113845 -0.158742
-0.093426 0.113844 -0.294336
-0.039444 0.158276 -0.232646
0.136775 0.151012 -0.104806
0.147139 0.158945 -0.096284
-0.116480 -0.056722 -0.402723
0.040461 0.113845 -0.202534
-0.132718 0.113847 -0.336772
0.083902 0.162060 -0.149028
-0.108332 -0.020263 -0.383614
-0.128125 0.169013 -0.309152
0.139638 0.157073 -0.113217
-0.138157 0.163673 -0.324110
-0.135576 0.028353 -0.389314
0.164533 0.159088 -0.099972
-0.125318 -0.009206 -0.402738
0.132847 0.125674 -0.140268
-0.002585 0.113844 -0.249064
-0.045754 0.160869 -0.260163
-0.108332 0.009210 -0.383614
0.132862 0.155816 -0.130415
0.113416 0.129066 -0.158574
-0.027907 0.113844 -0.276434
-0.117162 0.122066 -0.345604
-0.116507 -0.025402 -0.420207
0.111704 0.161614 -0.155632
-0.120902 0.098487 -0.366190
0.097198 0.113845 -0.190765
-0.060824 0.113844 -0.312015
-0.144064 0.154825 -0.360927
0.054884 0.161357 -0.205733
0.020413 0.161660 -0.233538
-0.103445 0.163435 -0.330570
-0.116480 0.034765 -0.402723
-0.108332 0.060788 -0.383614
-0.127462 0.134684 -0.363791
-0.127569 0.048018 -0.405645
-0.091210 0.113844 -0.344858
0.056051 0.129465 -0.225951
0.060422 0.113844 -0.230517
0.166134 0.170467 -0.126853
0.140697 0.155047 -0.153602
0.089521 0.159878 -0.189556
-0.113255 0.169559 -0.343369
-0.119063 0.113843 -0.374965
-0.036556 0.147480 -0.294934
0.132787 0.122530 -0.178447
0.031001 0.113844 -0.262318
-0.108332 0.090262 -0.383614
-0.125318 0.079170 -0.402738
-0.086403 0.131078 -0.347667
0.132802 0.155466 -0.169083
0.069052 0.155221 -0.220577
0.006483 0.113844 -0.288819
-0.125795 0.148104 -0.379526
0.003304 0.153833 -0.278080
-0.076847 0.160520 -0.339108
-0.136290 0.137244 -0.398006
-0.116835 0.161728 -0.371660
-0.030293 0.113843 -0.328571
0.165822 0.170735 -0.155822
-0.147394 0.159091 -0.401093
0.105293 0.113844 -0.228523
-0.054810 0.113843 -0.355072
0.086283 0.113844 -0.249072
-0.109806 0.114518 -0.405548
0.067272 0.113844 -0.269620
-0.084230 0.113843 -0.386873
0.132751 0.155612 -0.201354
-0.038512 0.168387 -0.331242
-0.013043 0.119051 -0.337722
0.031628 0.113843 -0.308148
-0.038849 0.126602 -0.357645
-0.109806 0.154509 -0.405548
0.132710 0.135621 -0.227927
-0.133218 0.159090 -0.421761
-0.133915 0.164065 -0.421084
-0.031201 0.152629 -0.346537
-0.156424 0.171006 -0.438351
-0.001640 0.113843 -0.344108
0.152882 0.161531 -0.205043
0.086345 0.159390 -0.256306
0.129629 -0.173229 -0.384906
0.131358 0.113842 -0.244099
-0.107713 0.147529 -0.413072
-0.030156 0.113843 -0.374930
-0.061212 0.158447 -0.379796
0.105989 0.113843 -0.271502
0.026804 0.169245 -0.306749
-0.129579 0.166546 -0.430018
0.099213 0.170987 -0.252379
0.166727 0.168563 -0.202926
-0.140239 0.166844 -0.441252
-0.051577 0.113847 -0.398031
0.112025 -0.151953 -0.402364
-0.075732 0.143676 -0.405495
0.079015 0.157947 -0.283610
0.066798 0.113843 -0.313864
-0.056158 0.136737 -0.399886
0.144946 0.157169 -0.236471
0.129629 -0.127239 -0.384906
-0.082910 0.167636 -0.408867
0.125992 0.136543 -0.269135
0.005239 0.162478 -0.348248
-0.115543 0.169529 -0.439542
0.160642 0.159088 -0.232959
0.132663 0.152984 -0.257736
0.025301 0.113843 -0.358717
0.112025 -0.112046 -0.402364
-0.029652 0.173337 -0.373612
0.118545 -0.076478 -0.382342
0.133649 0.162121 -0.257948
0.006858 0.113843 -0.378652
0.132631 0.124246 -0.278283
0.088857 0.128507 -0.311341
0.041303 0.126007 -0.351499
0.129634 -0.075320 -0.381441
0.065548 0.159022 -0.319495
-0.016229 0.113847 -0.403554
0.115598 0.113843 -0.302311
0.118174 -0.087036 -0.402354
-0.035389 0.153233 -0.405432
0.095452 0.113843 -0.324087
-0.081399 0.169855 -0.438556
0.004952 0.159971 -0.377347
-0.079937 0.168641 -0.439487
0.129634 -0.044577 -0.381441
0.112025 -0.059860 -0.402364
0.025057 0.133819 -0.381004
0.132612 0.152728 -0.290326
0.050681 0.113842 -0.372480
0.129899 0.104308 -0.316859
0.091493 0.162904 -0.319020
-0.012021 0.145431 -0.409601
0.147843 0.157697 -0.282328
0.075428 0.154312 -0.340667
0.112025 -0.032232 -0.402364
0.002653 0.135483 -0.405373
0.112777 0.142436 -0.319102
0.132582 0.134363 -0.309939
0.125437 0.120066 -0.322884
0.113083 -0.041870 -0.410935
-0.054413 0.168857 -0.439447
0.046028 0.167881 -0.364473
0.122491 0.113842 -0.333735
0.166614 0.169726 -0.275154
0.133642 -0.000820 -0.383612
0.031560 0.116108 -0.405328
-0.046435 0.171926 -0.440062
0.098561 0.113842 -0.359601
0.129442 0.171138 -0.315297
0.129610 -0.001517 -0.398580
0.129634 0.044577 -0.381441
0.112025 0.029163 -0.402364
-0.021849 0.168024 -0.439397
0.132552 0.154819 -0.329001
0.114555 0.167053 -0.337998
0.011232 0.159087 -0.423325
0.164004 0.159088 -0.312521
0.065929 0.122505 -0.405274
0.112025 0.059860 -0.402364
0.129006 0.113842 -0.363437
0.122079 0.059538 -0.396638
-0.008639 0.174684 -0.443939
0.154083 0.161653 -0.325103
0.129634 0.084543 -0.381441
0.137435 0.152791 -0.345470
0.131613 0.009264 -0.419459
0.046644 0.159088 -0.412757
0.123555 0.127698 -0.372329
0.136553 0.157894 -0.351508
0.112025 0.090558 -0.402364
0.023143 0.170669 -0.434862
0.023923 0.166403 -0.438336
0.132489 0.143982 -0.369108
0.098483 0.125466 -0.405223
0.065929 0.162470 -0.418459
0.107283 0.167311 -0.384980
0.082695 0.177147 -0.400954
0.114633 0.173430 -0.379076
0.130966 0.166119 -0.376520
0.128089 0.132848 -0.396528
0.077156 0.172047 -0.416591
0.142599 0.172530 -0.370089
0.132435 0.119061 -0.403536
0.166489 0.168862 -0.354872
0.083798 0.164124 -0.421037
0.063830 0.178861 -0.437030
0.066879 0.168852 -0.439260
0.103276 0.165968 -0.415097
0.132460 0.159087 -0.396805
0.118997 0.147614 -0.414944
0.111900 0.159087 -0.419023
0.154020 0.169174 -0.383775
0.104516 0.178047 -0.422929
0.133845 0.120444 -0.429510
