0.031117 0.012061 -0.024917
0.144221 -0.089302 0.009338
0.149424 -0.077717 0.017401
0.149137 -0.059094 0.026106
0.004471 0.010660 -0.049561
0.129009 -0.028083 0.023812
0.148759 -0.048232 0.028080
0.143124 -0.037721 0.027965
0.107859 -0.017992 0.010305
0.155865 -0.070058 0.021447
0.032275 0.002261 -0.038448
0.139518 -0.027306 0.024866
0.160940 -0.059304 0.025097
0.029805 0.054337 -0.021808
0.167527 -0.069159 0.021807
0.155181 -0.037317 0.027756
0.166129 -0.085729 0.009134
0.039167 0.035388 -0.028156
0.172872 -0.058848 0.025045
0.127887 -0.018009 0.009111
0.181091 -0.076276 0.018850
0.166518 -0.036749 0.026826
0.159413 -0.026796 0.023424
0.179949 -0.047517 0.027338
0.193744 -0.071944 0.020272
0.191633 -0.054403 0.026215
0.147527 -0.017057 0.008789
0.183032 -0.089905 -0.000461
0.191475 -0.043678 0.027057
0.185035 -0.032970 0.026464
0.203555 -0.065029 0.022201
0.167307 -0.019448 0.015699
0.203171 -0.054026 0.025285
0.196468 -0.089436 0.000900
0.202022 -0.042941 0.027515
0.159459 -0.016231 0.008625
0.203694 -0.084120 0.008731
0.197257 -0.032572 0.025073
0.178395 -0.019415 0.016122
0.215253 -0.064780 0.021921
0.215280 -0.083726 0.010059
0.189040 -0.022130 0.019145
0.222031 -0.075306 0.016009
0.222995 -0.057130 0.024066
0.222219 -0.046241 0.025821
0.067178 -0.101781 -0.116679
0.231086 -0.067262 0.019606
0.172228 -0.013023 -0.000051
0.220891 -0.036384 0.024755
0.234159 -0.057132 0.023437
0.198640 -0.018823 0.014709
0.225700 -0.087555 0.001696
0.237991 -0.079275 0.012002
0.211271 -0.022073 0.019426
0.241758 -0.067084 0.020306
0.232326 -0.039184 0.025540
0.078995 -0.105525 -0.121849
0.245508 -0.056543 0.022681
0.237809 -0.086746 0.003776
0.092252 -0.101101 -0.113513
0.252484 -0.066970 0.020599
0.248714 -0.078696 0.012428
0.243907 -0.038970 0.024526
0.238583 -0.028773 0.021741
0.210342 -0.015641 0.006511
0.260747 -0.078920 0.012012
0.256876 -0.085871 0.005351
0.255354 -0.038846 0.023237
0.248729 -0.028651 0.022838
0.269281 -0.071380 0.016938
0.268893 -0.060696 0.021081
0.108693 -0.103722 -0.116753
0.228672 -0.015631 0.006129
0.270291 -0.087171 0.003226
0.118380 -0.099718 -0.114775
0.259942 -0.027789 0.021049
0.280242 -0.079708 0.011265
0.279188 -0.050192 0.022806
0.255322 -0.021323 0.016075
0.282002 -0.087241 0.003248
0.117543 -0.103289 -0.124525
0.290873 -0.075463 0.014099
0.240472 -0.015536 0.005127
0.290528 -0.054065 0.022039
0.275728 -0.091888 -0.007945
0.112813 -0.100594 -0.135496
0.300840 -0.064247 0.019472
0.285926 -0.032258 0.022511
0.295965 -0.086758 0.004185
0.253188 -0.015372 0.004141
0.276046 -0.021901 0.016374
0.300392 -0.044330 0.022248
0.311752 -0.074641 0.013685
0.264587 -0.014910 0.003299
0.323005 -0.071635 0.012610
0.275950 -0.015008 0.003112
0.315476 -0.091437 -0.005334
0.322740 -0.050486 0.017794
0.305328 -0.022301 0.015430
0.319262 -0.029650 0.017426
0.331478 -0.043561 0.016930
0.297301 -0.016294 0.002434
0.340031 -0.074558 0.006906
0.338046 -0.086500 -0.002795
0.347235 -0.117910 -0.011729
0.342553 -0.056591 0.012345
0.348660 -0.082896 -0.000859
0.352513 -0.067553 0.007823
0.326541 -0.023017 0.009822
0.338081 -0.091761 -0.015996
0.340016 -0.032413 0.011646
0.351965 -0.047509 0.010196
0.348848 -0.099981 -0.017329
0.356793 -0.094124 -0.012516
0.364758 -0.067939 0.003513
0.352249 -0.033862 0.006288
0.331277 -0.020559 -0.003141
0.363064 -0.046473 0.004720
0.357268 -0.093143 -0.024851
0.375142 -0.070986 -0.003244
0.370708 -0.085215 -0.014924
0.349562 -0.025039 -0.010295
0.377805 -0.042436 -0.006184
0.388389 -0.058361 -0.006025
0.387812 -0.075270 -0.016276
0.396311 -0.065505 -0.014589
0.379814 -0.036488 -0.016061
0.397815 -0.055452 -0.011665
