0.016151 -0.005948 0.045752
0.034174 -0.006240 0.032714
0.024367 -0.006648 0.033626
0.068885 -0.004715 0.028949
0.051563 -0.004439 0.012350
0.013489 -0.001252 0.035623
0.014309 -0.006210 0.023507
0.004265 -0.008658 0.020939
0.024278 -0.018892 0.025398
0.073097 -0.008496 0.059032
-0.026745 -0.038885 0.009056
0.001449 -0.014980 -0.010517
0.004658 -0.019295 -0.002797
-0.002904 -0.037592 0.020451
-0.016693 -0.018642 -0.017908
0.014520 -0.013055 0.033393
-0.036482 -0.017413 0.016071
0.008052 -0.012645 -0.000090
0.011769 -0.011787 0.016096
0.029171 -0.018542 0.004132
-0.002065 -0.015506 0.018114
-0.011329 -0.012426 0.029324
0.010385 -0.034997 0.034173
0.011909 -0.010596 0.005757
0.017070 -0.022089 0.012802
0.006014 -0.038257 -0.009221
-0.023542 -0.024930 0.033703
0.022170 -0.044016 0.010309
0.011081 -0.032944 0.007688
0.028383 -0.033699 -0.003328
-0.010609 -0.014479 0.002841
-0.000948 -0.010573 0.006545
-0.016312 -0.017293 0.016762
0.001721 -0.019398 0.009215
-0.006721 -0.025108 0.007816
0.031032 -0.012281 -0.000215
0.020637 -0.018128 -0.021970
-0.014251 -0.010283 0.010859
-0.021587 -0.014422 -0.001157
-0.035801 -0.027546 -0.003007
-0.003554 -0.049656 0.003641
0.037026 -0.026242 0.019871
-0.003371 -0.016037 0.014908
0.016060 -0.006044 0.003498
0.019234 -0.003936 0.006961
0.013279 -0.016876 0.029708
0.004829 -0.005771 -0.001655
0.029280 -0.002193 0.041526
-0.007902 -0.005365 0.022683
0.018851 -0.002229 0.010520
0.023900 -0.002752 0.024761
0.042719 -0.006477 0.014887
0.011815 -0.006015 0.025501
0.008692 -0.004292 0.037034
0.023842 -0.014595 0.043985
0.026260 -0.001557 0.013856
0.032304 -0.005067 0.022264
0.020148 -0.016253 0.004465
-0.001148 -0.007402 0.040688
0.033448 -0.021987 0.018844
0.025268 -0.012426 0.014347
0.040098 -0.015066 0.008198
0.007708 -0.002868 0.010231
0.014430 -0.001771 0.015276
0.003383 -0.004528 0.023100
0.016881 -0.004796 0.015526
0.009934 -0.006924 0.015130
0.046228 -0.003652 0.011133
0.032866 -0.004975 -0.003422
0.002392 -0.000759 0.017009
0.002575 -0.005875 0.007028
-0.005083 -0.009758 0.005252
0.011311 -0.026121 0.010602
0.051466 -0.009571 0.032932
0.004127 -0.013766 0.040284
0.028996 -0.009785 0.024573
0.039414 -0.008347 0.028357
0.032255 -0.015555 0.066255
0.013352 -0.008553 0.018952
0.053655 -0.003307 0.082433
-0.002273 -0.008875 0.058403
0.035873 -0.005439 0.034114
0.045171 -0.004538 0.059767
0.069169 -0.009696 0.044486
0.026659 -0.010219 0.061123
0.022279 -0.004345 0.077846
0.040878 -0.011751 0.084926
0.050692 -0.004608 0.041218
0.057241 -0.007918 0.054733
0.036274 -0.015271 0.023899
0.007950 -0.008618 0.082364
0.052011 -0.015228 0.045470
0.044874 -0.015146 0.038637
0.061038 -0.014189 0.030237
0.023471 -0.006342 0.037518
0.031553 -0.003358 0.047227
0.014833 -0.008762 0.058434
0.036635 -0.010068 0.043939
0.022957 -0.010268 0.044441
0.071939 -0.005968 0.037989
0.053317 -0.007586 0.016785
0.010074 -0.003534 0.048468
0.011425 -0.008151 0.033908
-0.001176 -0.012152 0.028733
0.023104 -0.019274 0.032872
0.074764 -0.009111 0.070247
0.067751 -0.029658 -0.015192
0.120711 0.002516 -0.012623
0.123590 -0.014842 -0.009188
0.109295 -0.029110 0.000465
0.093902 -0.017136 -0.021079
0.128913 -0.005016 0.000938
0.065187 -0.009437 -0.007811
0.135645 -0.006410 -0.010086
0.124930 0.013336 -0.004541
0.134745 0.002644 -0.002946
0.129912 0.004305 0.000698
0.090098 0.019685 0.001855
0.121959 -0.017343 0.003669
0.129716 0.010254 -0.009030
0.128156 -0.011941 -0.003806
0.120971 -0.022817 -0.026233
0.084949 -0.020750 0.009208
0.122976 -0.031766 -0.013649
0.116907 -0.019225 -0.011394
0.138659 -0.016933 -0.010146
0.105828 0.002756 -0.006547
0.118259 0.032526 -0.005052
0.082181 -0.006592 0.001021
0.116479 -0.011469 -0.007318
0.105176 -0.017524 -0.002425
0.130957 0.016056 -0.007370
0.133550 -0.011653 -0.018806
0.105761 0.001840 -0.006746
0.076551 0.006514 -0.019588
0.059499 -0.024158 -0.016094
0.103566 -0.028202 -0.006181
0.137696 -0.004990 -0.003676
0.080177 -0.059626 -0.008400
0.131747 -0.034654 -0.009707
0.135448 -0.047781 -0.004586
0.120421 -0.059326 0.006717
0.102709 -0.051531 -0.019260
0.138226 -0.039063 0.006046
0.076714 -0.044413 -0.000562
0.145440 -0.040181 -0.005590
0.136022 -0.026099 0.001844
0.143882 -0.033081 0.003334
0.140891 -0.032084 0.006557
0.102655 -0.020648 0.006624
0.132401 -0.047389 0.008384
0.140929 -0.025739 -0.002896
0.137947 -0.043809 0.002470
0.132027 -0.051237 -0.022512
0.096379 -0.051867 0.013487
0.132157 -0.058350 -0.008041
0.128439 -0.049873 -0.004717
0.146056 -0.046102 -0.004727
0.118114 -0.033701 -0.000521
0.129918 -0.007515 0.001350
0.094736 -0.041634 0.007038
0.127478 -0.045719 -0.001745
0.117074 -0.049103 0.003754
0.140738 -0.021692 -0.003486
0.144848 -0.044051 -0.017055
0.115682 -0.036659 -0.001278
0.089553 -0.030859 -0.014927
0.070466 -0.055601 -0.012334
0.113756 -0.056052 -0.000885
0.145175 -0.035683 0.002788
-0.097244 -0.019697 0.020236
-0.044892 -0.001705 -0.010029
-0.027367 -0.010466 -0.002065
-0.037858 -0.022468 0.056704
-0.080908 -0.008812 -0.019191
-0.006405 0.001998 0.081177
-0.116504 -0.004964 0.051514
-0.032726 0.000358 0.007405
-0.013842 0.011215 0.051799
0.009122 -0.008993 0.023608
-0.045314 -0.004585 0.047466
-0.060570 0.008350 0.078144
-0.026949 -0.010863 0.088868
-0.013870 0.002247 0.023119
-0.008128 -0.009937 0.038836
-0.038108 -0.020994 -0.013547
-0.092985 -0.008416 0.084702
-0.010891 -0.024955 0.025807
-0.019106 -0.020316 0.015215
0.004031 -0.013661 -0.002630
-0.057354 -0.005849 0.015062
-0.041795 0.016210 0.028119
-0.069858 -0.007425 0.051506
-0.035575 -0.013165 0.025062
-0.055216 -0.016272 0.027744
0.012213 0.005309 0.010811
-0.008360 -0.004943 -0.024734
-0.078471 0.002326 0.036443
-0.086792 0.004191 0.010114
-0.122331 -0.010127 0.001205
-0.055807 -0.028808 0.010030
0.016110 -0.005361 0.055187
-0.003589 -0.015723 0.016103
0.019606 -0.011534 0.003224
0.029005 -0.010010 0.006991
0.021195 -0.016276 0.032811
0.004455 -0.010848 -0.002293
0.040340 -0.004727 0.046749
-0.010513 -0.010495 0.028136
0.025494 -0.007770 0.012392
0.033823 -0.006797 0.029153
0.056569 -0.010530 0.018149
0.015860 -0.011141 0.031370
0.011613 -0.006218 0.043057
0.029733 -0.013033 0.046337
0.039110 -0.006063 0.016730
0.044954 -0.008867 0.025713
0.026920 -0.017079 0.003274
-0.000785 -0.010079 0.044373
0.041235 -0.016415 0.018985
0.033081 -0.015905 0.015524
0.050664 -0.016030 0.008002
0.013798 -0.007805 0.014897
0.020869 -0.004866 0.020833
0.005816 -0.009507 0.027899
0.026173 -0.011167 0.019341
0.012816 -0.011888 0.018680
0.062035 -0.007601 0.013538
0.043477 -0.009753 -0.005109
0.002303 -0.004958 0.022468
0.002357 -0.009982 0.010697
-0.009304 -0.013610 0.007480
0.013739 -0.020322 0.010135
0.062359 -0.011090 0.037048
-0.026071 -0.015596 0.029448
0.000747 -0.000383 0.010248
0.004491 -0.002476 0.016340
-0.003080 -0.015595 0.048024
-0.017161 -0.002099 0.003036
0.014823 0.003698 0.064671
-0.037358 -0.001431 0.043123
0.005212 0.003095 0.020553
0.011637 0.004644 0.043754
0.026609 -0.002594 0.026663
-0.002682 -0.000486 0.043170
-0.011282 0.004269 0.059954
0.007886 -0.012216 0.066622
0.010600 0.004227 0.027160
0.015820 -0.003282 0.037807
0.004462 -0.015326 0.010515
-0.024793 -0.005103 0.066422
0.018126 -0.018711 0.032331
0.010004 -0.013430 0.026614
0.024102 -0.012032 0.015674
-0.010709 0.001262 0.022623
0.000045 0.004930 0.029954
-0.016279 -0.001943 0.043372
0.001217 -0.003195 0.029339
-0.006497 -0.007037 0.030352
0.027703 0.003076 0.021913
0.018437 -0.000410 -0.001577
-0.016676 0.005081 0.034075
-0.020420 0.000386 0.020425
-0.035035 -0.009294 0.016171
-0.005082 -0.023746 0.021438
0.033852 -0.005578 0.048074
-0.039764 -0.013612 0.058065
-0.010236 -0.004013 0.032770
-0.000689 -0.005310 0.038331
-0.007878 -0.015657 0.099665
-0.028981 -0.004387 0.025314
0.013670 0.001344 0.120282
-0.050641 -0.004238 0.088673
-0.003845 0.000243 0.044464
0.006756 0.002815 0.091426
0.024040 -0.006002 0.061219
-0.010054 -0.005150 0.086595
-0.018470 0.002460 0.115457
0.001219 -0.009181 0.128867
0.007390 0.000217 0.057421
0.014005 -0.005659 0.079533
-0.004923 -0.014130 0.029437
-0.036887 -0.005522 0.128058
0.010205 -0.016714 0.065258
0.004864 -0.015363 0.051804
0.018273 -0.010164 0.036237
-0.019101 -0.002518 0.049383
-0.006167 0.002220 0.067048
-0.025951 -0.006537 0.089728
-0.005101 -0.006858 0.059738
-0.014742 -0.008782 0.065238
0.022886 0.000223 0.049852
0.010842 -0.002336 0.020029
-0.031852 0.000418 0.070509
-0.030839 -0.002726 0.048911
-0.049683 -0.010180 0.038757
-0.015500 -0.022198 0.044579
0.031076 -0.003373 0.097434
-0.005683 -0.012219 0.021003
0.015812 -0.010093 0.007915
0.023217 -0.007862 0.011692
0.017608 -0.013978 0.043512
0.002282 -0.008562 0.002759
0.035734 -0.004482 0.057548
-0.011047 -0.008902 0.035398
0.020322 -0.005832 0.016633
0.028064 -0.005531 0.036772
0.049172 -0.009587 0.024236
0.012794 -0.010210 0.038022
0.009418 -0.005908 0.053230
0.025456 -0.011759 0.060311
0.032596 -0.005136 0.021423
0.038460 -0.007347 0.033308
0.021063 -0.013605 0.008287
-0.003190 -0.008583 0.057297
0.034482 -0.012915 0.025469
0.028066 -0.013546 0.019810
0.042496 -0.013795 0.013597
0.010210 -0.006231 0.018273
0.016941 -0.004344 0.026039
0.002964 -0.008549 0.035467
0.020991 -0.009065 0.023229
0.010211 -0.009236 0.024218
0.052388 -0.006805 0.018914
0.036066 -0.007272 0.001160
-0.000244 -0.003980 0.027140
0.000646 -0.008876 0.015030
-0.009520 -0.011381 0.011374
0.010124 -0.016505 0.014700
0.055334 -0.009613 0.046925
0.099930 -0.064662 0.006348
0.149567 -0.038832 0.005540
0.152366 -0.051511 0.011125
0.138419 -0.063856 0.021720
0.120950 -0.055616 -0.004056
0.155313 -0.043227 0.019817
0.095495 -0.048481 0.013344
0.163747 -0.043776 0.008767
0.153711 -0.028846 0.016532
0.161673 -0.037272 0.017809
0.159248 -0.036347 0.021636
0.120049 -0.025571 0.019393
0.150446 -0.051439 0.021398
0.158448 -0.028906 0.012770
0.155186 -0.046912 0.017714
0.149848 -0.056673 -0.006623
0.115165 -0.056597 0.026698
0.148873 -0.063690 0.007232
0.145083 -0.053635 0.011500
0.161335 -0.049313 0.011019
0.134877 -0.037421 0.014264
0.148733 -0.009417 0.016488
0.111509 -0.046309 0.021156
0.143818 -0.049182 0.013767
0.136243 -0.053055 0.018472
0.157139 -0.023876 0.010073
0.161506 -0.047767 -0.001344
0.136124 -0.041157 0.012568
0.107875 -0.034964 -0.000227
0.090362 -0.058665 0.002564
0.130101 -0.062897 0.014746
0.160963 -0.038280 0.016559
-0.007740 -0.039220 0.009352
0.012863 -0.020223 -0.004520
0.014474 -0.021367 0.000005
0.008613 -0.039384 0.021636
0.000689 -0.021950 -0.009535
0.024736 -0.017823 0.033805
-0.013365 -0.021171 0.014487
0.017508 -0.017407 0.002539
0.020927 -0.017139 0.016592
0.038697 -0.022573 0.006904
0.009239 -0.020389 0.017809
0.004203 -0.019199 0.028959
0.021797 -0.037943 0.035258
0.021488 -0.016350 0.006563
0.027194 -0.024163 0.014739
0.016781 -0.039230 -0.003022
-0.005058 -0.026820 0.033135
0.032087 -0.045974 0.012635
0.021783 -0.034099 0.008615
0.037620 -0.036952 0.001764
0.002965 -0.018602 0.003525
0.010046 -0.016169 0.007304
-0.001203 -0.020442 0.016007
0.012674 -0.021621 0.009476
0.005963 -0.025873 0.008077
0.040263 -0.018001 0.003326
0.028647 -0.022557 -0.011542
-0.000504 -0.015827 0.010027
-0.002947 -0.020602 -0.000231
-0.010251 -0.029675 -0.001809
0.009414 -0.050338 0.005220
0.047821 -0.029250 0.023409
-0.001476 -0.051383 0.022580
0.021055 -0.031905 0.007056
0.023723 -0.033519 0.011772
0.016979 -0.052128 0.037604
0.007235 -0.034079 0.001908
0.035063 -0.029060 0.052666
-0.008837 -0.033125 0.030090
0.026989 -0.028565 0.014264
0.031520 -0.028216 0.033008
0.047557 -0.034873 0.021088
0.018151 -0.031763 0.033096
0.012475 -0.029669 0.047298
0.031408 -0.049482 0.053822
0.030679 -0.028525 0.019949
0.035808 -0.036170 0.029568
0.024671 -0.050703 0.008849
0.000702 -0.038355 0.051785
0.040679 -0.056827 0.026648
0.030670 -0.047488 0.021482
0.045283 -0.048472 0.014754
0.010760 -0.030846 0.015617
0.019648 -0.027960 0.021691
0.006109 -0.032883 0.031761
0.021938 -0.033953 0.022618
0.014314 -0.038591 0.021311
0.046821 -0.029471 0.017161
0.036388 -0.033848 0.000476
0.005916 -0.027753 0.023821
0.003190 -0.032088 0.012448
-0.005094 -0.042614 0.009669
0.017159 -0.060471 0.017651
0.055367 -0.040127 0.040022
-0.015855 -0.022242 0.034390
0.006984 -0.005173 0.014936
0.008745 -0.006920 0.020715
0.002378 -0.023825 0.056707
-0.007502 -0.006341 0.008845
0.020158 -0.002295 0.075276
-0.025373 -0.006254 0.047324
0.011766 -0.001729 0.024106
0.016669 -0.000246 0.050996
0.030714 -0.008032 0.032850
0.004417 -0.005290 0.048533
-0.002200 -0.001948 0.069117
0.015144 -0.020562 0.078794
0.014360 -0.001614 0.031049
0.020047 -0.008841 0.045427
0.009641 -0.021655 0.016091
-0.015065 -0.010329 0.078200
0.023699 -0.026946 0.039729
0.015678 -0.020391 0.031344
0.028200 -0.019089 0.022349
-0.004075 -0.003761 0.025294
0.005885 -0.000438 0.034833
-0.008269 -0.006767 0.049811
0.006942 -0.007281 0.033428
0.000908 -0.011336 0.035017
0.029125 -0.002147 0.027495
0.021158 -0.005433 0.006147
-0.008949 -0.000491 0.037005
-0.011514 -0.005383 0.023361
-0.020441 -0.015194 0.018612
0.002807 -0.031111 0.026334
0.038597 -0.011555 0.056924
0.040702 -0.041093 -0.033043
0.112312 0.000068 -0.028489
0.121515 -0.021378 -0.025860
0.104660 -0.041000 -0.013924
0.076994 -0.026089 -0.035123
0.129199 -0.010251 -0.015927
0.031861 -0.015003 -0.024468
0.137006 -0.011152 -0.028584
0.121416 0.013975 -0.022198
0.140154 0.001199 -0.019883
0.127198 0.000592 -0.015154
0.071970 0.019505 -0.015084
0.118798 -0.025358 -0.011550
0.132086 0.008669 -0.024696
0.130513 -0.019135 -0.019843
0.115150 -0.034329 -0.042197
0.064917 -0.033255 -0.003036
0.120107 -0.044461 -0.029153
0.112022 -0.028003 -0.028490
0.142413 -0.024875 -0.023845
0.092562 0.001079 -0.024180
0.112381 0.037540 -0.022155
0.058701 -0.010965 -0.014040
0.109757 -0.017498 -0.023332
0.095549 -0.028006 -0.018292
0.131311 0.017126 -0.025158
0.132502 -0.017276 -0.028835
0.098134 -0.001158 -0.025738
0.048741 0.006811 -0.038907
0.020763 -0.034149 -0.030122
0.088660 -0.039147 -0.020947
0.140157 -0.008585 -0.021823
-0.009524 -0.040206 0.004624
0.017344 -0.019772 -0.011955
0.022278 -0.021448 -0.005143
0.013078 -0.038716 0.013678
-0.000682 -0.022041 -0.018249
0.032733 -0.015706 0.025014
-0.017693 -0.020678 0.010405
0.024879 -0.016633 -0.002430
0.028965 -0.016613 0.010477
0.051377 -0.021157 0.000969
0.013139 -0.019630 0.013575
0.004249 -0.017074 0.021972
0.027229 -0.035755 0.023789
0.032979 -0.014085 0.002327
0.038538 -0.023903 0.007996
0.023879 -0.039843 -0.010101
-0.006449 -0.027257 0.023351
0.041132 -0.045957 0.005355
0.027848 -0.033431 0.004648
0.050005 -0.035772 -0.005833
0.005658 -0.018033 0.000447
0.015307 -0.015089 0.003218
-0.001047 -0.019768 0.011093
0.018363 -0.022414 0.005977
0.008365 -0.026884 0.004134
0.057329 -0.016411 -0.003457
0.040992 -0.021381 -0.022347
0.000971 -0.014098 0.006835
-0.004121 -0.018870 -0.004311
-0.017077 -0.028917 -0.004490
0.011152 -0.051830 0.000319
0.060540 -0.028321 0.015071
0.046690 -0.115459 -0.032025
0.139834 -0.062001 -0.036341
0.127320 -0.080753 -0.028607
0.114626 -0.130137 0.000887
0.086637 -0.086088 -0.050966
0.138982 -0.024046 -0.001205
0.000535 -0.063148 -0.040978
0.158526 -0.079279 -0.029216
0.145111 -0.032570 -0.031441
0.146709 -0.015262 -0.034138
0.119986 -0.033535 -0.030028
0.070743 -0.005787 -0.023191
0.132011 -0.072138 -0.016397
0.138654 -0.033266 -0.030490
0.151398 -0.083703 -0.038060
0.137060 -0.135591 -0.027005
0.030290 -0.086180 -0.015394
0.110218 -0.123684 -0.060992
0.098105 -0.096409 -0.008724
0.179476 -0.099829 -0.028803
0.097758 -0.029444 -0.021280
0.141031 0.004373 -0.009535
0.062851 -0.062902 -0.034784
0.127332 -0.051685 -0.015485
0.080270 -0.080947 -0.002801
0.138758 -0.033018 -0.019320
0.153118 -0.085267 -0.031043
0.143409 -0.027764 -0.024595
0.073387 0.001557 -0.065055
-0.023964 -0.077242 -0.059880
0.080216 -0.120897 -0.027711
0.154250 -0.089258 -0.013128
-0.060733 -0.109427 0.045313
0.026051 -0.041042 -0.015667
0.042217 -0.076157 -0.014514
0.032460 -0.118068 0.109222
-0.014901 -0.067136 -0.043968
0.102251 -0.053716 0.146059
-0.069497 -0.062310 0.083186
0.060732 -0.040849 0.007088
0.078524 -0.032482 0.102181
0.126959 -0.064773 0.056488
0.032043 -0.051703 0.091158
0.006092 -0.039683 0.144303
0.071664 -0.103240 0.164256
0.084667 -0.038447 0.049164
0.092161 -0.081151 0.092508
0.041672 -0.104962 -0.048753
-0.032172 -0.096073 0.142669
0.096766 -0.135781 0.065491
0.083210 -0.106739 0.020916
0.128176 -0.094111 0.001076
0.002004 -0.048920 0.033425
0.030337 -0.025165 0.060862
-0.020424 -0.063543 0.103016
0.046839 -0.078165 0.051579
-0.001743 -0.093647 0.060308
0.130461 -0.040211 0.030913
0.099018 -0.069565 -0.050377
-0.028483 -0.031957 0.071617
-0.030941 -0.044207 0.014733
-0.054820 -0.087605 -0.008462
0.006402 -0.142465 0.020254
0.152069 -0.081228 0.106109
-0.104342 -0.027721 0.018779
-0.047598 -0.003346 -0.016914
-0.034828 -0.010479 -0.006603
-0.045881 -0.027598 0.050899
-0.084979 -0.008758 -0.030503
-0.021173 -0.002963 0.070170
-0.128854 -0.006712 0.046913
-0.037854 0.000783 0.001700
-0.028247 0.002935 0.041224
-0.011371 -0.010334 0.012884
-0.048735 -0.005026 0.037669
-0.065473 0.002074 0.068697
-0.034460 -0.019426 0.081705
-0.028279 0.000042 0.015174
-0.023975 -0.012567 0.030083
-0.043550 -0.026040 -0.020951
-0.100680 -0.013749 0.080867
-0.022297 -0.030922 0.021877
-0.029006 -0.025614 0.011267
-0.011362 -0.017491 -0.010296
-0.063872 -0.004785 0.005120
-0.044983 0.004502 0.018700
-0.075372 -0.009881 0.045684
-0.044006 -0.012579 0.015662
-0.058438 -0.018682 0.021158
-0.008520 -0.001778 0.001578
-0.019210 -0.003323 -0.037552
-0.078939 0.000356 0.027386
-0.092237 0.000497 0.004601
-0.134800 -0.016831 -0.003589
-0.058437 -0.034591 0.006279
-0.002636 -0.011770 0.041466
-0.033755 -0.027788 0.020423
-0.006574 -0.018752 0.001425
0.000888 -0.019194 0.006788
-0.007010 -0.027787 0.043237
-0.025752 -0.019278 -0.005495
0.013427 -0.012191 0.060324
-0.044322 -0.018255 0.039196
-0.001494 -0.014242 0.011821
0.008918 -0.011844 0.039336
0.026318 -0.019148 0.020299
-0.009341 -0.018911 0.038926
-0.016910 -0.012296 0.056253
0.002148 -0.023386 0.061757
0.010026 -0.013010 0.019818
0.015809 -0.018563 0.031885
-0.001526 -0.028181 -0.000003
-0.031303 -0.019928 0.061299
0.013359 -0.029474 0.024031
0.006128 -0.027283 0.017373
0.021459 -0.024679 0.005458
-0.015606 -0.015948 0.015109
-0.004884 -0.011556 0.024012
-0.022580 -0.019306 0.037852
-0.002364 -0.020497 0.022547
-0.013390 -0.022381 0.023446
0.029495 -0.014039 0.014314
0.015050 -0.016780 -0.010878
-0.025690 -0.012778 0.028625
-0.027276 -0.017086 0.013270
-0.044373 -0.024048 0.007736
-0.012925 -0.035371 0.011122
0.033286 -0.018915 0.045553
-0.020347 -0.028884 0.026215
0.005260 -0.018434 0.006382
0.010334 -0.018497 0.011930
0.003458 -0.030469 0.054232
-0.011888 -0.018708 -0.000328
0.022967 -0.013861 0.072389
-0.030190 -0.018787 0.044802
0.010045 -0.013893 0.016924
0.017195 -0.012851 0.047128
0.033766 -0.020265 0.026717
0.002644 -0.018475 0.045141
-0.004438 -0.013552 0.067139
0.013869 -0.026104 0.077765
0.017167 -0.013924 0.024790
0.023227 -0.019195 0.040046
0.008682 -0.028735 0.006421
-0.019638 -0.020308 0.076322
0.022792 -0.031986 0.031618
0.016228 -0.028818 0.022768
0.029431 -0.026567 0.012424
-0.005067 -0.016054 0.018649
0.005812 -0.012812 0.029973
-0.010939 -0.019468 0.046166
0.006906 -0.020001 0.026564
-0.000844 -0.022335 0.029309
0.033699 -0.014858 0.019956
0.023165 -0.016502 -0.003792
-0.013117 -0.013062 0.032565
-0.013760 -0.017667 0.016897
-0.027168 -0.024459 0.011101
-0.000314 -0.036324 0.017112
0.040906 -0.020832 0.054187
-0.088361 -0.026534 0.030899
-0.043738 -0.014006 0.003295
-0.029085 -0.017046 0.009460
-0.038563 -0.027815 0.068756
-0.072788 -0.015972 -0.004479
-0.013186 -0.008600 0.088625
-0.105776 -0.014119 0.062386
-0.035195 -0.008916 0.016905
-0.020805 -0.005691 0.060544
-0.001617 -0.017686 0.032029
-0.044507 -0.014481 0.056815
-0.054711 -0.005930 0.086693
-0.029003 -0.019098 0.098648
-0.019648 -0.010035 0.030601
-0.014072 -0.017457 0.047754
-0.038295 -0.027109 -0.000721
-0.084723 -0.016712 0.095393
-0.017637 -0.029989 0.035636
-0.024222 -0.027690 0.024285
-0.006135 -0.020848 0.007814
-0.054208 -0.013659 0.021921
-0.038107 -0.005116 0.037835
-0.065471 -0.017297 0.060258
-0.037049 -0.019370 0.031564
-0.051338 -0.021600 0.036470
0.000412 -0.009710 0.021138
-0.016083 -0.012951 -0.010667
-0.073103 -0.009630 0.043737
-0.076598 -0.010480 0.021960
-0.109334 -0.020337 0.011953
-0.052210 -0.034453 0.018825
0.005966 -0.014133 0.065830
0.089691 -0.057395 -0.007647
0.165931 -0.033659 -0.005904
0.172123 -0.042419 0.000826
0.151736 -0.058339 0.007067
0.117773 -0.049587 -0.017093
0.179936 -0.031257 0.005736
0.079083 -0.040063 0.001693
0.189739 -0.033672 -0.001689
0.179651 -0.018822 0.006815
0.187318 -0.024075 0.008989
0.183674 -0.022593 0.012021
0.127642 -0.014505 0.004292
0.169598 -0.045514 0.004231
0.182304 -0.012973 0.002720
0.178767 -0.035914 0.005607
0.165866 -0.047042 -0.020306
0.114274 -0.051441 0.010837
0.170332 -0.053641 -0.007468
0.162280 -0.038270 0.001758
0.185753 -0.036721 0.006105
0.145174 -0.024590 0.004799
0.170292 0.000644 0.008804
0.110046 -0.036414 0.009279
0.157713 -0.038011 0.003662
0.148222 -0.041603 0.010756
0.182871 -0.008152 0.000905
0.186756 -0.038424 -0.009477
0.149467 -0.034713 -0.001346
0.102530 -0.020737 -0.012247
0.059570 -0.053835 -0.009541
0.135725 -0.055417 0.005913
0.189197 -0.022000 0.007444
-0.030575 -0.032256 0.033520
0.003184 -0.024074 0.008026
0.015118 -0.024238 0.013573
0.005903 -0.034346 0.073567
-0.018861 -0.024509 0.000449
0.031921 -0.015806 0.094260
-0.041802 -0.023379 0.063027
0.011386 -0.018539 0.021668
0.023731 -0.015885 0.064903
0.046324 -0.024560 0.037381
0.001176 -0.023728 0.063500
-0.006733 -0.015528 0.090272
0.016417 -0.026336 0.101834
0.026207 -0.017584 0.033837
0.033683 -0.023573 0.053411
0.009970 -0.033793 0.005067
-0.027942 -0.023576 0.099279
0.027753 -0.033937 0.039436
0.021165 -0.034108 0.027556
0.039000 -0.029145 0.013043
-0.005946 -0.021252 0.027227
0.007158 -0.015082 0.043544
-0.015753 -0.024428 0.063126
0.010600 -0.026466 0.036423
-0.003604 -0.027292 0.040021
0.047764 -0.017655 0.025953
0.030251 -0.021970 -0.004664
-0.022379 -0.017289 0.046847
-0.021012 -0.021444 0.025111
-0.040342 -0.029010 0.015368
-0.004821 -0.039901 0.020468
0.052481 -0.021865 0.073164
-0.052996 -0.033415 0.010970
-0.013547 -0.008477 -0.016647
-0.007277 -0.015353 -0.006957
-0.015681 -0.032131 0.031692
-0.039952 -0.013220 -0.028218
0.004438 -0.007196 0.049871
-0.069982 -0.011895 0.027871
-0.006630 -0.005908 -0.001845
0.000445 -0.003730 0.026367
0.015603 -0.013264 0.005345
-0.015701 -0.010014 0.025551
-0.029015 -0.004130 0.045812
-0.004190 -0.027684 0.054549
-0.000747 -0.003738 0.007471
0.003762 -0.017278 0.019408
-0.009250 -0.032043 -0.018082
-0.049133 -0.019642 0.055400
0.007644 -0.036340 0.013275
-0.000948 -0.029219 0.007086
0.014932 -0.024905 -0.010826
-0.027863 -0.008806 0.001678
-0.013839 -0.002489 0.009829
-0.035050 -0.013404 0.028470
-0.012309 -0.015890 0.009862
-0.022376 -0.022183 0.011570
0.017985 -0.005714 -0.002702
0.008917 -0.010232 -0.034861
-0.035016 -0.003668 0.016357
-0.046019 -0.006368 -0.000814
-0.072199 -0.022990 -0.005837
-0.020961 -0.041875 0.002063
0.023901 -0.018753 0.027359
-0.037324 -0.034752 0.015421
-0.011895 -0.012764 -0.005114
-0.010315 -0.015552 0.000515
-0.016696 -0.036859 0.040435
-0.027052 -0.015728 -0.010319
0.004355 -0.011829 0.059347
-0.046135 -0.014540 0.027040
-0.005765 -0.008611 0.003610
-0.000501 -0.007290 0.031732
0.015936 -0.017505 0.014133
-0.014350 -0.012979 0.029464
-0.020407 -0.011521 0.053003
-0.000610 -0.034406 0.065413
-0.003070 -0.009470 0.010316
0.003473 -0.019442 0.028196
-0.010055 -0.033890 -0.004062
-0.035635 -0.021379 0.062706
0.009339 -0.041383 0.022220
-0.001470 -0.031809 0.012122
0.015125 -0.032028 0.003987
-0.024133 -0.011871 0.004669
-0.013847 -0.007872 0.013968
-0.028805 -0.014802 0.031700
-0.012125 -0.015915 0.014227
-0.019379 -0.020532 0.015272
0.014773 -0.010514 0.008043
0.004134 -0.015241 -0.012557
-0.028888 -0.008254 0.016641
-0.032544 -0.013517 0.002324
-0.041332 -0.025466 -0.002168
-0.016352 -0.045266 0.007412
0.026898 -0.023420 0.040862
0.098641 -0.042137 -0.009091
0.145874 -0.015581 -0.010250
0.145779 -0.031194 -0.005065
0.131900 -0.042903 0.004929
0.118058 -0.033072 -0.020157
0.147358 -0.021734 0.004597
0.094730 -0.025628 -0.002139
0.154276 -0.022743 -0.007588
0.146948 -0.005727 0.000589
0.149781 -0.014638 0.002120
0.151525 -0.014655 0.004819
0.117761 -0.002666 0.004315
0.141960 -0.031595 0.005637
0.149067 -0.007906 -0.003925
0.145294 -0.026904 0.002175
0.142605 -0.034487 -0.024164
0.112950 -0.034513 0.009730
0.141636 -0.040954 -0.009108
0.138443 -0.033305 -0.005265
0.151707 -0.027617 -0.007318
0.131800 -0.015527 -0.001420
0.141939 0.011635 0.000130
0.111141 -0.024463 0.004928
0.138442 -0.027515 -0.002249
0.129996 -0.031414 0.002336
0.147669 -0.001761 -0.004998
0.153410 -0.027202 -0.020065
0.129443 -0.018883 -0.002929
0.106345 -0.012660 -0.014953
0.088538 -0.037615 -0.013560
0.127187 -0.041521 -0.003132
0.149435 -0.018348 0.001373
-0.055221 -0.121068 0.019748
0.035850 -0.044710 -0.042470
0.052889 -0.083601 -0.040883
0.040452 -0.128590 0.079969
-0.007267 -0.073134 -0.073835
0.110600 -0.058727 0.113758
-0.063266 -0.068499 0.054146
0.072421 -0.045545 -0.018356
0.087104 -0.035912 0.073112
0.140491 -0.068480 0.029869
0.040908 -0.055397 0.064180
0.011581 -0.042362 0.113183
0.081435 -0.112604 0.131390
0.097612 -0.040617 0.023969
0.104263 -0.088871 0.065907
0.054000 -0.116482 -0.078042
-0.025856 -0.106175 0.110285
0.109283 -0.150965 0.039166
0.092840 -0.115717 -0.003162
0.144857 -0.103501 -0.027604
0.009083 -0.050920 0.009589
0.039051 -0.027381 0.036284
-0.014656 -0.069014 0.074273
0.055512 -0.083532 0.026690
0.004794 -0.102011 0.034339
0.147779 -0.043976 0.003416
0.112901 -0.076340 -0.083797
-0.018747 -0.034358 0.047404
-0.025895 -0.047805 -0.010139
-0.048823 -0.095546 -0.034913
0.014874 -0.154838 -0.004183
0.167291 -0.088247 0.076529
-0.004538 -0.046001 0.035312
0.021326 -0.035798 0.014394
0.027585 -0.034359 0.019499
0.019720 -0.049853 0.072016
0.004619 -0.035452 0.008657
0.043776 -0.030983 0.092152
-0.013472 -0.035099 0.057622
0.027760 -0.029661 0.024912
0.035481 -0.029468 0.062328
0.054759 -0.037772 0.038870
0.019375 -0.035156 0.059450
0.014269 -0.030774 0.087320
0.032874 -0.043235 0.100726
0.035799 -0.031353 0.033917
0.043067 -0.035791 0.053275
0.024144 -0.046215 0.014479
-0.003844 -0.036234 0.097590
0.041149 -0.050805 0.042965
0.033419 -0.046812 0.031327
0.049272 -0.043837 0.022143
0.010701 -0.032640 0.026214
0.022705 -0.029405 0.042197
0.004594 -0.035705 0.060134
0.023642 -0.036156 0.036270
0.015811 -0.037522 0.039205
0.053562 -0.031956 0.030257
0.039765 -0.033188 0.006753
0.000720 -0.030136 0.042090
0.001660 -0.034675 0.025183
-0.009173 -0.040561 0.018275
0.015418 -0.054066 0.025905
0.062818 -0.037126 0.072575
0.113608 -0.055207 -0.014818
0.171298 -0.022556 -0.017883
0.171640 -0.043147 -0.011779
0.154879 -0.057249 0.001043
0.136917 -0.044998 -0.027422
0.171139 -0.031409 0.001494
0.106612 -0.035666 -0.006482
0.179374 -0.032159 -0.016274
0.172025 -0.012465 -0.003768
0.172509 -0.021502 -0.002429
0.177214 -0.022591 0.000013
0.137887 -0.009347 0.000712
0.164434 -0.044696 0.002364
0.175184 -0.014919 -0.010083
0.168927 -0.038260 -0.001314
0.166413 -0.046986 -0.033649
0.130626 -0.047829 0.006436
0.164678 -0.053733 -0.015234
0.161961 -0.045281 -0.011269
0.175140 -0.037519 -0.015046
0.153386 -0.023308 -0.007486
0.166412 0.007213 -0.004202
0.130132 -0.035539 0.001085
0.162286 -0.037044 -0.007671
0.152013 -0.043376 -0.002793
0.170533 -0.005993 -0.011491
0.179645 -0.038179 -0.029092
0.150432 -0.027108 -0.009535
0.121717 -0.019321 -0.022144
0.097439 -0.051913 -0.020354
0.147043 -0.054141 -0.010189
0.170549 -0.027198 -0.003525
-0.000744 -0.022751 0.031315
0.023257 -0.010309 0.014020
0.029091 -0.010464 0.018840
0.021650 -0.024198 0.054523
0.007262 -0.011226 0.008141
0.041963 -0.005364 0.072344
-0.009240 -0.010877 0.046492
0.029336 -0.005901 0.022887
0.036193 -0.005176 0.049254
0.053860 -0.011893 0.032269
0.020744 -0.010088 0.048624
0.014749 -0.005397 0.066983
0.033447 -0.019495 0.075168
0.036778 -0.005726 0.030501
0.042687 -0.011323 0.043210
0.027565 -0.022534 0.014691
0.000896 -0.012664 0.073529
0.042696 -0.026211 0.036440
0.035199 -0.021498 0.029217
0.048949 -0.020004 0.020669
0.013891 -0.008155 0.024831
0.023807 -0.004836 0.034667
0.007906 -0.010955 0.047818
0.026227 -0.011743 0.032438
0.017327 -0.014727 0.033101
0.053409 -0.006678 0.026663
0.041611 -0.009537 0.005899
0.005337 -0.005061 0.036425
0.005164 -0.009536 0.022335
-0.006274 -0.017196 0.017862
0.018233 -0.030181 0.024214
0.060478 -0.013307 0.056995
0.061928 -0.027603 -0.022082
0.130638 0.010858 -0.017998
0.136284 -0.009040 -0.014738
0.119350 -0.028408 -0.003928
0.095190 -0.012898 -0.025403
0.144165 0.002458 -0.004996
0.054094 -0.002853 -0.014184
0.152194 0.001272 -0.017815
0.138873 0.025815 -0.011237
0.152584 0.013372 -0.009315
0.144013 0.013035 -0.003762
0.091058 0.030949 -0.005364
0.133388 -0.013437 -0.001886
0.145774 0.021720 -0.014530
0.143359 -0.005747 -0.008973
0.131203 -0.022280 -0.031047
0.083643 -0.020296 0.005317
0.135371 -0.031071 -0.018980
0.127280 -0.013903 -0.017051
0.154546 -0.010868 -0.012887
0.110122 0.012597 -0.012807
0.130520 0.048587 -0.010460
0.078164 0.000656 -0.004449
0.125106 -0.004775 -0.011965
0.112738 -0.014033 -0.007205
0.145407 0.030404 -0.014557
0.147690 -0.004864 -0.020837
0.115911 0.009528 -0.015142
0.070117 0.017728 -0.027431
0.042943 -0.021369 -0.020234
0.106046 -0.027766 -0.008973
0.153349 0.004805 -0.011181
-0.017214 -0.056250 -0.001252
0.012334 -0.021986 -0.022469
0.016126 -0.029837 -0.013061
0.008382 -0.054073 0.007700
-0.006335 -0.028464 -0.029868
0.027428 -0.022697 0.019106
-0.025883 -0.026857 0.003001
0.022430 -0.021176 -0.012911
0.024188 -0.019456 0.003273
0.044991 -0.027314 -0.006235
0.010113 -0.023545 0.006237
-0.001591 -0.020781 0.015217
0.024793 -0.051676 0.019096
0.026102 -0.018056 -0.004999
0.030934 -0.034814 0.001608
0.018626 -0.055172 -0.019957
-0.012138 -0.039212 0.018993
0.037626 -0.063654 -0.000126
0.024186 -0.046738 -0.001695
0.044620 -0.048871 -0.013627
0.000098 -0.023898 -0.007307
0.009326 -0.017562 -0.005458
-0.006061 -0.027001 0.005439
0.013724 -0.029520 -0.000556
0.003892 -0.037760 -0.002843
0.045679 -0.019740 -0.011987
0.034247 -0.029485 -0.032754
-0.002467 -0.018387 -0.000400
-0.012105 -0.021962 -0.013804
-0.026266 -0.040218 -0.013671
0.008205 -0.069950 -0.005293
0.053401 -0.039698 0.006966
0.001637 -0.021181 0.014606
0.020508 -0.008479 0.001451
0.023351 -0.008335 0.005642
0.017511 -0.021737 0.028367
0.008632 -0.009091 -0.003890
0.032667 -0.004490 0.041822
-0.004459 -0.008672 0.022565
0.024536 -0.005296 0.008692
0.029238 -0.005013 0.024885
0.044245 -0.009846 0.014215
0.017286 -0.008218 0.025368
0.013128 -0.005428 0.036954
0.028510 -0.019117 0.042503
0.029194 -0.004820 0.013632
0.034173 -0.009387 0.021473
0.024240 -0.021241 0.002645
0.003473 -0.010987 0.040630
0.036834 -0.025809 0.017983
0.028851 -0.018277 0.013827
0.041079 -0.019367 0.007568
0.012110 -0.006449 0.009546
0.019466 -0.004330 0.015352
0.008049 -0.008177 0.022953
0.021720 -0.008666 0.015379
0.015041 -0.011731 0.014323
0.044264 -0.005826 0.010797
0.034440 -0.008619 -0.005326
0.007142 -0.003899 0.016842
0.006441 -0.008365 0.006492
-0.001111 -0.014898 0.003715
0.016855 -0.029429 0.009697
0.050645 -0.012876 0.031373
0.050590 -0.026531 -0.029443
0.102113 0.011305 -0.028206
0.107829 -0.011120 -0.025043
0.091822 -0.025518 -0.011699
0.079411 -0.012206 -0.036431
0.111176 -0.001427 -0.007433
0.049765 -0.004305 -0.021081
0.117802 -0.001670 -0.026381
0.105969 0.021478 -0.017953
0.118729 0.007829 -0.019010
0.109619 0.009376 -0.014670
0.071901 0.027167 -0.007683
0.105017 -0.014407 -0.003215
0.113743 0.015662 -0.025624
0.112535 -0.008791 -0.016557
0.105441 -0.020018 -0.042082
0.067915 -0.016761 0.000881
0.108706 -0.029321 -0.027025
0.101321 -0.018595 -0.027293
0.125363 -0.015488 -0.029947
0.087522 0.008019 -0.023029
0.097356 0.041519 -0.021543
0.066631 -0.001759 -0.013045
0.099761 -0.007109 -0.022364
0.086181 -0.015240 -0.019035
0.115381 0.022980 -0.023158
0.118775 -0.007867 -0.037450
0.086273 0.011646 -0.020719
0.058941 0.012371 -0.034965
0.048088 -0.021639 -0.031697
0.086404 -0.024315 -0.024253
0.121548 -0.003754 -0.018742
-0.009124 -0.011094 0.050376
0.015802 -0.003470 0.029974
0.024406 -0.003315 0.034367
0.017246 -0.014548 0.087904
-0.000551 -0.003466 0.024964
0.041130 0.001105 0.108125
-0.016755 -0.003619 0.075305
0.021818 0.001333 0.039460
0.031729 0.002113 0.079064
0.053704 -0.005876 0.054985
0.014590 -0.004669 0.076501
0.008887 0.001596 0.102892
0.027665 -0.009489 0.115276
0.034749 0.000469 0.050146
0.041757 -0.004534 0.071072
0.020408 -0.012261 0.028498
-0.007156 -0.004860 0.113480
0.037676 -0.015156 0.058223
0.030906 -0.013130 0.046344
0.046193 -0.010849 0.036235
0.007490 -0.001566 0.042905
0.018496 0.001189 0.057978
0.000122 -0.004829 0.078181
0.020491 -0.005510 0.052614
0.010540 -0.006403 0.056647
0.053059 -0.000618 0.045650
0.037130 -0.002322 0.022136
-0.004503 0.001071 0.059761
-0.001728 -0.002262 0.041649
-0.014537 -0.008227 0.034288
0.009771 -0.019326 0.039936
0.061518 -0.004316 0.090464
0.000798 -0.035635 0.032144
0.026268 -0.006867 0.014206
0.028888 -0.012631 0.018782
0.022000 -0.037752 0.053059
0.010714 -0.012850 0.009578
0.046160 -0.006805 0.071430
-0.007160 -0.010892 0.040252
0.036352 -0.004196 0.020800
0.040240 -0.002190 0.044890
0.061550 -0.013402 0.031661
0.024850 -0.007880 0.044944
0.017752 -0.006932 0.065573
0.041122 -0.035263 0.075463
0.039870 -0.003622 0.027899
0.046289 -0.017552 0.043710
0.029826 -0.035209 0.015634
0.004044 -0.020470 0.072373
0.053214 -0.042720 0.038522
0.039819 -0.031058 0.030559
0.061238 -0.033154 0.024126
0.014174 -0.007684 0.022632
0.023756 -0.001905 0.028443
0.008655 -0.010670 0.046190
0.027678 -0.012641 0.031986
0.017950 -0.019106 0.031255
0.060416 -0.004710 0.025942
0.046917 -0.013783 0.008299
0.008768 -0.003216 0.032369
0.005059 -0.008471 0.018544
-0.002986 -0.025345 0.016148
0.021755 -0.047328 0.025487
0.073677 -0.022663 0.056461
-0.039976 -0.024036 0.057727
-0.005381 -0.013023 0.026181
0.007210 -0.014855 0.031881
-0.000935 -0.027544 0.112012
-0.026130 -0.013710 0.017469
0.025008 -0.007487 0.134123
-0.051969 -0.013255 0.095977
0.004686 -0.007597 0.040824
0.015813 -0.004688 0.100495
0.035835 -0.016078 0.063698
-0.004260 -0.013434 0.094344
-0.013185 -0.005775 0.130667
0.010821 -0.018527 0.147806
0.016485 -0.008740 0.056703
0.023759 -0.015369 0.084883
0.000826 -0.025119 0.020914
-0.037109 -0.014222 0.144796
0.018812 -0.028377 0.066870
0.012808 -0.026930 0.048836
0.029950 -0.019622 0.030570
-0.014751 -0.011909 0.047161
0.000221 -0.003906 0.071481
-0.022909 -0.015781 0.097890
0.001210 -0.016495 0.059641
-0.010010 -0.018115 0.066864
0.034083 -0.007285 0.047476
0.019620 -0.011685 0.011735
-0.031354 -0.008245 0.073435
-0.029934 -0.011408 0.046966
-0.049595 -0.019307 0.033029
-0.009876 -0.032569 0.041763
0.043239 -0.012745 0.106711
-0.000079 -0.033205 0.021957
0.023211 -0.025446 0.004560
0.028844 -0.023601 0.009217
0.022304 -0.036277 0.051301
0.008062 -0.024769 -0.001179
0.043880 -0.020431 0.068434
-0.006852 -0.024547 0.039587
0.028615 -0.020017 0.014343
0.035981 -0.019998 0.043027
0.056250 -0.026885 0.025422
0.020346 -0.025268 0.042458
0.016492 -0.021119 0.063534
0.033694 -0.031424 0.074145
0.037860 -0.020794 0.021654
0.044741 -0.024659 0.036878
0.026787 -0.033780 0.005153
0.001443 -0.025412 0.070694
0.042515 -0.037681 0.028546
0.035066 -0.033558 0.019789
0.050299 -0.032554 0.011936
0.013951 -0.022103 0.015392
0.023770 -0.019422 0.027229
0.008119 -0.024732 0.041002
0.026053 -0.025354 0.023873
0.017386 -0.026123 0.025115
0.056755 -0.022094 0.018683
0.042030 -0.022992 -0.002576
0.005066 -0.019462 0.027748
0.006152 -0.024322 0.013068
-0.003578 -0.028942 0.007890
0.017337 -0.041351 0.014326
0.063969 -0.026940 0.053937
0.104119 -0.053813 -0.025633
0.160362 -0.009211 -0.031254
0.160973 -0.039143 -0.023740
0.143775 -0.055650 -0.006608
0.130830 -0.037613 -0.040463
0.158913 -0.026055 -0.003205
0.099993 -0.028677 -0.017304
0.168886 -0.025026 -0.029123
0.158618 0.001936 -0.012916
0.161133 -0.013009 -0.014399
0.165045 -0.014040 -0.010044
0.126789 0.004616 -0.005357
0.153142 -0.043091 -0.001419
0.164841 -0.005175 -0.022435
0.158137 -0.034308 -0.009333
0.156858 -0.047093 -0.046489
0.121276 -0.044438 0.002273
0.154540 -0.055147 -0.024366
0.152013 -0.044613 -0.022886
0.165342 -0.035939 -0.029795
0.142501 -0.014797 -0.020269
0.153308 0.024467 -0.016648
0.121285 -0.029924 -0.008993
0.152760 -0.030529 -0.018506
0.140118 -0.040347 -0.015214
0.158600 0.007353 -0.022939
0.169750 -0.033028 -0.044746
0.139873 -0.012852 -0.019733
0.111995 -0.009615 -0.034402
0.095035 -0.049554 -0.033235
0.136791 -0.054743 -0.022917
0.158329 -0.024179 -0.014466
0.090027 -0.043696 -0.029433
0.146725 -0.003211 -0.030309
0.146608 -0.028632 -0.025271
0.130405 -0.044851 -0.010423
0.117313 -0.029490 -0.038240
0.148012 -0.016077 -0.009502
0.087009 -0.020214 -0.021949
0.155883 -0.015934 -0.030903
0.145506 0.009552 -0.018354
0.150146 -0.004577 -0.018523
0.152207 -0.005067 -0.013392
0.110649 0.012925 -0.010818
0.140654 -0.031207 -0.006672
0.151159 0.003559 -0.025779
0.145653 -0.023997 -0.015137
0.143341 -0.037632 -0.045576
0.106514 -0.034890 -0.001745
0.141547 -0.045946 -0.028413
0.137880 -0.034477 -0.026258
0.154365 -0.026660 -0.030157
0.127751 -0.005677 -0.022537
0.140120 0.031687 -0.019478
0.104358 -0.018888 -0.012738
0.138446 -0.022173 -0.021423
0.126583 -0.031022 -0.017564
0.146250 0.014536 -0.025628
0.155972 -0.023095 -0.041447
0.126749 -0.005466 -0.023174
0.098656 -0.001964 -0.036325
0.082598 -0.039155 -0.033213
0.123129 -0.044190 -0.022591
0.149033 -0.014475 -0.019337
-0.040245 -0.023788 0.046498
-0.006797 -0.015087 0.017643
0.006653 -0.017271 0.022876
-0.000812 -0.027995 0.099171
-0.027042 -0.016083 0.010463
0.024547 -0.009806 0.121627
-0.050570 -0.015818 0.084172
0.001711 -0.011097 0.031331
0.015190 -0.007920 0.088306
0.036969 -0.018265 0.052962
-0.005340 -0.016821 0.082396
-0.013531 -0.007863 0.117450
0.008750 -0.019749 0.134329
0.017501 -0.011424 0.047330
0.024720 -0.018019 0.074131
-0.000046 -0.025989 0.012388
-0.036560 -0.016855 0.131565
0.019103 -0.027880 0.055364
0.013292 -0.028053 0.038667
0.029394 -0.021847 0.021743
-0.014431 -0.014932 0.038082
-0.000270 -0.008190 0.059366
-0.023827 -0.018200 0.086265
0.001615 -0.019793 0.049541
-0.010866 -0.020351 0.056878
0.035718 -0.010668 0.037908
0.018902 -0.014947 0.005055
-0.031691 -0.011195 0.063220
-0.029149 -0.013174 0.037435
-0.050082 -0.021069 0.024322
-0.013112 -0.033438 0.030749
0.044927 -0.014177 0.096252
-0.003465 -0.025457 0.014699
0.021613 -0.009426 -0.002319
0.026261 -0.011120 0.003247
0.018440 -0.025580 0.030991
0.004529 -0.011232 -0.008678
0.038523 -0.004715 0.047141
-0.012710 -0.010330 0.026018
0.027900 -0.005900 0.006659
0.034185 -0.004517 0.027713
0.052628 -0.011074 0.013337
0.018415 -0.009477 0.028583
0.010505 -0.004937 0.042399
0.031210 -0.022025 0.047217
0.035243 -0.004186 0.013504
0.040695 -0.012300 0.023203
0.027056 -0.025273 -0.001312
-0.001149 -0.014631 0.046612
0.042380 -0.029440 0.018219
0.033090 -0.022379 0.013422
0.049018 -0.021829 0.003572
0.010955 -0.007662 0.009335
0.021054 -0.003992 0.015507
0.004687 -0.010380 0.027276
0.023966 -0.012144 0.015869
0.014172 -0.015977 0.015726
0.054185 -0.005731 0.008780
0.041833 -0.010179 -0.012371
0.004224 -0.003555 0.019097
0.001897 -0.008573 0.005822
-0.010561 -0.018348 0.002988
0.015789 -0.034961 0.008306
0.060040 -0.015039 0.033665
-0.051263 -0.022916 0.000642
-0.011696 -0.007157 -0.023167
0.000873 -0.010966 -0.015375
-0.009498 -0.022179 0.020799
-0.039227 -0.010649 -0.033374
0.014325 -0.002714 0.038095
-0.065479 -0.008787 0.018906
-0.003403 -0.004034 -0.009084
0.008582 -0.000298 0.018414
0.029953 -0.009584 -0.000060
-0.014623 -0.008828 0.017809
-0.024770 -0.000847 0.034826
0.000320 -0.015671 0.040098
0.011646 -0.001677 0.001152
0.016094 -0.011014 0.010926
-0.004643 -0.022312 -0.026014
-0.045432 -0.012547 0.039500
0.014576 -0.025382 0.003354
0.006205 -0.020279 -0.001758
0.025476 -0.016331 -0.018625
-0.022194 -0.007301 -0.004352
-0.009507 0.001724 0.003498
-0.032260 -0.009862 0.018612
-0.004982 -0.013191 0.003718
-0.020555 -0.016178 0.003832
0.035837 -0.002593 -0.008817
0.017581 -0.007102 -0.039317
-0.035915 -0.002515 0.009562
-0.042417 -0.004267 -0.008644
-0.070212 -0.014795 -0.013389
-0.020449 -0.031045 -0.007162
0.036612 -0.010427 0.021817
-0.004711 -0.020638 0.016342
0.022205 -0.014393 -0.001622
0.031174 -0.012971 0.003169
0.023219 -0.022654 0.043702
0.004543 -0.013826 -0.007027
0.046746 -0.008263 0.061267
-0.012670 -0.014118 0.035192
0.028631 -0.009535 0.008630
0.037971 -0.008881 0.036658
0.062098 -0.014823 0.019118
0.019436 -0.014849 0.037235
0.013454 -0.009377 0.056823
0.033836 -0.018778 0.064360
0.043203 -0.008691 0.016323
0.049802 -0.013233 0.031344
0.028300 -0.021270 -0.001887
-0.001996 -0.015051 0.062363
0.045709 -0.022031 0.022061
0.037744 -0.021578 0.014124
0.054843 -0.020323 0.004843
0.013916 -0.011177 0.011101
0.023800 -0.008238 0.020889
0.005020 -0.014048 0.036311
0.028001 -0.015441 0.018873
0.015089 -0.015931 0.020513
0.065038 -0.010398 0.011874
0.046848 -0.011751 -0.010051
0.001327 -0.008192 0.023921
0.002244 -0.012991 0.008554
-0.011236 -0.018337 0.003609
0.014806 -0.026748 0.007596
0.069406 -0.014746 0.047725
-0.025774 -0.067922 -0.018614
0.005770 -0.026483 -0.044027
0.010747 -0.036592 -0.032579
0.002821 -0.066096 -0.007241
-0.013207 -0.034797 -0.050267
0.024776 -0.030047 0.003122
-0.032294 -0.035167 -0.016832
0.018833 -0.026481 -0.033566
0.019261 -0.024293 -0.017486
0.044826 -0.033399 -0.023910
0.005148 -0.030118 -0.013109
-0.006305 -0.028900 -0.001654
0.021388 -0.062686 0.005643
0.023569 -0.023423 -0.024962
0.027751 -0.042459 -0.015281
0.011764 -0.065056 -0.038790
-0.018255 -0.050031 0.004167
0.035049 -0.076817 -0.015380
0.021108 -0.057076 -0.020003
0.043740 -0.057601 -0.030495
-0.005618 -0.030818 -0.028662
0.001800 -0.021550 -0.028973
-0.013382 -0.035029 -0.012143
0.009786 -0.037207 -0.019106
-0.002988 -0.046153 -0.021467
0.045105 -0.024475 -0.032106
0.030168 -0.035135 -0.050975
-0.010587 -0.025338 -0.021315
-0.018769 -0.028938 -0.037382
-0.033534 -0.049912 -0.034657
0.000734 -0.083858 -0.022051
0.054355 -0.048704 -0.007866
0.070237 -0.125778 -0.032145
0.152928 -0.069965 -0.042810
0.133352 -0.086889 -0.033504
0.125513 -0.142846 -0.000614
0.104494 -0.091776 -0.059570
0.140650 -0.025168 -0.002613
0.019902 -0.067694 -0.047986
0.160667 -0.090464 -0.034531
0.151499 -0.034742 -0.038617
0.146811 -0.017138 -0.041786
0.119888 -0.039056 -0.039850
0.084845 -0.004495 -0.027979
0.138240 -0.080814 -0.020245
0.140771 -0.038127 -0.037751
0.155133 -0.096106 -0.045539
0.148779 -0.149896 -0.027747
0.042982 -0.088288 -0.021989
0.111783 -0.136882 -0.071602
0.104300 -0.106138 -0.007820
0.186969 -0.111579 -0.038383
0.111971 -0.031778 -0.023281
0.149052 0.001464 -0.012795
0.087324 -0.071468 -0.043174
0.139127 -0.053336 -0.017274
0.087470 -0.085515 -0.004767
0.141664 -0.039734 -0.023488
0.157841 -0.093865 -0.040357
0.159923 -0.027806 -0.026578
0.097228 0.005942 -0.072942
-0.000923 -0.078171 -0.070015
0.095532 -0.132680 -0.033996
0.155599 -0.101780 -0.014564
0.108377 -0.047359 -0.023649
0.181778 -0.008760 -0.027712
0.183937 -0.032875 -0.020989
0.163249 -0.050512 -0.005803
0.139904 -0.034893 -0.036914
0.184550 -0.018731 -0.002794
0.099461 -0.024573 -0.013263
0.194055 -0.019954 -0.024900
0.185105 0.002195 -0.010184
0.187405 -0.006906 -0.009831
0.189705 -0.006951 -0.006352
0.142435 0.008366 -0.003643
0.175239 -0.037301 -0.001780
0.189805 0.001220 -0.018180
0.182698 -0.027732 -0.008098
0.177152 -0.039326 -0.045095
0.130186 -0.039596 0.002549
0.177470 -0.046488 -0.024284
0.172630 -0.035319 -0.019710
0.191682 -0.028798 -0.024193
0.159579 -0.007946 -0.015546
0.177410 0.024708 -0.010506
0.131721 -0.023678 -0.005119
0.172584 -0.024819 -0.015004
0.158122 -0.032996 -0.009969
0.185248 0.010989 -0.017989
0.195244 -0.028143 -0.039616
0.156575 -0.011496 -0.016955
0.119203 -0.003521 -0.030676
0.086114 -0.046132 -0.029323
0.151947 -0.045077 -0.018715
0.187061 -0.016320 -0.010304
0.090781 -0.027592 -0.029108
0.162395 0.017276 -0.037221
0.166287 -0.013806 -0.030121
0.144666 -0.030356 -0.008239
0.126039 -0.012256 -0.046675
0.165393 0.001449 -0.000570
0.084530 -0.002147 -0.016572
0.173949 0.001040 -0.031730
0.163921 0.026040 -0.013722
0.170813 0.013299 -0.016704
0.167414 0.014899 -0.011647
0.124937 0.034142 -0.001211
0.156380 -0.018393 0.002352
0.172051 0.022606 -0.024944
0.165757 -0.008832 -0.012053
0.158923 -0.019960 -0.055164
0.112225 -0.018155 0.005889
0.161044 -0.028342 -0.028677
0.155911 -0.018239 -0.028183
0.177572 -0.013277 -0.036494
0.142372 0.013685 -0.022935
0.155423 0.049591 -0.018072
0.117021 -0.002384 -0.008705
0.156481 -0.004893 -0.021557
0.137295 -0.014327 -0.017369
0.169035 0.032804 -0.023458
0.178315 -0.008789 -0.051713
0.134636 0.015951 -0.019871
0.102063 0.018766 -0.036978
0.076359 -0.026883 -0.037045
0.135781 -0.024766 -0.028771
0.171703 -0.000279 -0.014616
0.046787 -0.011973 -0.023599
0.115059 0.026969 -0.020022
0.121384 0.006363 -0.016634
0.102852 -0.012378 -0.004758
0.082080 0.002868 -0.027797
0.129476 0.017587 -0.002404
0.042669 0.012193 -0.014748
0.137471 0.016800 -0.018045
0.124026 0.040506 -0.011323
0.139207 0.027878 -0.010352
0.128258 0.029259 -0.005364
0.076711 0.048188 -0.002615
0.118927 0.001191 0.001086
0.132334 0.037368 -0.016627
0.130168 0.009095 -0.010454
0.117326 -0.006628 -0.033197
0.068548 -0.003617 0.006582
0.123081 -0.015627 -0.021227
0.112950 0.000023 -0.019431
0.144361 0.001608 -0.017225
0.094521 0.027752 -0.014589
0.113844 0.063454 -0.012594
0.065056 0.016192 -0.005366
0.111165 0.010158 -0.013800
0.095828 0.000977 -0.009483
0.134392 0.044660 -0.014393
0.135816 0.009659 -0.025801
0.098784 0.028576 -0.014218
0.057309 0.032697 -0.028201
0.034545 -0.007459 -0.022995
0.091543 -0.011159 -0.012749
0.143715 0.016121 -0.011452
0.028760 -0.021651 0.012278
0.054994 -0.014645 -0.000854
0.066563 -0.012939 0.003194
0.056520 -0.022279 0.028475
0.037627 -0.014962 -0.006916
0.079660 -0.006658 0.043597
0.021443 -0.013109 0.023824
0.063081 -0.010171 0.008919
0.072261 -0.009006 0.026210
0.098916 -0.013368 0.015122
0.050213 -0.013535 0.029039
0.046003 -0.008260 0.039844
0.067459 -0.016989 0.041417
0.079014 -0.007763 0.013845
0.085669 -0.012002 0.022382
0.063973 -0.023349 -0.000741
0.032267 -0.013291 0.039412
0.081291 -0.024065 0.015569
0.070966 -0.020551 0.012673
0.093660 -0.020457 0.004067
0.048269 -0.010774 0.011838
0.056316 -0.006213 0.018362
0.039362 -0.011936 0.024368
0.063534 -0.014453 0.017532
0.046544 -0.015829 0.014953
0.106840 -0.009630 0.010290
0.084262 -0.013725 -0.009989
0.035202 -0.006806 0.019308
0.035092 -0.012409 0.006372
0.022154 -0.016881 0.003792
0.048072 -0.028729 0.006736
0.105617 -0.014478 0.034362
0.029343 -0.066735 -0.001556
0.054510 -0.032947 -0.018312
0.057526 -0.037715 -0.011984
0.049877 -0.065818 0.008236
0.039790 -0.037814 -0.024288
0.070749 -0.031746 0.019370
0.024123 -0.036778 0.001246
0.064850 -0.031664 -0.011594
0.065701 -0.029939 0.002425
0.090832 -0.035904 -0.005156
0.051860 -0.033058 0.005877
0.042528 -0.032722 0.015500
0.068171 -0.063712 0.019173
0.069818 -0.027430 -0.005197
0.075990 -0.043054 0.002022
0.061722 -0.066489 -0.016246
0.034265 -0.048577 0.018220
0.082747 -0.075529 0.000621
0.067548 -0.056983 -0.001420
0.091340 -0.060778 -0.010950
0.043144 -0.033159 -0.007251
0.050312 -0.027290 -0.005836
0.037153 -0.035374 0.004187
0.055858 -0.037653 -0.000667
0.045219 -0.045357 -0.003682
0.093405 -0.029883 -0.010553
0.078372 -0.040529 -0.026133
0.039193 -0.027997 -0.001679
0.034768 -0.034101 -0.014620
0.026709 -0.051471 -0.013069
0.050690 -0.082086 -0.005627
0.102231 -0.049353 0.009517
0.004767 -0.009254 0.027543
0.026540 -0.002838 0.011713
0.033288 -0.002112 0.015811
0.027217 -0.011252 0.052650
0.012302 -0.002463 0.006763
0.046537 0.001522 0.069379
-0.001310 -0.003160 0.044214
0.031339 0.001137 0.020048
0.039134 0.001637 0.046377
0.058982 -0.003969 0.030267
