-0.331823 -0.027162 0.114603
-0.082324 -0.044555 0.294268
-0.320749 -0.026823 0.114583
-0.057205 -0.042151 0.294630
-0.065047 -0.044475 0.283010
-0.300534 -0.028842 0.094034
-0.049304 -0.045315 0.276099
-0.040563 -0.044788 0.269182
-0.051511 -0.048447 0.251663
-0.034839 -0.043506 0.260992
-0.294552 -0.034042 0.068211
-0.041233 -0.047326 0.252099
-0.030185 -0.047277 0.245576
-0.276701 -0.033392 0.062815
-0.061299 -0.054515 0.206550
-0.020209 -0.047739 0.235279
-0.036606 -0.051455 0.216777
-0.315201 -0.048263 -0.001349
-0.013656 -0.046628 0.228382
-0.265949 -0.043542 0.037970
-0.323220 -0.035503 -0.003509
-0.037885 -0.054856 0.205490
-0.289637 -0.054984 0.009655
-0.018346 -0.050547 0.218302
-0.307011 -0.035570 0.003815
-0.274868 -0.055198 0.016019
-0.254076 -0.046590 0.035866
-0.279293 -0.041507 0.017060
-0.289415 -0.032051 0.009718
-0.263027 -0.053743 0.019633
-0.266457 -0.040530 0.020197
-0.302573 -0.026156 -0.007255
-0.257434 -0.068555 0.008373
-0.244451 -0.053968 0.024616
-0.027195 -0.054816 0.187775
-0.305762 -0.007440 -0.006154
-0.001592 -0.049949 0.202837
-0.269904 -0.026850 0.009617
-0.309440 0.007306 -0.005946
-0.295944 -0.012745 -0.005235
-0.251218 -0.031304 0.020135
-0.239277 -0.071188 0.009948
-0.012871 -0.053892 0.187943
-0.227024 -0.051848 0.026445
-0.226657 -0.065307 0.018875
-0.312419 0.026398 -0.006015
-0.317088 0.035566 -0.006488
-0.233836 -0.034294 0.025646
-0.292931 0.002095 -0.003342
-0.283938 -0.011831 -0.004191
-0.321977 0.049295 -0.007222
-0.268947 -0.022066 -0.000402
-0.296648 0.020682 -0.002791
-0.281918 0.001265 -0.000698
-0.002824 -0.054371 0.184602
-0.305206 0.035378 -0.004262
-0.286882 0.010917 -0.001259
-0.219893 -0.042402 0.025779
-0.217225 -0.074351 0.011948
-0.208819 -0.064084 0.022099
0.008632 -0.050794 0.192509
-0.309952 0.049288 -0.004755
-0.271615 0.000669 0.001373
-0.326200 0.067845 -0.010868
-0.275912 0.010910 0.000590
-0.330382 0.076472 -0.012953
-0.261624 -0.012312 0.000330
-0.293936 0.043812 0.000341
-0.040501 -0.064230 0.143781
-0.284290 0.030224 0.000871
-0.212036 -0.033759 0.025760
-0.231705 -0.021767 0.016324
-0.313542 0.067275 -0.007277
-0.336339 0.091396 -0.014140
-0.204638 -0.041477 0.026983
-0.297590 0.053482 -0.001974
-0.318457 0.076317 -0.009340
-0.337123 0.104585 -0.012393
-0.246735 -0.017082 0.002382
-0.190408 -0.072224 0.019655
-0.264229 0.019653 0.003861
0.017057 -0.050383 0.184026
-0.254896 0.006081 0.003594
-0.285471 0.053130 0.000537
-0.220617 -0.021224 0.015514
-0.275300 0.043914 0.002599
-0.184585 -0.053726 0.027228
-0.295747 0.070977 -0.001930
-0.236324 -0.017199 0.003418
-0.020889 -0.063862 0.144468
0.016535 -0.053898 0.174344
-0.176072 -0.066226 0.023599
-0.191646 -0.032350 0.026895
-0.286417 0.070244 0.000233
-0.183829 -0.041005 0.028018
-0.316626 0.099667 -0.010883
-0.253498 0.024988 0.003732
-0.226491 -0.016885 0.005022
0.007937 -0.047129 0.168330
-0.175574 -0.075418 0.017015
-0.010133 -0.060469 0.149298
-0.181251 -0.080897 0.009909
-0.311251 0.090977 -0.011837
-0.275516 0.061631 0.001344
-0.245098 0.014430 0.002904
-0.172845 -0.053187 0.026401
-0.266838 0.052436 0.002546
0.003765 -0.058838 0.156058
-0.204685 -0.020395 0.016280
-0.164334 -0.066109 0.025284
-0.301796 0.095108 -0.008090
-0.253981 0.038824 0.002379
-0.259531 0.047273 0.001095
-0.168501 -0.084817 0.008417
-0.195489 -0.019758 0.017716
-0.209877 -0.016922 0.006810
0.025242 -0.053946 0.166031
-0.226303 0.004814 0.001827
-0.171087 -0.032050 0.027414
-0.216561 -0.007886 0.003367
-0.154196 -0.052775 0.028976
-0.184587 -0.019651 0.017353
-0.154664 -0.040410 0.030040
-0.150784 -0.083831 0.011783
-0.143369 -0.074836 0.020864
-0.192179 -0.016182 0.009395
0.029185 -0.050194 0.157377
-0.198529 -0.012610 0.001213
-0.140858 -0.083118 0.013213
-0.135482 -0.052683 0.030044
-0.165586 -0.020489 0.019837
0.028147 -0.058119 0.147447
-0.143435 -0.032310 0.030032
-0.132804 -0.087411 0.006771
-0.120296 -0.081930 0.016145
-0.116187 -0.052559 0.029903
0.007482 -0.066031 0.115382
-0.124638 -0.032106 0.030221
-0.137258 -0.021009 0.021059
0.043362 -0.055707 0.140808
-0.111866 -0.086350 0.008548
0.025215 -0.065596 0.120810
-0.108258 -0.040097 0.032436
-0.017386 -0.068668 0.085551
-0.021856 -0.076047 0.076521
-0.092513 -0.056536 0.030343
-0.092192 -0.077702 0.019566
-0.101106 -0.087177 0.007783
0.044989 -0.060111 0.128394
0.034444 -0.064718 0.117295
-0.101979 -0.028379 0.028580
0.024954 -0.077429 0.099708
0.036009 -0.083235 0.104391
-0.089122 -0.036424 0.030304
-0.002336 -0.075877 0.076849
0.040704 -0.094892 0.098760
0.042574 -0.053696 0.119192
-0.107887 -0.021105 0.021078
-0.072888 -0.056586 0.029047
-0.080152 -0.086347 0.009546
0.050878 -0.090715 0.104590
-0.069416 -0.076443 0.020670
0.053928 -0.060909 0.118103
-0.074633 -0.036656 0.029651
0.051961 -0.079866 0.104308
-0.082356 -0.029084 0.027859
0.044513 -0.069126 0.102032
0.001323 -0.111284 0.049522
0.064215 -0.090168 0.106432
0.058248 -0.104196 0.094316
-0.088291 -0.021817 0.020607
-0.050528 -0.084233 0.020330
-0.055338 -0.048701 0.031524
-0.060432 -0.085337 0.011115
0.069343 -0.103038 0.097272
0.063760 -0.076234 0.105189
0.019035 -0.105550 0.055875
-0.035178 -0.085039 0.023840
-0.062848 -0.029453 0.026854
0.082231 -0.086783 0.105385
0.077001 -0.075871 0.106391
0.008537 -0.104853 0.040927
0.031874 -0.112847 0.053108
0.091816 -0.096088 0.104491
-0.045817 -0.037172 0.029257
0.061343 -0.057207 0.099215
0.091736 -0.086211 0.107757
-0.030748 -0.056707 0.029923
-0.074348 -0.018605 0.012428
0.096893 -0.105304 0.097637
0.106735 -0.093687 0.108924
0.101790 -0.084310 0.109586
0.068486 -0.060019 0.096312
0.026713 -0.115243 0.038772
0.080737 -0.063894 0.101136
-0.054532 -0.021915 0.019505
-0.039041 -0.029452 0.026450
0.106726 -0.104352 0.099222
-0.009898 -0.042510 0.040808
-0.016576 -0.048888 0.031296
0.064243 -0.057424 0.086790
-0.022073 -0.037463 0.028892
0.105293 -0.073731 0.105941
-0.044091 0.023193 0.036657
0.075230 -0.064190 0.083882
-0.001733 -0.036412 0.040017
0.109161 -0.102358 0.090503
0.100687 -0.067343 0.100208
-0.042425 -0.022464 0.013806
-0.007392 -0.041146 0.030464
-0.041170 -0.018464 0.012062
0.097406 -0.094137 0.080164
0.008212 -0.037775 0.038485
0.011412 -0.059767 0.030574
-0.000437 0.024674 0.059368
0.100368 -0.084503 0.082973
-0.010537 -0.029834 0.025791
-0.015192 0.008613 0.037257
0.108364 -0.093357 0.080444
0.082487 -0.066606 0.073485
0.106931 -0.075811 0.087129
-0.016170 -0.022161 0.018139
0.020228 0.005149 0.057706
0.010754 -0.040671 0.029114
-0.045408 0.007142 0.007447
0.110970 -0.083284 0.081547
0.032039 -0.059588 0.031635
0.015884 0.012638 0.051184
-0.041938 0.005883 0.002626
-0.032691 -0.010813 0.001336
0.012703 -0.029181 0.025472
0.084445 -0.071251 0.058973
-0.007428 -0.006638 0.020004
-0.017157 0.007492 0.019759
-0.039226 0.000749 -0.001726
0.076842 -0.060623 0.056081
0.030394 -0.041148 0.029806
-0.027473 -0.008786 0.001440
-0.001301 -0.046798 0.002579
-0.028454 0.017790 0.011320
0.047957 -0.059968 0.031912
-0.003540 -0.031425 0.006718
0.010313 -0.018658 0.022202
-0.017536 -0.026806 -0.003017
-0.000282 -0.052921 -0.003111
-0.026572 0.008498 0.005424
0.043443 -0.048379 0.031354
-0.009096 -0.019960 0.004196
0.005405 -0.018078 0.014564
-0.013581 0.016875 0.013162
-0.017357 -0.002226 0.000622
0.001500 -0.010264 0.011187
0.033174 -0.030039 0.025182
-0.009694 0.015920 0.014120
-0.006210 0.015711 0.016753
0.018362 0.000423 0.027369
0.005420 -0.007108 0.014087
0.088407 -0.075084 0.043718
0.014474 0.011246 0.028634
-0.008310 -0.001246 0.005610
0.014783 -0.010599 0.018607
-0.019130 0.030069 0.010991
0.051294 -0.040877 0.030497
0.078948 -0.062227 0.041129
-0.005041 -0.010518 0.002541
-0.001870 0.014948 0.016414
-0.008837 0.000482 0.004404
-0.010280 0.031770 0.017437
0.010266 0.015328 0.024722
-0.010809 -0.005538 -0.000620
-0.002427 -0.006182 0.004766
-0.012127 -0.004513 -0.002555
-0.002782 -0.024491 -0.005566
-0.010129 0.003734 0.001452
0.030228 -0.007021 0.026577
0.005912 -0.001199 0.010674
-0.013883 -0.014616 -0.011107
-0.003471 -0.008891 -0.000120
0.006813 0.008384 0.015389
0.064900 -0.052665 0.029748
0.084149 -0.081224 0.030996
-0.033962 0.034815 -0.003876
-0.006161 -0.001581 0.000255
-0.014831 0.011261 -0.000545
-0.015807 0.029051 0.007395
-0.005624 -0.002421 0.000318
0.094240 -0.065448 0.044625
0.001190 -0.025080 -0.005825
0.018495 -0.031231 0.003759
-0.000801 -0.001072 0.003549
0.048482 -0.030470 0.025752
-0.008338 -0.017887 -0.011017
0.036434 -0.022864 0.017301
0.031320 -0.021970 0.013780
-0.042523 0.018245 -0.022930
-0.031607 0.007997 -0.020103
-0.005083 -0.006232 -0.007759
-0.034513 0.022344 -0.016501
0.080885 -0.091243 0.015880
-0.011704 0.002701 -0.010615
-0.028934 0.008029 -0.020952
-0.013618 -0.018930 -0.021339
0.081446 -0.063407 0.027268
0.029880 -0.028837 0.004707
0.019646 -0.029030 -0.003189
0.092852 -0.080434 0.026612
0.015062 0.003023 0.006939
0.061229 -0.030757 0.025076
0.001975 -0.019470 -0.014105
0.011704 -0.005590 -0.000684
0.076510 -0.044584 0.028824
0.009987 0.024392 0.011217
0.023357 -0.008713 0.005084
0.004018 0.009823 -0.001000
0.013167 -0.019826 -0.009293
0.103988 -0.075475 0.030457
0.088383 -0.055198 0.027665
-0.003323 0.025640 -0.004705
0.002347 0.005101 -0.009576
-0.027685 0.025540 -0.023758
-0.005099 0.006039 -0.015937
-0.003649 -0.027321 -0.030920
0.048010 -0.019364 0.010864
0.100467 -0.088321 0.017974
0.107917 -0.082698 0.025135
0.078251 -0.033422 0.026474
0.024036 -0.004031 -0.000696
0.034740 -0.035945 -0.007332
0.012632 0.017034 0.000045
0.012270 0.009835 -0.004558
-0.006875 0.019620 -0.014073
0.041765 0.024505 0.024624
-0.003527 0.008321 -0.017475
0.007801 0.042207 0.005529
0.004854 -0.021804 -0.026596
0.000574 0.002296 -0.019387
0.092799 -0.043909 0.027799
0.033207 0.022202 0.013647
0.018576 0.029254 0.004346
0.024312 -0.016692 -0.012804
-0.000139 -0.004169 -0.024897
0.021873 -0.013432 -0.013535
0.102617 -0.055318 0.026458
0.027145 0.018563 0.004358
-0.015823 0.044126 -0.015942
0.007098 0.037053 -0.002570
0.109913 -0.064633 0.026546
0.060434 -0.019121 0.010731
-0.004509 -0.015498 -0.035951
0.014267 -0.014872 -0.022526
0.011709 0.006511 -0.015090
0.015304 -0.045949 -0.039501
0.099601 -0.035888 0.027314
0.108290 -0.088174 0.009673
0.087003 -0.025683 0.021999
0.009713 0.037913 -0.006165
0.030103 -0.015136 -0.016016
0.014749 0.019902 -0.011253
0.124782 -0.074072 0.025470
0.009894 0.017713 -0.017589
0.015278 0.007189 -0.018830
0.028519 0.028838 -0.000289
0.020070 -0.049376 -0.043818
0.022380 0.020420 -0.009937
0.075800 -0.018650 0.010557
0.019894 0.002605 -0.022804
0.022687 -0.024521 -0.033335
0.129428 -0.082164 0.018284
0.030390 0.011479 -0.011921
0.003564 0.008690 -0.034085
0.128917 -0.060078 0.025458
0.029959 0.035846 -0.003325
0.032942 0.012797 -0.013543
0.105996 -0.024754 0.022302
0.128134 -0.048885 0.027986
0.127426 -0.086906 0.007932
0.124335 -0.038960 0.027741
0.087627 -0.018404 0.010408
0.022887 0.009363 -0.025405
0.115835 -0.028364 0.025418
0.013103 0.050770 -0.014699
0.018270 -0.010344 -0.039716
0.007055 0.016903 -0.038272
0.021400 -0.015528 -0.044316
