-0.197263 -0.375407 0.188759
-0.204214 -0.354105 0.186927
-0.175315 -0.382076 0.189381
-0.199312 -0.325115 0.187313
-0.199802 -0.304973 0.190313
-0.154852 -0.371889 0.181550
-0.189192 -0.276787 0.184050
-0.190950 -0.255990 0.191843
-0.109365 -0.381189 0.185514
-0.182170 -0.222503 0.191498
-0.064263 -0.384044 0.180406
-0.171961 -0.190589 0.184187
-0.170209 -0.162797 0.192388
-0.170145 -0.123537 0.195377
-0.164759 -0.142809 0.187531
-0.025622 -0.383226 0.175263
-0.164463 -0.084778 0.198701
-0.160539 -0.103536 0.189478
0.002450 -0.377692 0.169739
-0.157700 -0.054590 0.197972
-0.158465 -0.017553 0.201173
0.031143 -0.378227 0.168291
0.049162 -0.386016 0.173862
-0.154875 0.000627 0.199985
0.071311 -0.386578 0.176113
-0.143324 -0.022772 0.176753
-0.153826 0.011058 0.182255
0.091800 -0.386845 0.177582
-0.108128 -0.016278 0.180124
-0.145976 0.065731 0.178825
-0.151530 0.038716 0.160796
-0.085373 -0.019932 0.181389
0.133584 -0.376404 0.176451
-0.105517 -0.026312 0.158203
-0.153740 0.027842 0.130794
0.170394 -0.378163 0.180950
-0.140141 0.090623 0.163151
-0.137986 0.110541 0.172909
-0.105981 -0.026260 0.135167
-0.141961 0.132877 0.179073
-0.048703 -0.013734 0.182550
-0.145995 0.059808 0.137561
-0.142338 0.157843 0.179551
-0.030389 -0.018130 0.182835
-0.139742 0.111947 0.148529
-0.152453 0.033388 0.102879
-0.147692 0.055013 0.110274
-0.143553 0.199536 0.177528
-0.006415 -0.017975 0.180024
-0.140551 0.089854 0.127550
-0.037740 -0.022594 0.153442
-0.114682 -0.027122 0.090305
-0.143357 0.074982 0.114278
-0.137493 0.159495 0.155743
-0.137553 0.140276 0.146922
-0.137347 0.178103 0.158484
-0.151424 0.034520 0.082643
-0.149832 0.247276 0.176208
0.020500 -0.019337 0.178391
-0.037854 -0.023157 0.132099
-0.139086 0.127690 0.123623
-0.154731 0.271166 0.174053
-0.161505 0.288427 0.171838
-0.145384 0.056084 0.078632
-0.152317 0.026444 0.055854
-0.120173 -0.026224 0.054754
0.047528 -0.014520 0.184554
-0.138342 0.195096 0.140271
-0.142543 0.223404 0.148618
-0.141853 0.076351 0.083571
-0.137018 0.173001 0.127750
-0.139062 0.105270 0.094033
-0.145395 0.243406 0.150347
-0.039385 -0.022546 0.110508
-0.137888 0.155541 0.115567
0.024247 -0.019563 0.152833
-0.144471 0.056829 0.057986
-0.164305 0.324630 0.159978
-0.042130 -0.023187 0.092272
0.070277 -0.003547 0.183126
-0.173021 0.346086 0.156819
0.260314 -0.343314 0.162105
-0.185196 0.367388 0.154410
-0.143801 0.222516 0.122223
-0.137484 0.145752 0.092428
-0.139751 0.086553 0.063441
-0.149297 0.036029 0.030738
-0.155655 0.290828 0.139007
-0.139183 0.178087 0.100419
0.257817 -0.314355 0.164194
-0.142503 0.205656 0.106609
-0.161425 0.312085 0.138988
-0.137125 0.115511 0.068036
0.093227 -0.002945 0.184531
0.075947 -0.014054 0.166015
-0.126903 -0.027206 0.007015
-0.200825 -0.382996 -0.225809
-0.151028 0.262789 0.116269
-0.175118 0.352654 0.135684
-0.209878 -0.359609 -0.224280
-0.141850 0.066867 0.032745
-0.139256 0.087858 0.043750
0.257664 -0.285707 0.164526
0.022671 -0.019743 0.112443
-0.150765 0.027555 0.001819
-0.043360 -0.023058 0.057460
-0.146780 0.235103 0.095643
-0.018417 -0.033467 0.070972
-0.137309 0.117208 0.048301
-0.167717 0.328632 0.118592
-0.192047 0.360891 0.112817
0.253991 -0.253329 0.164594
-0.140303 0.185787 0.075039
-0.138656 0.166135 0.066815
0.123957 -0.003030 0.184330
-0.144180 0.054304 0.009945
-0.161887 0.301609 0.106620
-0.174778 -0.377669 -0.222667
-0.203983 -0.328905 -0.224848
-0.157662 0.283486 0.098769
-0.137929 0.139433 0.048702
-0.142811 0.206814 0.072084
-0.145444 0.226055 0.078776
0.252877 -0.223860 0.166827
-0.135320 -0.028916 -0.031091
-0.167326 0.319834 0.100850
0.005327 -0.054513 0.060286
-0.203008 -0.309361 -0.224078
0.146568 -0.006127 0.183528
-0.198544 0.362341 0.089851
-0.145967 0.046601 -0.011811
-0.153037 0.262376 0.079070
-0.136389 0.118749 0.027247
-0.173284 0.340790 0.097653
-0.140641 0.188432 0.054639
-0.050164 0.027294 0.048373
0.078271 -0.014665 0.123848
-0.148205 0.243542 0.069097
-0.137532 0.098618 0.011386
0.258532 -0.203001 0.164312
-0.139199 0.077265 -0.000768
-0.043123 -0.048520 0.012687
-0.166229 0.312243 0.080863
-0.160548 0.291825 0.075846
0.128069 -0.009667 0.154554
-0.138850 -0.383086 -0.226647
-0.137815 0.157410 0.031071
-0.197908 -0.279230 -0.223316
0.022859 -0.017687 0.069831
0.257362 -0.173252 0.166242
-0.141719 -0.031155 -0.064406
-0.202217 0.363515 0.067057
-0.054177 0.010997 0.021525
-0.155735 0.273406 0.060678
-0.050629 -0.022980 0.005411
0.171313 0.003805 0.180510
-0.038106 -0.029355 0.011388
0.251006 -0.144803 0.168816
-0.148167 0.041300 -0.041333
0.021791 -0.033872 0.052986
-0.001492 -0.019244 0.042171
-0.174489 0.339701 0.071987
-0.017641 0.005939 0.040088
-0.009199 -0.049156 0.019650
-0.150359 0.254390 0.050618
-0.140382 0.073203 -0.023670
-0.136850 0.146653 0.011443
-0.137365 0.104453 -0.010408
-0.140912 0.196039 0.027281
-0.136502 0.130088 0.000906
-0.166754 0.317315 0.061034
-0.144952 0.228466 0.037838
-0.025642 -0.006866 0.020273
-0.035092 -0.018953 0.008123
-0.016220 -0.023781 0.019989
0.022031 -0.018529 0.048522
-0.190732 -0.260127 -0.231307
0.012993 0.046289 0.067594
-0.023545 0.006872 0.022798
-0.036449 0.008056 0.013429
-0.137381 0.167596 0.009471
-0.017653 -0.024925 0.011648
-0.037704 0.039527 0.026609
-0.189943 -0.235112 -0.222771
-0.037604 0.015254 0.014534
-0.160562 0.294297 0.046753
-0.151270 0.024841 -0.069039
-0.154481 0.272217 0.040739
0.012655 -0.067084 0.012392
-0.172721 0.335492 0.053829
0.255549 -0.113411 0.167304
-0.053465 -0.023347 -0.020018
-0.015729 -0.013228 0.013352
-0.148676 -0.031645 -0.098046
0.177914 -0.005215 0.157307
-0.143873 0.218988 0.019559
-0.018634 -0.046867 -0.007045
-0.204594 0.363466 0.035517
-0.018708 -0.034192 -0.004682
-0.137076 0.113624 -0.028049
-0.001838 -0.004727 0.020418
0.012375 0.031970 0.047334
-0.028331 0.009965 0.006278
0.008337 -0.026216 0.017520
-0.136622 0.152324 -0.011132
-0.008006 0.017879 0.023318
0.008880 -0.010549 0.022864
-0.037203 -0.013207 -0.012691
0.130579 -0.009371 0.112484
-0.168098 0.321417 0.038172
-0.013478 0.013931 0.017001
-0.004645 0.032887 0.031980
-0.021918 0.004569 0.005825
-0.024301 -0.018531 -0.007057
-0.000888 -0.024733 0.007595
-0.036110 0.021118 0.002401
0.255482 -0.084814 0.166850
0.248075 -0.066428 0.169484
-0.151428 0.263195 0.023778
-0.177476 0.351618 0.043185
-0.044750 0.001204 -0.014335
-0.144257 0.059345 -0.063924
-0.040794 0.029534 0.000782
0.021921 -0.018652 0.024805
-0.140253 0.082187 -0.051898
0.007757 -0.025719 0.010833
0.030949 0.014580 0.046697
-0.012050 -0.000908 0.007381
-0.079235 -0.383275 -0.229230
-0.011026 -0.010841 0.002375
-0.139855 0.191119 -0.003344
0.003212 -0.003802 0.016262
0.019306 0.015218 0.035773
-0.183291 -0.200235 -0.222353
0.018114 -0.039292 0.009405
0.001634 -0.012484 0.009027
0.006450 0.003841 0.020151
-0.152838 -0.033186 -0.119275
0.036768 0.026657 0.051482
-0.138121 0.174383 -0.012895
0.006464 -0.024531 0.005016
0.079875 -0.014629 0.063482
-0.014051 -0.041845 -0.019197
-0.003189 0.009772 0.013225
-0.145694 0.233316 0.006097
-0.160820 0.295579 0.022681
0.004555 0.003604 0.015327
-0.033180 0.056814 0.010494
0.003788 0.008711 0.016091
-0.010451 -0.029906 -0.012042
0.009144 -0.020708 0.006860
0.019534 -0.065235 -0.007515
0.002115 -0.024759 -0.001628
-0.146947 0.049773 -0.082626
0.044368 0.006821 0.042245
0.007982 0.005162 0.014918
0.032708 -0.009460 0.026460
-0.045495 0.019006 -0.019486
-0.034497 0.009060 -0.015999
-0.048596 0.024131 -0.020501
0.011663 0.030804 0.026560
-0.138078 0.110236 -0.050724
-0.008269 -0.009553 -0.008105
0.248847 -0.029673 0.170039
-0.004701 0.017134 0.005742
-0.018923 0.020921 -0.003060
-0.056371 0.028104 -0.028279
-0.030671 0.012545 -0.016636
-0.155345 0.278919 0.009310
-0.058420 -0.384253 -0.230689
-0.022002 0.000655 -0.016975
0.020788 -0.045522 -0.006785
-0.027199 0.027278 -0.009780
-0.178108 -0.170931 -0.220657
-0.136439 0.132667 -0.044816
0.011299 0.001510 0.006061
-0.030909 0.027704 -0.013390
-0.015798 -0.022991 -0.025400
0.008746 -0.021189 -0.006032
0.225762 0.008522 0.164503
-0.150588 0.259104 -0.000839
0.010530 -0.021911 -0.007572
-0.044526 0.005317 -0.037088
0.257255 -0.089219 0.140317
-0.179064 0.353193 0.016330
0.012858 0.008666 0.006123
0.023676 -0.051187 -0.013388
-0.151876 0.034835 -0.108074
-0.178205 -0.151704 -0.218932
-0.012233 0.000147 -0.018822
0.001564 -0.048024 -0.031647
0.001518 -0.072222 -0.043512
0.002189 -0.028387 -0.022846
0.080723 -0.014533 0.041313
-0.142081 0.202850 -0.027244
0.246214 -0.008855 0.163207
0.022734 -0.017024 -0.003232
-0.006180 0.036913 -0.000734
0.047261 -0.000934 0.022333
-0.138980 0.181050 -0.036513
0.035880 -0.004409 0.010414
-0.007337 0.003094 -0.017782
-0.170713 0.329026 0.004631
-0.063998 -0.025281 -0.076148
0.000351 -0.013077 -0.022025
0.023107 -0.049482 -0.021881
-0.141312 0.077292 -0.088553
-0.137386 0.150664 -0.051833
0.042751 0.032868 0.030499
-0.137538 0.119339 -0.069027
0.010981 0.029887 0.002707
0.252806 -0.038712 0.146874
0.031760 0.021524 0.012687
0.003342 0.025385 -0.007718
-0.138581 0.101134 -0.081142
-0.145628 0.058229 -0.106696
-0.173974 -0.127471 -0.217706
0.038419 0.023370 0.016030
-0.158069 0.288517 -0.012416
-0.000424 0.006068 -0.022798
0.016711 -0.014175 -0.020569
0.018033 -0.001150 -0.013517
0.010585 0.026193 -0.008581
0.001082 0.003900 -0.027220
0.014022 -0.002849 -0.020342
0.008624 0.033022 -0.007756
0.257705 -0.098400 0.113380
0.019662 0.048766 0.007129
-0.008412 0.029986 -0.023259
0.015773 0.015599 -0.011755
0.049381 0.057637 0.032563
-0.150853 0.259107 -0.027610
-0.145496 0.229924 -0.037288
0.051725 -0.004201 0.004724
0.003540 0.036781 -0.012219
0.000883 0.024781 -0.019902
0.255621 -0.057237 0.128265
-0.148767 0.048314 -0.125689
0.015776 0.058232 0.003620
-0.157255 -0.033321 -0.172715
-0.178511 0.351211 -0.012536
-0.153822 0.029074 -0.140214
-0.021332 -0.380432 -0.237977
-0.141398 0.200301 -0.056720
-0.138219 0.151818 -0.076005
0.028241 -0.020417 -0.029268
0.052000 0.021560 0.006381
-0.021401 0.062223 -0.029533
-0.065045 -0.026975 -0.105507
0.224338 0.009706 0.125237
-0.005704 -0.008426 -0.051762
0.018696 -0.018553 -0.039778
-0.167258 -0.108097 -0.225298
0.248184 -0.009261 0.130805
-0.166047 0.317100 -0.029307
-0.138412 0.109810 -0.105933
-0.158535 0.288512 -0.040665
0.256254 -0.098556 0.090002
-0.139701 0.090964 -0.118467
-0.166721 -0.069674 -0.216275
-0.139003 0.179248 -0.078614
-0.143273 0.071713 -0.132258
0.252679 -0.027530 0.116516
0.035620 0.006865 -0.027176
0.255293 -0.049808 0.106722
0.015118 0.013896 -0.039499
-0.172785 0.336735 -0.036329
0.029792 0.006014 -0.033171
0.003377 -0.380885 -0.241066
-0.153381 0.017745 -0.168333
-0.068164 -0.027581 -0.126208
0.223260 0.009816 0.106208
-0.138019 0.147783 -0.100463
-0.143488 0.218852 -0.072713
0.039598 -0.018377 -0.044152
0.024343 -0.389845 -0.237640
0.021949 0.001189 -0.050106
0.043192 -0.030999 -0.050492
-0.147877 0.242470 -0.069893
0.044884 0.017355 -0.027684
0.241289 0.000293 0.106451
-0.153119 0.268504 -0.065134
-0.147074 0.047537 -0.164444
-0.140797 0.193586 -0.092595
