-0.158019 0.189465 -0.029707
-0.141283 0.152779 -0.010047
-0.113919 0.199295 -0.009034
-0.021121 -0.353146 -0.213069
0.000838 -0.312359 -0.223793
0.007306 -0.331009 -0.206976
0.003202 -0.346071 -0.199478
-0.010718 -0.310053 -0.231717
0.007641 -0.311626 -0.194456
-0.018327 -0.323504 -0.206138
0.040948 -0.318902 -0.202184
0.020364 -0.303846 -0.191924
0.014297 -0.312303 -0.193511
0.027719 -0.303785 -0.196685
-0.002486 -0.298300 -0.203514
0.020882 -0.340586 -0.203401
0.018699 -0.288408 -0.200339
0.022296 -0.321330 -0.192153
0.026135 -0.334707 -0.228914
0.000603 -0.326692 -0.203250
0.007829 -0.342752 -0.211723
0.009589 -0.327240 -0.191773
0.019196 -0.328508 -0.199879
0.007552 -0.303885 -0.204434
0.017482 -0.271408 -0.191860
-0.010097 -0.332607 -0.200123
0.004001 -0.308227 -0.206712
0.000317 -0.310086 -0.199931
0.018600 -0.282789 -0.205310
0.031194 -0.318687 -0.220929
0.018648 -0.309954 -0.206600
-0.019758 -0.305589 -0.223162
-0.024118 -0.340229 -0.236553
0.002664 -0.339996 -0.198273
0.011198 -0.310425 -0.192466
-0.043750 -0.050442 -0.007829
-0.017508 -0.036937 -0.036836
-0.004384 -0.039021 -0.030278
-0.017230 -0.046286 0.014823
-0.028288 -0.039504 -0.048520
0.001741 -0.035807 0.031472
-0.042478 -0.040293 0.006309
-0.012586 -0.037321 -0.022658
-0.007070 -0.034570 0.013162
0.016865 -0.037006 -0.007849
-0.022529 -0.042810 0.008329
-0.022082 -0.037022 0.026654
-0.011918 -0.043851 0.034306
0.000661 -0.034657 -0.010248
0.002558 -0.036750 0.007653
-0.010915 -0.045768 -0.045213
-0.033088 -0.042981 0.032256
-0.002194 -0.054156 -0.001998
-0.002081 -0.045157 -0.012284
0.010528 -0.040872 -0.035967
-0.020042 -0.039089 -0.016300
-0.016808 -0.032928 -0.006092
-0.028653 -0.040661 0.009932
-0.010278 -0.040190 -0.003571
-0.027436 -0.043146 -0.005930
0.020465 -0.033570 -0.021303
0.005537 -0.034902 -0.054909
-0.036081 -0.038484 -0.002161
-0.029970 -0.040687 -0.021588
-0.042492 -0.044275 -0.028696
-0.021808 -0.061164 -0.019158
0.019192 -0.036648 0.017210
-0.000061 -0.065201 0.026520
0.025462 -0.062013 -0.005991
0.040253 -0.059352 -0.000909
0.030814 -0.064499 0.084652
0.015118 -0.060482 -0.015879
0.048811 -0.057756 0.103976
0.001110 -0.062077 0.059657
0.030527 -0.059692 0.010305
0.036064 -0.058994 0.069466
0.062916 -0.059522 0.035115
0.024154 -0.064662 0.063527
0.020776 -0.060496 0.098702
0.034796 -0.062223 0.120927
0.046500 -0.057800 0.024906
0.050583 -0.058650 0.060807
0.032761 -0.062683 -0.015410
0.007722 -0.061505 0.118092
0.043335 -0.062090 0.037626
0.042378 -0.064444 0.017294
0.054819 -0.062237 -0.004863
0.023948 -0.059842 0.019615
0.027595 -0.058436 0.041708
0.013562 -0.062022 0.066836
0.032479 -0.060418 0.028553
0.019579 -0.061512 0.035587
0.063793 -0.057305 0.013577
0.048616 -0.056643 -0.022562
0.004879 -0.060424 0.040369
0.012810 -0.062005 0.014270
0.003208 -0.064858 0.001967
0.021944 -0.067464 0.007199
0.065807 -0.057560 0.078960
-0.047409 -0.035732 0.020674
-0.023793 -0.010356 -0.012550
-0.014902 -0.023090 -0.005692
-0.025174 -0.032928 0.059496
-0.033870 -0.019433 -0.020664
-0.004513 -0.015384 0.085552
-0.048437 -0.020543 0.043102
-0.017890 -0.016498 0.002685
-0.012808 -0.003957 0.056048
0.007118 -0.017935 0.021091
-0.024814 -0.021787 0.044223
-0.029822 -0.012439 0.077834
-0.018253 -0.029373 0.092128
-0.010298 -0.010556 0.016095
-0.006020 -0.020350 0.047619
-0.019361 -0.030507 -0.019667
-0.038970 -0.025412 0.093965
-0.008995 -0.040020 0.031853
-0.007550 -0.031078 0.014409
0.004172 -0.023914 -0.009880
-0.028433 -0.019297 0.009314
-0.026414 0.002145 0.021601
-0.033761 -0.021440 0.052445
-0.018999 -0.022414 0.024115
-0.031134 -0.026954 0.025439
0.009061 -0.005962 0.006204
-0.001742 -0.016181 -0.027813
-0.040534 -0.016003 0.030308
-0.040207 -0.017233 0.004951
-0.049475 -0.027696 -0.003604
-0.026303 -0.047968 0.006090
0.012819 -0.019100 0.056360
-0.191800 -0.175397 -0.206933
-0.179849 -0.084115 -0.215848
-0.176129 -0.130845 -0.209547
-0.181330 -0.160889 -0.204297
-0.179759 -0.111390 -0.216127
-0.165985 -0.118273 -0.194609
-0.196285 -0.112896 -0.204980
-0.159351 -0.114049 -0.207987
-0.166413 -0.061279 -0.202836
-0.131270 -0.105244 -0.206611
-0.171079 -0.105694 -0.201899
-0.185063 -0.072958 -0.196383
-0.158702 -0.163852 -0.195055
-0.158404 -0.086795 -0.209182
-0.152588 -0.141331 -0.204571
-0.170227 -0.170154 -0.212460
-0.183386 -0.150192 -0.193431
-0.151857 -0.185666 -0.205831
-0.169030 -0.148701 -0.207164
-0.129387 -0.162516 -0.206298
-0.184437 -0.101228 -0.206880
-0.180336 -0.043579 -0.206130
-0.185153 -0.127029 -0.205376
-0.178133 -0.115109 -0.202384
-0.178524 -0.141546 -0.211694
-0.130777 -0.070826 -0.206731
-0.161934 -0.133655 -0.216553
-0.168902 -0.085615 -0.202596
-0.191230 -0.090212 -0.209795
-0.198319 -0.147977 -0.211524
-0.176135 -0.195917 -0.204618
-0.114723 -0.135558 -0.204806
-0.160242 0.143126 -0.069589
-0.126263 0.201786 -0.095776
-0.123191 0.171782 -0.080913
-0.133544 0.148214 -0.043034
-0.139429 0.184625 -0.119410
-0.114059 0.178876 -0.030429
-0.171494 0.188644 -0.053204
-0.107733 0.186384 -0.079364
-0.119893 0.206683 -0.040477
-0.092647 0.187482 -0.057457
-0.122402 0.187517 -0.054539
-0.142418 0.203044 -0.034924
-0.118002 0.149039 -0.032515
-0.111160 0.201965 -0.064603
-0.110788 0.169221 -0.049123
-0.120697 0.149805 -0.108831
-0.148284 0.166140 -0.036799
-0.116846 0.121184 -0.055953
-0.116472 0.159859 -0.071675
-0.096078 0.166667 -0.089951
-0.139425 0.191629 -0.070812
-0.129225 0.223455 -0.062460
-0.147668 0.178986 -0.046561
-0.129842 0.180789 -0.065087
-0.136625 0.166877 -0.064415
-0.092158 0.208286 -0.070182
-0.098881 0.175164 -0.125394
-0.137339 0.197765 -0.055181
-0.162196 0.197512 -0.079528
-0.168879 0.171422 -0.093937
-0.134827 0.111893 -0.078682
-0.094200 0.172934 -0.046928
-0.005198 -0.033122 0.035294
0.020018 -0.025892 0.001163
0.034129 -0.026748 0.005413
0.024205 -0.032615 0.089941
0.010290 -0.026898 -0.011246
0.042018 -0.023547 0.111797
-0.004308 -0.028338 0.066706
0.025579 -0.025659 0.017725
0.030375 -0.022702 0.078844
0.055854 -0.025663 0.042106
0.018448 -0.031185 0.069767
0.014743 -0.025345 0.105224
0.027431 -0.029743 0.125762
0.039636 -0.022473 0.033685
0.043608 -0.025282 0.068983
0.027386 -0.030228 -0.010590
0.003109 -0.028874 0.124595
0.036659 -0.032538 0.047566
0.037818 -0.032500 0.025903
0.048962 -0.028639 0.000658
0.017910 -0.026190 0.026970
0.021048 -0.021232 0.047951
0.008323 -0.028525 0.074542
0.027101 -0.027698 0.038186
0.013349 -0.029212 0.043520
0.057394 -0.021600 0.021067
0.043215 -0.022898 -0.018389
-0.000047 -0.025865 0.049023
0.007487 -0.027342 0.021758
-0.001926 -0.031646 0.008575
0.017025 -0.038945 0.016041
0.059809 -0.023946 0.085061
-0.061165 -0.039137 0.009640
-0.042968 0.012575 -0.020390
-0.040630 -0.019775 -0.010526
-0.045823 -0.035744 0.039832
-0.050414 -0.007205 -0.027236
-0.030241 -0.001899 0.072796
-0.065148 -0.007150 0.025661
-0.033598 -0.003690 -0.010103
-0.032030 0.021286 0.043703
-0.021733 -0.004017 0.010122
-0.042850 -0.000930 0.032792
-0.050199 0.012246 0.064154
-0.033648 -0.036023 0.071963
-0.038297 0.008584 0.004795
-0.033731 -0.017490 0.040962
-0.036110 -0.037862 -0.025940
-0.054350 -0.020296 0.078764
-0.023804 -0.045315 0.020032
-0.030088 -0.033340 0.007333
-0.018097 -0.026029 -0.016255
-0.048927 -0.005808 0.002021
-0.047233 0.029615 0.011790
-0.050343 -0.007743 0.041955
-0.039666 -0.013258 0.012627
-0.048615 -0.023905 0.015999
-0.022667 0.018776 -0.001976
-0.024964 -0.014068 -0.034261
-0.054343 0.007255 0.018421
-0.062424 -0.000694 -0.006378
-0.063724 -0.027831 -0.015904
-0.040670 -0.052443 -0.004494
-0.014013 -0.016985 0.036446
-0.042081 -0.056599 -0.005014
-0.019344 -0.050079 -0.031125
-0.006740 -0.050084 -0.025981
-0.016541 -0.054277 0.026895
-0.029140 -0.050660 -0.039673
-0.002024 -0.047486 0.043847
-0.041400 -0.051777 0.014306
-0.015369 -0.049375 -0.018511
-0.010578 -0.048574 0.020239
0.009847 -0.048812 -0.002664
-0.021884 -0.054043 0.015525
-0.022382 -0.049758 0.038355
-0.013185 -0.052123 0.051331
-0.002567 -0.047901 -0.008226
-0.001098 -0.048026 0.014779
-0.013925 -0.053362 -0.037550
-0.033589 -0.052389 0.049827
-0.005830 -0.054741 0.001188
-0.006264 -0.054812 -0.010669
0.002960 -0.052046 -0.029798
-0.020098 -0.049996 -0.012291
-0.017704 -0.048526 0.000848
-0.028703 -0.052069 0.017313
-0.012929 -0.050651 -0.003347
-0.026299 -0.052381 -0.001754
0.011310 -0.046512 -0.016427
-0.001059 -0.046580 -0.045635
-0.036061 -0.050854 0.001546
-0.029910 -0.052129 -0.016040
-0.041046 -0.054822 -0.024240
-0.022389 -0.059980 -0.017844
0.011871 -0.047038 0.026189
-0.011049 -0.049214 0.014621
0.013116 -0.043174 -0.016325
0.026573 -0.043571 -0.010927
0.016919 -0.048057 0.055428
0.003494 -0.043665 -0.029137
0.033110 -0.040650 0.073542
-0.009625 -0.045835 0.038919
0.018299 -0.042960 -0.000865
0.023216 -0.040780 0.047300
0.046119 -0.042550 0.019632
0.010761 -0.047840 0.041604
0.009485 -0.042826 0.067719
0.020337 -0.045987 0.082713
0.031300 -0.040597 0.013040
0.034060 -0.041791 0.040378
0.020262 -0.046559 -0.026201
-0.001987 -0.045814 0.080586
0.028437 -0.047689 0.023563
0.028973 -0.048421 0.007327
0.039092 -0.045154 -0.015790
0.012374 -0.043549 0.007799
0.014392 -0.039666 0.024084
0.002952 -0.045669 0.043327
0.020452 -0.044449 0.017772
0.006006 -0.045756 0.020094
0.047707 -0.039112 0.001800
0.034404 -0.039863 -0.035327
-0.005272 -0.043427 0.024890
0.001855 -0.045270 0.002102
-0.007784 -0.047990 -0.009248
0.010617 -0.053240 -0.001165
0.048588 -0.041274 0.053528
0.119402 0.030081 0.076307
0.164670 0.081552 0.077477
0.163805 0.054642 0.081026
0.157076 0.033696 0.098008
0.147700 0.053739 0.070359
0.171920 0.065435 0.093560
0.133854 0.059740 0.081747
0.194339 0.066366 0.081520
0.170094 0.090454 0.087639
0.188356 0.076338 0.091846
0.180033 0.081239 0.094895
0.135527 0.106247 0.095325
0.173237 0.050479 0.099360
0.183661 0.090821 0.083619
0.183606 0.054535 0.090227
0.173559 0.034087 0.070285
0.134923 0.044453 0.102542
0.168405 0.023288 0.080666
0.171079 0.040145 0.086336
0.192913 0.042758 0.088740
0.153922 0.076091 0.083481
0.164588 0.126718 0.086473
0.135545 0.059855 0.093866
0.166509 0.063780 0.083551
0.153365 0.050595 0.090505
0.180496 0.098952 0.089282
0.180251 0.057771 0.081412
0.164835 0.086734 0.086860
0.135639 0.081999 0.070482
0.144792 0.036290 0.075671
0.155262 0.041145 0.092304
0.193236 0.061944 0.091242
-0.170756 0.167412 -0.027575
-0.146963 0.226001 -0.041241
-0.146794 0.202175 -0.027631
-0.149122 0.177124 -0.014897
-0.154096 0.210441 -0.050679
-0.139775 0.210351 -0.014433
-0.176488 0.213526 -0.027624
-0.127686 0.212869 -0.030939
-0.141060 0.239205 -0.018354
-0.124445 0.218796 -0.020398
-0.139608 0.215520 -0.022016
-0.159655 0.230477 -0.019560
-0.137355 0.174390 -0.016995
-0.132568 0.234029 -0.026367
-0.134450 0.202006 -0.018041
-0.139261 0.177198 -0.037855
-0.157039 0.188844 -0.018292
-0.140831 0.152388 -0.021353
-0.142675 0.190314 -0.024067
-0.127882 0.190669 -0.029092
-0.157593 0.221671 -0.031794
-0.145934 0.260621 -0.028547
-0.165976 0.201014 -0.024309
-0.151774 0.214630 -0.027153
-0.153258 0.201646 -0.028503
-0.123371 0.243441 -0.030067
-0.127558 0.204851 -0.045446
-0.141822 0.227111 -0.024160
-0.173330 0.227800 -0.041643
-0.172595 0.194303 -0.040715
-0.153105 0.143636 -0.024022
-0.124318 0.203675 -0.017942
-0.006332 -0.042485 0.012295
0.019451 -0.039006 -0.018607
0.034700 -0.037217 -0.013270
0.024459 -0.041311 0.057996
0.009472 -0.037842 -0.031352
0.042127 -0.035145 0.075102
-0.004696 -0.040100 0.038568
0.024481 -0.037601 -0.002933
0.030047 -0.036527 0.046463
0.057539 -0.037048 0.018593
0.016326 -0.042332 0.042686
0.014949 -0.037777 0.069948
0.028282 -0.039659 0.087482
0.040748 -0.035444 0.010924
0.044197 -0.035799 0.040054
0.028172 -0.040177 -0.028745
0.002264 -0.039073 0.083444
0.037338 -0.040390 0.021497
0.037115 -0.041518 0.004534
0.049384 -0.039533 -0.018036
0.018860 -0.037585 0.006262
0.021247 -0.035941 0.023953
0.007790 -0.039703 0.043591
0.027501 -0.038136 0.014528
0.012084 -0.039251 0.018682
0.060011 -0.034741 -0.000462
0.043852 -0.034213 -0.037489
-0.000819 -0.037608 0.023518
0.007478 -0.039881 -0.000015
-0.002203 -0.041848 -0.011147
0.016028 -0.045949 -0.004244
0.060136 -0.035638 0.055810
-0.073676 -0.052030 -0.047529
-0.052648 -0.010350 -0.070355
-0.048226 -0.033027 -0.058291
-0.053370 -0.044175 -0.036615
-0.060789 -0.027082 -0.078021
-0.040471 -0.025420 -0.024195
-0.075571 -0.026582 -0.043209
-0.045904 -0.023251 -0.056247
-0.045275 0.000729 -0.035851
-0.032207 -0.024174 -0.049527
-0.051824 -0.022416 -0.037419
-0.059730 -0.010399 -0.029387
-0.041175 -0.045245 -0.021580
-0.046882 -0.014192 -0.049075
-0.042239 -0.030590 -0.035464
-0.045363 -0.047973 -0.070496
-0.061920 -0.037416 -0.024013
-0.031681 -0.066250 -0.042330
-0.040683 -0.039799 -0.044983
-0.030202 -0.038969 -0.064192
-0.057850 -0.023328 -0.050694
-0.056052 0.013922 -0.052709
-0.058432 -0.027293 -0.035625
-0.050825 -0.029147 -0.042640
-0.056808 -0.037569 -0.044553
-0.036878 -0.004775 -0.055307
-0.036036 -0.030476 -0.081632
-0.058101 -0.015096 -0.042288
-0.070412 -0.020272 -0.060161
-0.081771 -0.034374 -0.063897
-0.051232 -0.074483 -0.050813
-0.026980 -0.035710 -0.038639
0.120154 -0.047804 0.025345
0.225853 0.065742 0.016099
0.218789 0.011861 0.030029
0.204930 -0.045383 0.065252
0.180330 0.021262 0.011990
0.243631 0.046495 0.052600
0.122954 0.025476 0.035654
0.287390 0.043560 0.039967
0.239234 0.075514 0.054153
0.269417 0.059989 0.055413
0.265095 0.080432 0.066516
0.154212 0.109073 0.059827
0.238270 -0.009876 0.069199
0.268321 0.097664 0.044259
0.256560 0.012201 0.055127
0.237533 -0.032320 0.008493
0.151150 -0.010688 0.070561
0.226386 -0.049762 0.032996
0.228019 -0.005560 0.054038
0.280271 -0.017267 0.053520
0.191552 0.077628 0.034118
0.236041 0.142396 0.057278
0.150832 0.024297 0.056280
0.220937 0.041765 0.044097
0.200319 0.009975 0.051415
0.257353 0.102734 0.051770
0.263770 0.012906 0.035662
0.219234 0.082552 0.047693
0.148791 0.075522 0.014486
0.130678 -0.045969 0.012688
0.184088 -0.011498 0.054218
0.276715 0.024086 0.058637
-0.172896 0.204341 -0.019137
-0.148813 0.244917 -0.035485
-0.147458 0.231047 -0.024641
-0.143808 0.216078 -0.004740
-0.155765 0.242207 -0.046743
-0.139572 0.235867 -0.014057
-0.168415 0.234994 -0.020683
-0.134646 0.238814 -0.023726
-0.148992 0.251167 -0.018962
-0.128046 0.241389 -0.015675
-0.141088 0.241124 -0.014081
-0.157552 0.252254 -0.014326
-0.136154 0.213682 -0.008967
-0.138712 0.257545 -0.022785
-0.135969 0.234128 -0.011609
-0.139194 0.223020 -0.033847
-0.155423 0.224599 -0.005002
-0.146945 0.193228 -0.017583
-0.145738 0.226515 -0.013674
-0.131071 0.222823 -0.020392
-0.149518 0.253192 -0.025209
-0.146043 0.274929 -0.021174
-0.165103 0.227194 -0.014068
-0.147062 0.241102 -0.021888
-0.151744 0.238623 -0.019528
-0.138524 0.263360 -0.028955
-0.137719 0.234868 -0.031722
-0.142468 0.249328 -0.020471
-0.165939 0.248761 -0.039036
-0.158861 0.223856 -0.035696
-0.146289 0.199951 -0.008876
-0.126832 0.234182 -0.012744
-0.003140 -0.026366 0.017917
0.021881 -0.017971 -0.013565
0.035474 -0.019154 -0.008578
0.024666 -0.024621 0.056237
0.012830 -0.019209 -0.027966
0.041400 -0.016261 0.074667
-0.001271 -0.021139 0.040185
0.026958 -0.018242 0.001474
0.031181 -0.016083 0.049816
0.055894 -0.017911 0.021763
0.018106 -0.023561 0.043632
0.017282 -0.017778 0.068668
0.028132 -0.022383 0.083087
0.039974 -0.015447 0.016307
0.042890 -0.017060 0.042702
0.029761 -0.023324 -0.025040
0.006356 -0.021630 0.080584
0.037133 -0.027206 0.027777
0.038662 -0.024448 0.010569
0.049312 -0.020993 -0.014345
0.020360 -0.018900 0.010132
0.022616 -0.014881 0.026247
0.010763 -0.020834 0.045705
0.029153 -0.019971 0.020844
0.013739 -0.021975 0.022674
0.058498 -0.014595 0.003969
0.044541 -0.015342 -0.034187
0.002923 -0.018156 0.027263
0.010773 -0.020470 0.004082
0.001102 -0.023574 -0.007041
0.018805 -0.033485 0.002146
0.058845 -0.016981 0.055086
-0.002698 -0.071256 0.018192
0.023329 -0.066905 -0.014771
0.038023 -0.065542 -0.009040
0.028564 -0.070360 0.069510
0.012691 -0.066148 -0.025987
0.045129 -0.063211 0.087808
-0.001639 -0.068107 0.049012
0.029233 -0.065362 0.001937
0.034256 -0.064045 0.056862
0.057974 -0.065456 0.025640
0.022193 -0.070153 0.051461
0.019739 -0.065791 0.082533
0.032152 -0.067887 0.101517
0.043074 -0.063734 0.016577
0.046352 -0.064476 0.048603
0.030560 -0.068635 -0.024324
0.006503 -0.067753 0.098912
0.040064 -0.068768 0.028082
0.039741 -0.070815 0.009542
0.050524 -0.067548 -0.013448
0.022498 -0.065866 0.011121
0.025526 -0.063294 0.031655
0.012643 -0.068036 0.053623
0.030994 -0.066510 0.021328
0.017049 -0.067691 0.025792
0.058263 -0.062481 0.005344
0.045213 -0.062350 -0.032452
0.003303 -0.066330 0.030954
0.010941 -0.067903 0.005505
0.000581 -0.070630 -0.007118
0.020939 -0.074004 0.000118
0.059857 -0.063391 0.064735
-0.171286 -0.007276 -0.095377
-0.108647 0.115348 -0.144706
-0.102593 0.027396 -0.127069
-0.115705 -0.006358 -0.054576
-0.127432 0.057246 -0.170644
-0.089987 0.041229 -0.041282
-0.186145 0.057826 -0.065982
-0.079865 0.065190 -0.124139
-0.102863 0.136297 -0.068310
-0.054355 0.062480 -0.086602
-0.103216 0.080724 -0.066911
-0.135618 0.123090 -0.041163
-0.091761 -0.012049 -0.034857
-0.083185 0.105948 -0.098762
-0.078473 0.020701 -0.061870
-0.098441 0.000142 -0.170864
-0.146514 0.008279 -0.031098
-0.078259 -0.020179 -0.081709
-0.088019 0.009978 -0.107635
-0.055952 0.011006 -0.136052
-0.126750 0.078118 -0.100879
-0.120203 0.166568 -0.091123
-0.139905 0.042880 -0.057801
-0.106502 0.044789 -0.090165
-0.128329 0.019857 -0.086134
-0.067159 0.126571 -0.101815
-0.072318 0.021060 -0.183950
-0.132396 0.111870 -0.076193
-0.164116 0.093537 -0.114040
-0.180231 0.017198 -0.140118
-0.122063 -0.032101 -0.117388
-0.049790 0.021320 -0.072252
-0.194838 -0.161650 -0.204769
-0.181580 -0.068995 -0.211792
-0.174211 -0.115919 -0.207390
-0.183510 -0.147161 -0.198833
-0.182716 -0.100405 -0.213041
-0.158360 -0.103331 -0.181579
-0.200080 -0.099555 -0.202788
-0.156219 -0.099538 -0.206124
-0.161367 -0.043417 -0.200425
-0.116069 -0.093567 -0.204018
-0.169885 -0.090667 -0.199331
-0.184995 -0.058627 -0.187162
-0.157991 -0.150314 -0.179872
-0.149803 -0.070259 -0.207660
-0.142063 -0.127324 -0.201169
-0.172203 -0.156945 -0.209744
-0.186930 -0.134093 -0.177857
-0.146610 -0.172650 -0.204202
-0.166469 -0.133803 -0.204934
-0.112612 -0.150303 -0.203478
-0.187745 -0.086347 -0.204932
-0.180522 -0.025781 -0.204100
-0.190207 -0.112259 -0.201610
-0.180126 -0.100751 -0.200573
-0.179791 -0.128139 -0.210244
-0.108226 -0.055537 -0.203335
-0.155885 -0.120163 -0.213328
-0.168690 -0.070101 -0.200027
-0.193210 -0.074885 -0.208198
-0.201786 -0.133426 -0.208561
-0.178878 -0.182394 -0.201774
-0.088296 -0.123821 -0.199414
-0.039459 -0.053718 0.009718
-0.015790 -0.039872 -0.021516
-0.003874 -0.042723 -0.015695
-0.014008 -0.050816 0.044968
-0.025637 -0.042518 -0.033307
0.002341 -0.039831 0.065035
-0.038880 -0.043245 0.030565
-0.010980 -0.039936 -0.007055
-0.006465 -0.037767 0.040627
0.012201 -0.040643 0.010990
-0.016963 -0.045934 0.031255
-0.018495 -0.040965 0.057768
-0.009649 -0.047745 0.072513
-0.000080 -0.038419 0.005940
0.001552 -0.040691 0.033086
-0.010524 -0.048839 -0.030963
-0.028888 -0.046812 0.072631
-0.002849 -0.057066 0.019026
-0.001391 -0.050408 0.003372
0.007179 -0.043565 -0.022293
-0.018506 -0.042095 -0.001451
-0.013671 -0.037382 0.014782
-0.024949 -0.044277 0.036568
-0.009548 -0.043427 0.011858
-0.022647 -0.046730 0.014058
0.014309 -0.037402 -0.003823
0.003223 -0.037854 -0.041722
-0.031770 -0.042155 0.017043
-0.026908 -0.043801 -0.004512
-0.039778 -0.047991 -0.015150
-0.018257 -0.064304 -0.005058
0.016259 -0.039471 0.043016
-0.024949 -0.056847 -0.017594
0.001211 -0.053754 -0.045443
0.015961 -0.050798 -0.038440
0.005537 -0.053418 0.015482
-0.009085 -0.051836 -0.057312
0.020621 -0.049657 0.028128
-0.022437 -0.054702 0.002327
0.005555 -0.052007 -0.030805
0.010082 -0.052494 0.004917
0.034749 -0.051125 -0.013922
-0.002465 -0.056244 0.004711
-0.001671 -0.052743 0.024064
0.009370 -0.053054 0.038812
0.019664 -0.050756 -0.020155
0.022560 -0.049022 0.001897
0.009409 -0.053444 -0.053210
-0.015448 -0.052950 0.033754
0.017550 -0.054846 -0.012023
0.016747 -0.054017 -0.023590
0.027099 -0.053089 -0.043616
0.001848 -0.052013 -0.022990
0.003479 -0.052407 -0.009632
-0.008691 -0.053609 0.003153
0.009351 -0.051562 -0.016160
-0.005750 -0.052788 -0.014563
0.036482 -0.049436 -0.029299
0.022700 -0.048250 -0.062505
-0.016500 -0.052603 -0.010800
-0.009030 -0.055197 -0.029207
-0.021650 -0.055558 -0.037886
-0.002139 -0.060052 -0.030849
0.035996 -0.049873 0.014165
-0.024145 -0.065026 -0.032265
0.003774 -0.063550 -0.058124
0.020721 -0.060976 -0.050792
0.010705 -0.060920 -0.006046
-0.006950 -0.061223 -0.070980
0.025386 -0.059694 0.002795
-0.021264 -0.064338 -0.015635
0.009461 -0.061846 -0.044113
0.013795 -0.061912 -0.017708
0.040038 -0.061120 -0.029290
0.000391 -0.065559 -0.014241
0.002688 -0.062185 -0.000383
0.013693 -0.062018 0.013513
0.023645 -0.060445 -0.035096
0.027944 -0.059258 -0.018158
0.013070 -0.061871 -0.066250
-0.012723 -0.062410 0.006975
0.022895 -0.064580 -0.028678
0.021416 -0.061719 -0.037425
0.032745 -0.061737 -0.055675
0.007029 -0.061808 -0.035469
0.006461 -0.061184 -0.026107
-0.003765 -0.063094 -0.019084
0.014805 -0.061041 -0.030104
-0.002279 -0.061958 -0.031471
0.042434 -0.059013 -0.042076
0.026696 -0.058423 -0.075680
-0.011798 -0.060989 -0.026731
-0.005811 -0.064505 -0.042827
-0.022804 -0.063846 -0.050002
0.001554 -0.070038 -0.042504
0.041525 -0.060429 -0.007086
-0.024802 -0.041228 -0.003944
0.000400 -0.037734 -0.033485
0.014320 -0.034676 -0.027387
0.005281 -0.037983 0.039424
-0.009078 -0.036219 -0.046191
0.019465 -0.033496 0.054755
-0.022315 -0.038217 0.020600
0.004790 -0.035461 -0.018117
0.008672 -0.035774 0.026945
0.032036 -0.034662 0.001566
-0.001839 -0.039859 0.023953
-0.002580 -0.036377 0.048884
0.008023 -0.036853 0.069492
0.017268 -0.034336 -0.006112
0.020471 -0.032920 0.021465
0.008071 -0.038113 -0.043166
-0.015428 -0.036721 0.065200
0.015209 -0.040458 0.004226
0.015160 -0.038806 -0.011394
0.025331 -0.036830 -0.033540
0.000558 -0.035541 -0.010237
0.003352 -0.035865 0.007603
-0.009039 -0.037224 0.024233
0.007324 -0.035104 -0.003241
-0.005115 -0.037068 0.001029
0.033078 -0.033616 -0.015611
0.020385 -0.032440 -0.052830
-0.015936 -0.036332 0.005138
-0.008728 -0.038836 -0.015933
-0.021266 -0.039805 -0.027158
-0.002465 -0.046352 -0.019998
0.034211 -0.033283 0.035143
0.070095 -0.097015 0.017321
0.154610 -0.029049 0.026584
0.145171 -0.055255 0.028527
0.140671 -0.092628 0.043091
0.106876 -0.052322 0.007328
0.167365 -0.024574 0.050852
0.041513 -0.031198 0.034380
0.229833 -0.030948 0.039814
0.177622 0.000047 0.056249
0.180770 -0.015340 0.045199
0.195016 -0.007313 0.060714
0.105759 -0.011761 0.019743
0.174707 -0.056469 0.029814
0.178088 0.023189 0.046572
0.187283 -0.043387 0.043335
0.163935 -0.069978 0.023389
0.089638 -0.074338 0.036823
0.156635 -0.080784 0.022959
0.151586 -0.044540 0.070349
0.173979 -0.057033 0.068335
0.117946 -0.006125 0.026624
0.162733 0.043048 0.066335
0.078311 -0.045245 0.015303
0.131769 -0.017104 0.045142
0.133338 -0.022565 0.035993
0.171861 0.041242 0.044709
0.198252 -0.037781 0.044771
0.169228 -0.012768 0.012799
0.083524 0.016941 0.012075
0.029241 -0.075222 -0.010365
0.101640 -0.086613 0.052139
0.176230 -0.021622 0.049861
-0.178069 0.185305 -0.053140
-0.150185 0.237173 -0.069835
-0.143992 0.214448 -0.058788
-0.151927 0.190575 -0.032240
-0.158338 0.224554 -0.088054
-0.131024 0.217848 -0.023074
-0.187780 0.227117 -0.044763
-0.129363 0.224686 -0.058269
-0.138235 0.245093 -0.028363
-0.108951 0.225914 -0.042928
-0.144318 0.223722 -0.041614
-0.161168 0.238178 -0.028072
-0.135948 0.189084 -0.025416
-0.129133 0.241294 -0.048955
-0.128389 0.211813 -0.037379
-0.141870 0.191524 -0.073936
-0.164246 0.204033 -0.032071
-0.134614 0.164006 -0.040230
-0.138321 0.202592 -0.051134
-0.113506 0.204183 -0.063055
-0.161316 0.230110 -0.054264
-0.149788 0.261342 -0.048167
-0.167536 0.216951 -0.039949
-0.152133 0.222332 -0.049508
-0.156498 0.210229 -0.051105
-0.101356 0.247008 -0.052871
-0.119882 0.215701 -0.088637
-0.153479 0.236066 -0.043395
-0.181320 0.235511 -0.062548
-0.186469 0.213277 -0.069550
-0.156115 0.155049 -0.053906
-0.103760 0.211964 -0.033899
0.129492 0.023636 0.069020
0.174342 0.076169 0.068487
0.174247 0.046050 0.072124
0.166518 0.027104 0.090209
0.156789 0.046178 0.060907
0.181256 0.058315 0.088027
0.144830 0.052342 0.074455
0.200054 0.059380 0.071677
0.179060 0.083794 0.080080
0.197564 0.068063 0.084202
0.186584 0.074099 0.086919
0.144625 0.099931 0.090559
0.181545 0.043734 0.096441
0.193124 0.081915 0.074256
0.192001 0.046590 0.084246
0.182168 0.029186 0.059615
0.144216 0.037296 0.096533
0.178428 0.018549 0.072604
0.181263 0.031765 0.076750
0.204456 0.035376 0.078604
0.165222 0.068339 0.075488
0.172111 0.118687 0.076756
0.146985 0.053098 0.086687
0.176247 0.054594 0.074878
0.161484 0.041264 0.081616
0.188989 0.091141 0.081042
0.189463 0.049142 0.070794
0.170040 0.079959 0.079742
0.144809 0.073574 0.062483
0.157466 0.027640 0.067420
0.165729 0.037226 0.082039
0.203744 0.052719 0.084485
-0.002470 -0.050353 0.020906
0.021911 -0.041568 -0.011692
0.034656 -0.043464 -0.005904
0.025236 -0.048910 0.062191
0.011839 -0.043417 -0.024600
0.041351 -0.040151 0.081763
-0.001217 -0.045306 0.045545
0.027323 -0.041879 0.004442
0.031950 -0.039043 0.055063
0.053004 -0.041867 0.025426
0.020383 -0.047106 0.047371
0.018815 -0.041871 0.075388
0.028761 -0.046288 0.090763
0.038938 -0.039677 0.018859
0.041406 -0.041569 0.047601
0.028177 -0.047186 -0.021599
0.007067 -0.046069 0.089759
0.036230 -0.049197 0.030381
0.037367 -0.049250 0.013300
0.046787 -0.044701 -0.011072
0.020804 -0.043239 0.012763
0.023234 -0.037462 0.029517
0.012308 -0.045270 0.050932
0.028839 -0.044357 0.023882
0.015174 -0.046218 0.026457
0.054325 -0.037704 0.007362
0.042405 -0.039339 -0.031398
0.004141 -0.043028 0.030908
0.010323 -0.044667 0.007490
-0.000216 -0.048350 -0.004627
0.019575 -0.055179 0.004418
0.055943 -0.040677 0.059282
-0.042513 -0.018944 0.025357
-0.024916 0.047952 -0.010569
-0.023935 0.008174 0.003643
-0.027182 -0.019631 0.061926
-0.033901 0.027133 -0.022415
-0.003206 0.030108 0.100963
-0.047242 0.022600 0.042252
-0.010929 0.026856 0.001883
-0.005590 0.058081 0.066707
0.006330 0.027196 0.028104
-0.023042 0.029631 0.054789
-0.031957 0.046421 0.091117
-0.009098 -0.015251 0.101186
-0.018299 0.043176 0.022407
-0.011570 0.007464 0.061139
-0.016002 -0.020260 -0.017260
-0.037486 0.008395 0.105062
0.003883 -0.029568 0.038212
-0.007186 -0.011187 0.023035
0.009123 -0.001518 -0.002864
-0.031715 0.023794 0.019223
-0.031298 0.068667 0.028172
-0.033049 0.022542 0.064108
-0.017225 0.016463 0.031036
-0.030584 0.002221 0.034283
0.005962 0.055051 0.010524
-0.003166 0.016012 -0.026597
-0.040700 0.039065 0.038355
-0.047960 0.034111 0.005032
-0.042055 -0.002020 -0.004647
-0.019676 -0.037718 0.013110
0.014878 0.010681 0.061156
0.031491 -0.035416 0.050614
0.056911 -0.026159 0.016135
0.070422 -0.027726 0.020686
0.060032 -0.034584 0.100425
0.047728 -0.027552 0.002245
0.078404 -0.023924 0.122183
0.032998 -0.029018 0.078966
0.062821 -0.026033 0.032560
0.066847 -0.022439 0.091440
0.093325 -0.026246 0.056618
0.053895 -0.031665 0.083743
0.051440 -0.025413 0.115148
0.063760 -0.032029 0.133917
0.075675 -0.022668 0.049215
0.079880 -0.026182 0.082747
0.065147 -0.033120 0.003380
0.040113 -0.030101 0.132421
0.073924 -0.036609 0.062743
0.075005 -0.033902 0.041040
0.087436 -0.029971 0.015030
0.054648 -0.026894 0.042509
0.057018 -0.021052 0.062146
0.044869 -0.029071 0.087128
0.064073 -0.028625 0.054258
0.049466 -0.030577 0.058304
0.096098 -0.021735 0.035758
0.081292 -0.024329 -0.005590
0.037149 -0.025768 0.063565
0.044959 -0.028491 0.036252
0.036111 -0.032958 0.022831
0.054056 -0.043971 0.031476
0.098000 -0.025440 0.097400
-0.168494 0.177874 -0.062730
-0.137317 0.228162 -0.080225
-0.133110 0.205610 -0.067865
-0.141528 0.183123 -0.040442
-0.148085 0.214414 -0.098805
-0.121119 0.210559 -0.030443
-0.177894 0.218736 -0.052123
-0.117244 0.215690 -0.066775
-0.127564 0.234788 -0.036892
-0.100709 0.217994 -0.050773
-0.131927 0.216260 -0.049816
-0.150334 0.229610 -0.035619
-0.126586 0.182320 -0.032705
-0.118633 0.232232 -0.056959
-0.118748 0.203847 -0.045308
-0.130621 0.183461 -0.085698
-0.154752 0.197330 -0.037887
-0.125448 0.156543 -0.049652
-0.127815 0.194960 -0.060610
-0.104635 0.197056 -0.073751
-0.150249 0.221721 -0.062388
-0.137029 0.251420 -0.056240
-0.157284 0.209132 -0.046785
-0.140658 0.214330 -0.057645
-0.145953 0.202364 -0.058704
-0.093905 0.238344 -0.061775
-0.109150 0.207865 -0.100540
-0.142981 0.226996 -0.050834
-0.171238 0.226609 -0.071019
-0.177827 0.204755 -0.079338
-0.145804 0.147172 -0.064649
-0.097522 0.205182 -0.042088
-0.123767 -0.054833 0.061134
-0.023620 -0.020313 -0.022315
0.020560 -0.038152 -0.021604
0.005012 -0.055047 0.168986
-0.062223 -0.034510 -0.061060
0.079368 -0.020833 0.202719
-0.122223 -0.031477 0.128429
0.014697 -0.017853 0.026480
0.042104 -0.007937 0.148466
0.111111 -0.028029 0.089648
-0.018098 -0.032290 0.133678
-0.032928 -0.014921 0.198870
0.024258 -0.041791 0.226446
0.065230 -0.014046 0.075968
0.067297 -0.032725 0.130412
0.002244 -0.042766 -0.075613
-0.088427 -0.045059 0.191422
0.052880 -0.078480 0.091506
0.064727 -0.051493 0.029733
0.096293 -0.039712 -0.002889
-0.033350 -0.019844 0.050626
-0.010921 0.003355 0.100595
-0.064812 -0.031373 0.143295
0.013413 -0.035598 0.069603
-0.053950 -0.045375 0.085982
0.115963 -0.010254 0.045880
0.074759 -0.026690 -0.062138
-0.094273 -0.014132 0.101774
-0.082902 -0.017504 0.030491
-0.101053 -0.041481 -0.003894
-0.043932 -0.091152 0.028729
0.120175 -0.026481 0.157130
-0.036370 -0.047949 0.019164
-0.012951 -0.033858 -0.013068
-0.001311 -0.038695 -0.007819
-0.011080 -0.045828 0.062436
-0.023018 -0.038109 -0.022088
0.005895 -0.034770 0.085255
-0.036229 -0.039199 0.044559
-0.007760 -0.035436 0.001978
-0.002812 -0.030338 0.055993
0.016361 -0.036175 0.021837
-0.013041 -0.041313 0.044538
-0.016481 -0.035632 0.077930
-0.007152 -0.042514 0.094712
0.003031 -0.032800 0.014870
0.005474 -0.036982 0.047108
-0.008473 -0.043239 -0.021537
-0.027379 -0.041993 0.095934
0.000206 -0.048651 0.029517
0.001883 -0.045836 0.011831
0.011536 -0.039454 -0.012658
-0.015430 -0.037778 0.008460
-0.012135 -0.027941 0.024909
-0.022121 -0.040065 0.051707
-0.007313 -0.039371 0.021449
-0.019380 -0.042026 0.024732
0.017858 -0.029885 0.004986
0.006638 -0.033464 -0.030539
-0.029487 -0.037584 0.028945
-0.025858 -0.038012 0.005762
-0.037274 -0.043736 -0.005344
-0.015397 -0.055400 0.002984
0.020660 -0.034810 0.058133
-0.172705 0.194204 -0.019612
-0.149892 0.239428 -0.035669
-0.147647 0.222956 -0.024169
-0.146851 0.205138 -0.008790
-0.156784 0.232723 -0.044855
-0.141382 0.227872 -0.014607
-0.173425 0.229579 -0.022224
-0.133638 0.230477 -0.024774
-0.146938 0.250336 -0.019787
-0.127288 0.235249 -0.017954
-0.142022 0.233199 -0.017544
-0.160398 0.246094 -0.017050
-0.138069 0.201016 -0.012358
-0.136885 0.250711 -0.024166
-0.135510 0.224362 -0.014061
-0.139943 0.209686 -0.031924
-0.156877 0.213389 -0.010360
-0.144352 0.182195 -0.018204
-0.145589 0.216171 -0.016533
-0.130098 0.213074 -0.022754
-0.154043 0.243019 -0.026705
-0.148154 0.271689 -0.024061
-0.167228 0.219065 -0.018597
-0.150443 0.233699 -0.022992
-0.153324 0.227855 -0.022258
-0.133557 0.258396 -0.029102
-0.134634 0.225590 -0.034981
-0.142956 0.243380 -0.021686
-0.169363 0.243512 -0.038008
-0.164907 0.215304 -0.034588
-0.149951 0.181451 -0.013338
-0.125545 0.224797 -0.015073
-0.057316 -0.047827 -0.104075
0.045255 0.022363 -0.087566
0.034082 -0.006933 -0.091520
0.020986 -0.058750 -0.087639
-0.006251 -0.002450 -0.115498
0.063825 0.037591 -0.067713
-0.098317 0.022426 -0.088412
0.110427 0.013358 -0.082642
0.069649 0.055770 -0.061358
0.068526 0.050790 -0.079271
0.066940 0.053289 -0.063928
-0.009036 0.057511 -0.086963
0.054293 -0.006358 -0.081128
0.071887 0.070761 -0.071623
0.071201 -0.003343 -0.088858
0.045389 -0.034617 -0.104193
-0.055729 -0.031049 -0.085629
0.055140 -0.036107 -0.108278
0.031925 -0.008971 -0.060006
0.094291 -0.019579 -0.071944
0.004515 0.040203 -0.091418
0.055850 0.092117 -0.056302
-0.042909 0.013029 -0.103101
0.025259 0.029939 -0.082858
-0.002022 0.011700 -0.083833
0.083253 0.081072 -0.067762
0.091306 0.000468 -0.085643
0.040322 0.050863 -0.094945
-0.038768 0.073355 -0.111637
-0.128474 -0.025545 -0.131140
-0.021425 -0.044095 -0.085320
0.079350 0.003888 -0.064215
-0.024534 -0.049134 -0.008296
0.001319 -0.039187 -0.040530
0.014298 -0.039633 -0.033564
0.002569 -0.046133 0.021963
-0.009036 -0.040316 -0.054940
0.019270 -0.037286 0.038771
-0.022436 -0.042148 0.009765
0.006024 -0.038703 -0.024880
0.010300 -0.037753 0.017551
0.032959 -0.038401 -0.006385
-0.002971 -0.044037 0.012704
-0.002325 -0.039278 0.033106
0.007052 -0.044152 0.044524
0.018439 -0.036773 -0.010682
0.019919 -0.037487 0.012075
0.008415 -0.045446 -0.050639
-0.014149 -0.043131 0.042292
0.015633 -0.050249 -0.000735
0.016121 -0.045859 -0.014717
0.026415 -0.041637 -0.040472
-0.000742 -0.040151 -0.017057
0.002677 -0.037220 -0.002335
-0.009726 -0.041775 0.014188
0.008156 -0.040789 -0.005227
-0.007541 -0.043202 -0.005016
0.035667 -0.035546 -0.022987
0.022597 -0.035847 -0.061885
-0.017356 -0.040101 -0.001620
-0.010028 -0.042560 -0.022845
-0.021140 -0.045277 -0.033415
-0.002329 -0.056671 -0.023174
0.034973 -0.037668 0.022018
-0.004511 -0.064068 0.002750
0.020518 -0.059924 -0.030140
0.034369 -0.057703 -0.023345
0.025036 -0.062035 0.045358
0.010561 -0.058512 -0.044813
0.040406 -0.056254 0.061113
-0.002221 -0.061168 0.027644
0.025664 -0.057900 -0.013060
0.030035 -0.057715 0.034489
0.052978 -0.058038 0.008479
0.018460 -0.062610 0.031180
0.017926 -0.058895 0.055509
0.028931 -0.060717 0.073149
0.038362 -0.056967 0.000955
0.040991 -0.056436 0.029118
0.028321 -0.061266 -0.040444
0.005021 -0.060172 0.069643
0.036232 -0.062411 0.011526
0.036056 -0.062662 -0.005234
0.046177 -0.059760 -0.029327
0.020223 -0.058574 -0.004178
0.022955 -0.057439 0.014215
0.010658 -0.060473 0.031654
0.027841 -0.058699 0.004900
0.014414 -0.060222 0.008469
0.054304 -0.055814 -0.010289
0.041557 -0.054912 -0.051671
0.002865 -0.059058 0.012446
0.010328 -0.061514 -0.010545
-0.000387 -0.062862 -0.023679
0.018230 -0.067839 -0.014409
0.055264 -0.056640 0.042284
-0.154801 0.029435 -0.122192
-0.109711 0.138682 -0.156359
-0.106072 0.065198 -0.140832
-0.118977 0.033200 -0.080653
-0.122884 0.091583 -0.177533
-0.093650 0.083166 -0.060035
-0.167365 0.096448 -0.099299
-0.082928 0.098789 -0.141902
-0.102482 0.153173 -0.085446
-0.058758 0.098158 -0.111135
-0.104948 0.110227 -0.095892
-0.131881 0.140994 -0.062858
-0.094427 0.027450 -0.056262
-0.086316 0.133377 -0.121283
-0.082705 0.060737 -0.086930
-0.098385 0.033093 -0.177947
-0.139233 0.051259 -0.057312
-0.084050 0.012364 -0.106452
-0.090708 0.048280 -0.127963
-0.055878 0.051385 -0.152099
-0.127718 0.109968 -0.125905
-0.117721 0.175879 -0.116769
-0.136880 0.082695 -0.083186
-0.112435 0.082468 -0.118008
-0.125446 0.055604 -0.113128
-0.061671 0.145755 -0.126981
-0.069863 0.064531 -0.190186
-0.124960 0.134588 -0.102098
-0.154250 0.121221 -0.137030
-0.160524 0.058587 -0.155339
-0.118410 0.002240 -0.138928
-0.052763 0.063294 -0.093224
-0.171780 0.150578 -0.095223
-0.140890 0.222625 -0.122219
-0.134103 0.184210 -0.111141
-0.145780 0.152911 -0.057091
-0.148118 0.202714 -0.149613
-0.121155 0.195151 -0.035419
-0.184208 0.207137 -0.072827
-0.119639 0.203790 -0.110380
-0.131354 0.228852 -0.051568
-0.095152 0.203974 -0.080485
-0.135729 0.206611 -0.071409
-0.152362 0.223648 -0.040084
-0.125243 0.154521 -0.035164
-0.122461 0.222884 -0.089889
-0.118960 0.181155 -0.064625
-0.130939 0.152588 -0.142641
-0.159732 0.178827 -0.042421
-0.124111 0.120639 -0.077150
-0.123288 0.167177 -0.099224
-0.097785 0.176072 -0.121242
-0.151609 0.209322 -0.095934
-0.142170 0.245812 -0.082947
-0.159018 0.196828 -0.061585
-0.140431 0.196334 -0.091207
-0.148028 0.176669 -0.087662
-0.098262 0.229877 -0.097413
-0.105751 0.186163 -0.156521
-0.151862 0.220400 -0.076238
-0.174134 0.215468 -0.106399
-0.176453 0.184020 -0.125866
-0.144117 0.113295 -0.108992
-0.094621 0.185322 -0.062421
0.020714 -0.022203 0.073311
0.043060 -0.001460 0.037121
0.053609 -0.011577 0.042030
0.044934 -0.022348 0.123114
0.034347 -0.006585 0.025085
0.062726 -0.004406 0.150502
0.020832 -0.008633 0.101496
0.050152 -0.005216 0.052205
0.053436 0.002795 0.116753
0.074297 -0.007198 0.077484
0.042723 -0.010687 0.105596
0.038481 -0.002697 0.141905
0.049693 -0.019814 0.160795
0.057657 -0.000055 0.069607
0.062414 -0.010346 0.107847
0.049637 -0.019374 0.024601
0.029217 -0.013651 0.162621
0.060461 -0.028940 0.087403
0.061203 -0.020374 0.064243
0.070801 -0.013356 0.036846
0.039636 -0.007236 0.062135
0.041929 0.005108 0.081837
0.032730 -0.010039 0.112366
0.049583 -0.011249 0.077929
0.036964 -0.014479 0.081041
0.074999 0.002141 0.057638
0.064234 -0.005999 0.017325
0.025522 -0.004678 0.085480
0.030223 -0.006239 0.057056
0.023408 -0.015890 0.043573
0.042736 -0.036921 0.055404
0.080975 -0.008840 0.119135
-0.163257 0.138407 -0.092851
-0.130934 0.210203 -0.129361
-0.125896 0.169182 -0.115981
-0.137747 0.140533 -0.051733
-0.138494 0.190553 -0.158071
-0.114137 0.178923 -0.030783
-0.174532 0.190951 -0.068228
-0.113550 0.191108 -0.114835
-0.125535 0.214595 -0.049330
-0.087479 0.189111 -0.078842
-0.128477 0.192605 -0.068098
-0.144386 0.208839 -0.036508
-0.119314 0.141008 -0.028829
-0.116663 0.208765 -0.091267
-0.112266 0.166057 -0.059648
-0.123402 0.142551 -0.150446
-0.151124 0.163562 -0.035283
-0.118287 0.111398 -0.072874
-0.114277 0.154351 -0.101454
-0.089776 0.164518 -0.127105
-0.141686 0.194940 -0.097304
-0.134551 0.231602 -0.082864
-0.149597 0.182098 -0.054943
-0.131096 0.179665 -0.090154
-0.139474 0.161862 -0.084665
-0.091273 0.214459 -0.099209
-0.098318 0.172389 -0.167395
-0.144948 0.205841 -0.074077
-0.162856 0.199176 -0.108137
-0.165347 0.169982 -0.131511
-0.134279 0.103365 -0.110772
-0.085237 0.169365 -0.057928
-0.015315 -0.029878 0.032376
0.007751 -0.013078 0.000498
0.019606 -0.018780 0.005148
0.009947 -0.027915 0.074679
-0.001851 -0.017384 -0.010024
0.027074 -0.014260 0.098049
-0.015400 -0.017933 0.056936
0.013538 -0.014411 0.014546
0.018184 -0.010266 0.069250
0.037817 -0.016029 0.034801
0.007704 -0.020452 0.058249
0.004806 -0.014140 0.090654
0.014747 -0.024321 0.107279
0.023943 -0.011831 0.028842
0.026679 -0.017085 0.060777
0.013245 -0.025267 -0.009636
-0.005947 -0.022060 0.108157
0.022773 -0.034460 0.043909
0.024065 -0.027194 0.025464
0.033148 -0.020070 -0.000053
0.004956 -0.016730 0.021099
0.009019 -0.009418 0.038639
-0.001577 -0.019084 0.065280
0.014281 -0.019037 0.034989
0.001601 -0.022558 0.038168
0.039103 -0.010482 0.018793
0.027682 -0.013458 -0.017411
-0.008662 -0.015845 0.041792
-0.004125 -0.016940 0.017888
-0.015486 -0.023725 0.006646
0.005901 -0.041839 0.016582
0.042857 -0.015082 0.071456
0.143234 0.006020 0.062823
0.205417 0.074881 0.060351
0.203643 0.038262 0.067885
0.192960 0.008345 0.088525
0.179823 0.042836 0.052759
0.215285 0.057786 0.084593
0.151785 0.046858 0.069951
0.244878 0.055437 0.069884
0.213180 0.085513 0.078968
0.236469 0.069035 0.082524
0.227858 0.079002 0.087984
0.163403 0.106136 0.088251
0.213458 0.028055 0.090050
0.232004 0.090704 0.072202
0.228434 0.039336 0.080290
0.215165 0.011707 0.052899
0.162740 0.026720 0.094061
0.206419 0.000798 0.066795
0.210653 0.025124 0.076247
0.240039 0.023551 0.078053
0.187703 0.073178 0.071255
0.209003 0.130475 0.080007
0.163490 0.045657 0.084467
0.205818 0.055245 0.073907
0.190304 0.036105 0.080049
0.226713 0.099441 0.080011
0.228924 0.040801 0.066160
0.203433 0.083669 0.076367
0.159787 0.077806 0.056473
0.160219 0.009292 0.058568
0.185823 0.021884 0.080533
0.240439 0.047304 0.082062
0.004144 -0.038819 0.039764
0.028653 -0.014500 0.005303
0.038430 -0.027484 0.012071
0.028991 -0.037337 0.080321
0.018210 -0.022980 -0.005315
0.047672 -0.019936 0.106179
0.004161 -0.025055 0.063051
0.035256 -0.020085 0.020441
0.039943 -0.009759 0.076215
0.059270 -0.022175 0.041591
0.028088 -0.025432 0.065097
0.023438 -0.016839 0.098447
0.034777 -0.034466 0.113421
0.042857 -0.014813 0.035819
0.046265 -0.025442 0.068599
0.033920 -0.034692 -0.003671
0.013098 -0.030067 0.114271
0.044570 -0.043676 0.051616
0.045885 -0.035781 0.033074
0.055557 -0.028510 0.007382
0.024822 -0.023201 0.029003
0.026859 -0.005519 0.043089
0.018461 -0.025784 0.072872
0.034541 -0.027013 0.043414
0.021442 -0.031212 0.045106
0.059872 -0.010684 0.024510
0.049926 -0.020904 -0.011520
0.011016 -0.019832 0.049880
0.013324 -0.021205 0.023683
0.004662 -0.031824 0.013339
0.026572 -0.051018 0.025126
0.064475 -0.024061 0.076699
-0.028376 -0.040424 0.020105
-0.004717 -0.019188 -0.010273
0.005791 -0.026130 -0.004453
-0.004573 -0.036586 0.052405
-0.014674 -0.024526 -0.020378
0.012799 -0.021635 0.074111
-0.027558 -0.025212 0.038511
0.000887 -0.020478 0.002718
0.005281 -0.016146 0.049512
0.023092 -0.022484 0.020049
-0.005566 -0.026929 0.039703
-0.007628 -0.021103 0.066242
0.001472 -0.033799 0.080311
0.009842 -0.018339 0.015578
0.011533 -0.024473 0.042755
0.000030 -0.034805 -0.019098
-0.017736 -0.031007 0.080345
0.008942 -0.046782 0.029859
0.010033 -0.035223 0.014480
0.019184 -0.027377 -0.010485
-0.008290 -0.023808 0.008444
-0.003914 -0.015510 0.022271
-0.013874 -0.026327 0.045830
0.001075 -0.026258 0.022379
-0.012001 -0.030847 0.023462
0.024842 -0.016740 0.006894
0.014275 -0.020581 -0.028126
-0.019816 -0.022848 0.026653
-0.016942 -0.024476 0.005159
-0.029013 -0.031939 -0.003984
-0.007193 -0.054992 0.007009
0.027966 -0.022887 0.050906
-0.155869 0.080897 -0.114454
-0.118375 0.187247 -0.148127
-0.116413 0.123167 -0.133505
-0.127482 0.085144 -0.070344
-0.126682 0.151063 -0.172513
-0.101392 0.140103 -0.043790
-0.169233 0.154391 -0.089967
-0.095886 0.154593 -0.135163
-0.110946 0.198128 -0.069207
-0.069282 0.154397 -0.099760
-0.114542 0.163051 -0.086150
-0.135741 0.187883 -0.048925
-0.103082 0.081759 -0.041316
-0.100737 0.184346 -0.112170
-0.095953 0.117567 -0.076080
-0.107961 0.084092 -0.169966
-0.141816 0.111645 -0.045102
-0.097085 0.055011 -0.095831
-0.101022 0.102710 -0.120690
-0.067205 0.110575 -0.145034
-0.134494 0.163766 -0.116705
-0.124765 0.218242 -0.105214
-0.141540 0.141701 -0.072088
-0.120484 0.139916 -0.109243
-0.131230 0.112415 -0.104530
-0.073035 0.193037 -0.118651
-0.081340 0.124343 -0.183680
-0.132764 0.182951 -0.092082
-0.158496 0.172221 -0.129331
-0.159745 0.118563 -0.150646
-0.122450 0.044572 -0.131718
-0.063520 0.122736 -0.079325
-0.150683 -0.001896 -0.121912
-0.101381 0.117095 -0.167989
-0.099113 0.029186 -0.151248
-0.110339 -0.000346 -0.067911
-0.115800 0.060734 -0.192813
-0.087191 0.047581 -0.046095
-0.165786 0.061699 -0.089436
-0.077622 0.068145 -0.151762
-0.099155 0.132825 -0.080622
-0.052517 0.061813 -0.111477
-0.100574 0.080819 -0.088904
-0.126357 0.116838 -0.047595
-0.088645 -0.008450 -0.038048
-0.082653 0.105860 -0.125109
-0.077051 0.024937 -0.077470
-0.089896 0.003060 -0.194199
-0.134817 0.016560 -0.034296
-0.075263 -0.018433 -0.103330
-0.079213 0.013077 -0.133313
-0.047915 0.017412 -0.163274
-0.118547 0.077303 -0.129759
-0.114755 0.158632 -0.117701
-0.128485 0.048148 -0.070471
-0.102186 0.044540 -0.117246
-0.118519 0.019749 -0.108045
-0.060310 0.121320 -0.131606
-0.063640 0.027530 -0.206460
-0.123654 0.108855 -0.097694
-0.147699 0.090868 -0.144204
-0.155341 0.023618 -0.167823
-0.108295 -0.028984 -0.145572
-0.044805 0.025637 -0.088359
-0.198404 -0.148282 -0.207992
-0.184759 -0.028888 -0.216861
-0.180476 -0.086568 -0.209756
-0.187587 -0.127240 -0.207523
-0.181649 -0.064746 -0.218164
-0.170102 -0.077326 -0.200127
-0.206493 -0.066310 -0.207567
-0.161152 -0.069478 -0.210021
-0.170600 0.002807 -0.205483
-0.136294 -0.056316 -0.209483
-0.172961 -0.055527 -0.205337
-0.191407 -0.010503 -0.200409
-0.160258 -0.134088 -0.201435
-0.162940 -0.034964 -0.210831
-0.156959 -0.103458 -0.207194
-0.171558 -0.141492 -0.210836
-0.188301 -0.116029 -0.198356
-0.156372 -0.163069 -0.206316
-0.171729 -0.113451 -0.210142
-0.137936 -0.128103 -0.208756
-0.192097 -0.052832 -0.208015
-0.184991 0.026168 -0.207634
-0.193837 -0.087370 -0.207922
-0.181201 -0.067341 -0.204874
-0.182954 -0.102372 -0.212601
-0.143769 -0.011995 -0.207887
-0.167480 -0.094995 -0.216555
-0.171165 -0.027921 -0.203814
-0.202317 -0.034827 -0.211075
-0.205040 -0.106932 -0.213806
-0.181787 -0.182298 -0.205295
-0.129154 -0.090629 -0.208456
0.002155 -0.029901 0.053054
0.027438 -0.010613 0.017403
0.039484 -0.017280 0.022957
0.029243 -0.028106 0.098475
0.017639 -0.014962 0.005334
0.046109 -0.012505 0.122993
0.002831 -0.016516 0.079549
0.034530 -0.011565 0.031991
0.038034 -0.007385 0.092881
0.055749 -0.014065 0.056255
0.027436 -0.017845 0.081160
0.024512 -0.012158 0.114205
0.034343 -0.024365 0.132603
0.042638 -0.009629 0.048584
0.044838 -0.015806 0.084006
0.033287 -0.025023 0.005474
0.012591 -0.020980 0.133335
0.042242 -0.035832 0.065865
0.043636 -0.026714 0.044487
0.051846 -0.018087 0.016181
0.024203 -0.014943 0.040574
0.028478 -0.006756 0.061335
0.017628 -0.017298 0.088548
0.033961 -0.017305 0.055832
0.020975 -0.021543 0.059282
0.056126 -0.007609 0.037630
0.046979 -0.011805 -0.003440
0.009828 -0.014078 0.062775
0.014673 -0.015606 0.036353
0.003964 -0.022726 0.023069
0.026131 -0.043040 0.035617
0.060224 -0.013855 0.093622
-0.179347 0.185382 -0.041194
-0.156330 0.234858 -0.056355
-0.153201 0.214830 -0.044392
-0.155113 0.193791 -0.027916
-0.162758 0.223646 -0.068742
-0.145876 0.222223 -0.025371
-0.185787 0.225327 -0.040103
-0.138363 0.223981 -0.046100
-0.149297 0.245320 -0.030155
-0.128107 0.227790 -0.035756
-0.149653 0.225135 -0.035131
-0.167463 0.237570 -0.028550
-0.145103 0.189173 -0.026036
-0.139682 0.243515 -0.042295
-0.141178 0.215783 -0.031778
-0.146022 0.195141 -0.055327
-0.164639 0.204783 -0.027674
-0.147886 0.169741 -0.036064
-0.149232 0.204658 -0.039307
-0.132285 0.204465 -0.047800
-0.164336 0.233157 -0.046618
-0.155108 0.265126 -0.042021
-0.173073 0.214094 -0.036062
-0.159348 0.225035 -0.043022
-0.161020 0.215683 -0.043511
-0.126506 0.250362 -0.046682
-0.133978 0.217895 -0.064045
-0.152740 0.236810 -0.038025
-0.181599 0.237012 -0.056256
-0.180836 0.209579 -0.056361
-0.159255 0.162639 -0.039495
-0.126588 0.215667 -0.030943
-0.033847 -0.039036 0.002944
-0.007707 -0.023712 -0.030374
0.003999 -0.025717 -0.023382
-0.006682 -0.035712 0.039643
-0.018473 -0.025637 -0.044001
0.010344 -0.023143 0.060110
-0.032378 -0.027210 0.023888
-0.002018 -0.022392 -0.014680
0.001836 -0.021859 0.034558
0.020737 -0.023934 0.004568
-0.009179 -0.028724 0.025757
-0.010207 -0.024637 0.052043
-0.001102 -0.032640 0.068919
0.007516 -0.021552 -0.000503
0.009171 -0.023848 0.027457
-0.002059 -0.034027 -0.040783
-0.022897 -0.030100 0.067786
0.005604 -0.044375 0.013037
0.006759 -0.034646 -0.003869
0.015422 -0.027201 -0.031020
-0.011108 -0.025153 -0.008624
-0.004698 -0.022156 0.009414
-0.018024 -0.027071 0.030867
-0.001877 -0.026523 0.004525
-0.015082 -0.030437 0.007423
0.022266 -0.020751 -0.011278
0.011557 -0.021298 -0.052200
-0.024681 -0.025510 0.009759
-0.019539 -0.028016 -0.012859
-0.032551 -0.032071 -0.024730
-0.010624 -0.051408 -0.012901
0.024360 -0.023435 0.037049
-0.011139 -0.040358 0.011405
0.012520 -0.035391 -0.017591
0.025680 -0.033729 -0.012766
0.016559 -0.038644 0.058950
0.002633 -0.034799 -0.025888
0.032676 -0.031923 0.077803
-0.009914 -0.036363 0.038641
0.016854 -0.033354 -0.003348
0.022104 -0.032896 0.047395
0.045240 -0.033358 0.017449
0.011091 -0.038429 0.041516
0.008757 -0.034483 0.071949
0.020585 -0.036587 0.091458
0.030795 -0.031972 0.008859
0.033694 -0.032793 0.040289
0.018771 -0.037146 -0.025444
-0.003412 -0.036466 0.089024
0.028162 -0.037856 0.020726
0.027115 -0.038821 0.003796
0.038022 -0.036373 -0.016622
0.011186 -0.033990 0.004202
0.014503 -0.033028 0.022674
0.002165 -0.036191 0.044617
0.018575 -0.034590 0.012589
0.006524 -0.036160 0.018111
0.045956 -0.030947 -0.000288
0.032503 -0.030829 -0.032713
-0.005649 -0.035053 0.022138
0.001313 -0.036340 0.000175
-0.008736 -0.039287 -0.010402
0.009395 -0.043247 -0.004958
0.048114 -0.031442 0.055278
-0.012910 -0.033408 0.013001
0.013847 -0.023315 -0.019425
0.026963 -0.022782 -0.013506
0.015736 -0.030780 0.054357
