0.251731 -0.018459 0.100331
-0.138717 0.110143 -0.131511
0.006085 0.037422 -0.055026
-0.156342 -0.033820 -0.214478
0.248014 -0.088915 0.063563
-0.175833 0.345337 -0.054831
0.056754 -0.010319 -0.042743
-0.206516 0.363796 -0.073262
-0.166279 0.318599 -0.063305
-0.157824 0.287459 -0.070999
0.221406 0.009056 0.083731
0.255491 -0.050690 0.079095
-0.143476 0.225296 -0.092218
-0.152123 0.023057 -0.194715
-0.137822 0.133540 -0.131898
0.059613 0.023919 -0.035472
-0.146739 0.048365 -0.183580
-0.140923 0.186064 -0.116441
0.254291 -0.028796 0.078772
0.048901 -0.382059 -0.244833
-0.138490 0.162525 -0.127983
0.052843 0.051786 -0.033560
-0.140876 0.082291 -0.169035
-0.150090 0.253944 -0.098054
-0.138916 0.110370 -0.156375
0.070386 -0.388474 -0.237831
-0.172153 0.335765 -0.082410
-0.203504 0.362196 -0.096815
-0.165961 0.317185 -0.087612
-0.161389 0.299968 -0.092344
0.249433 -0.010529 0.070796
-0.156680 0.281739 -0.099258
0.255154 -0.038894 0.059523
0.048712 0.051491 -0.050215
0.248770 -0.097072 0.024829
-0.144242 0.223368 -0.122634
-0.137937 0.139544 -0.156970
0.258498 -0.058711 0.046764
-0.143459 0.068194 -0.195714
-0.148844 0.242490 -0.119097
0.233587 0.005912 0.056973
-0.141487 0.200376 -0.137839
-0.173706 0.338872 -0.101861
0.254265 -0.020142 0.050775
-0.164015 0.310829 -0.110887
-0.138141 0.131147 -0.174827
-0.157249 0.284450 -0.119776
0.103659 -0.380654 -0.238704
-0.139330 0.097479 -0.193657
-0.139468 0.173913 -0.159364
0.248144 -0.092240 0.002530
-0.144589 0.220652 -0.147257
-0.140698 0.192882 -0.161189
0.122395 -0.379489 -0.236509
0.257220 -0.057066 0.017701
-0.200096 0.362707 -0.132478
-0.152233 0.258966 -0.142702
-0.175189 0.342341 -0.123655
0.255558 -0.023988 0.029052
-0.137958 0.132924 -0.194292
0.233515 0.005359 0.023558
0.143977 -0.385046 -0.231127
-0.139848 0.180487 -0.177697
-0.166206 0.315271 -0.137685
-0.138862 0.161793 -0.189289
-0.142950 0.213412 -0.170595
0.246690 -0.098392 -0.024135
-0.161007 0.297953 -0.150617
-0.152448 0.261183 -0.161520
0.162682 -0.384321 -0.230043
0.251359 -0.012537 0.008038
-0.156730 0.280157 -0.162828
0.233580 0.003679 0.000562
0.258518 -0.042863 -0.006570
-0.141543 0.202343 -0.193883
-0.176453 0.346203 -0.155257
0.183441 -0.386475 -0.230122
-0.146187 0.230604 -0.186028
-0.192081 0.357041 -0.165643
-0.165048 0.309663 -0.167574
-0.170123 0.328589 -0.163936
-0.150032 0.251381 -0.190148
0.245673 -0.096238 -0.055376
-0.157068 0.282979 -0.182206
0.260668 -0.061595 -0.034892
0.242850 -0.003735 -0.020103
0.255668 -0.024092 -0.021460
0.220406 -0.386854 -0.225461
0.207557 -0.377105 -0.233314
-0.164159 0.308970 -0.194250
-0.191625 0.366874 -0.190616
0.254185 -0.369628 -0.203122
0.253288 -0.063074 -0.058344
0.240814 -0.003919 -0.042624
0.253061 -0.041645 -0.053135
0.240310 -0.092995 -0.088915
-0.174522 0.341011 -0.202915
0.261129 -0.382519 -0.218523
0.258199 -0.331297 -0.204035
0.250172 -0.302311 -0.199764
0.252659 -0.054315 -0.083166
0.226970 0.002862 -0.077131
0.245764 -0.014714 -0.075397
0.243022 -0.097903 -0.118104
0.249378 -0.272992 -0.198493
0.250705 -0.034589 -0.101218
0.226158 0.001620 -0.103643
0.255825 -0.242297 -0.200501
0.246558 -0.101973 -0.147649
0.247853 -0.205422 -0.198055
0.245892 -0.017617 -0.114750
0.253363 -0.064429 -0.134279
0.251417 -0.045912 -0.127343
0.251573 -0.186044 -0.197495
0.225488 -0.000486 -0.132973
0.249390 -0.101983 -0.169515
0.253111 -0.163937 -0.199265
0.253981 -0.065762 -0.154557
0.251794 -0.047506 -0.147488
0.245194 -0.127013 -0.196106
0.247179 -0.019500 -0.149966
0.249708 -0.104570 -0.189389
0.224628 -0.000964 -0.170049
0.250235 -0.033078 -0.168405
0.245956 -0.083087 -0.196757
0.251623 -0.040175 -0.189591
0.252909 -0.058376 -0.197253
0.244142 -0.011275 -0.183162
