-0.099334 0.162079 0.443950
-0.109638 0.163433 0.422211
-0.119165 0.163437 0.402342
-0.043621 0.159775 0.444756
-0.124563 0.162468 0.387612
-0.056883 0.161205 0.415390
-0.069894 0.161360 0.384344
-0.079029 0.161370 0.365629
-0.062931 -0.178428 0.224119
-0.085787 0.161036 0.345109
0.008614 -0.131249 0.276727
0.042258 -0.164754 0.285809
-0.030678 -0.132874 0.246260
-0.041231 -0.163545 0.223425
-0.032423 -0.172026 0.225009
0.059161 -0.177545 0.286464
0.071118 0.148030 0.435566
0.034814 -0.139835 0.283280
0.003601 -0.089971 0.279393
-0.012700 -0.175045 0.227972
-0.030484 -0.152712 0.225049
0.044798 -0.167336 0.271312
-0.020366 -0.161290 0.224348
0.002826 -0.070231 0.279733
0.015770 -0.119348 0.264020
0.061067 0.148105 0.412615
0.002121 -0.050751 0.279530
-0.018290 -0.142292 0.221963
0.015152 -0.099012 0.265288
0.035723 -0.147409 0.257807
0.047935 -0.169999 0.256388
-0.000431 -0.155662 0.227847
-0.105168 0.162717 0.289510
0.018595 -0.128562 0.250627
0.052846 0.147610 0.394649
-0.002683 -0.118148 0.235363
0.002889 -0.031274 0.278403
-0.117306 0.163116 0.273830
-0.001283 -0.134593 0.226399
0.017058 -0.107435 0.251443
0.039264 -0.159635 0.244273
0.012630 -0.117488 0.242595
0.026553 -0.166078 0.228463
-0.040988 0.159026 0.323163
0.001075 -0.011412 0.278120
0.013904 -0.059923 0.265132
0.051145 -0.171582 0.241977
-0.002452 0.003559 0.280334
0.118819 0.149992 0.430248
0.003543 -0.098649 0.235622
0.035280 -0.150741 0.233599
0.016508 -0.078463 0.251595
-0.124528 0.162402 0.253655
-0.005341 -0.079075 0.234402
0.017900 -0.132715 0.227118
-0.007053 0.033781 0.282816
0.013652 -0.040334 0.265435
0.011176 -0.088440 0.242003
0.046068 -0.173796 0.227262
-0.010976 0.053404 0.284504
0.111228 0.150122 0.412707
0.064863 -0.175627 0.233389
-0.005083 -0.058912 0.235100
0.012889 -0.020888 0.264743
0.034179 -0.135839 0.228305
0.011815 -0.068211 0.242273
-0.008138 -0.039989 0.236956
0.011500 -0.005959 0.265606
0.101940 0.149317 0.396146
0.010420 -0.048786 0.243253
0.142295 0.162776 0.428417
-0.013740 0.095806 0.286486
0.005833 0.023353 0.267957
-0.007953 -0.020316 0.235046
-0.015688 0.117234 0.289532
0.009803 -0.029838 0.243580
-0.000938 0.052910 0.271643
0.096279 0.149282 0.382648
-0.021325 0.149963 0.297278
0.014109 -0.010678 0.252007
-0.061700 0.157981 0.267136
-0.008654 -0.005641 0.234097
-0.013716 0.014204 0.238488
0.009935 0.013967 0.253908
-0.018933 0.034658 0.240888
-0.003728 0.083900 0.273483
0.006849 0.004344 0.243915
0.001411 0.023883 0.246357
0.003409 0.043432 0.256324
-0.005274 0.105464 0.276073
-0.001996 0.063351 0.259218
0.142417 0.154126 0.398833
-0.007627 0.127029 0.279567
0.085768 0.149200 0.355659
-0.016493 0.064137 0.245003
0.141962 0.173506 0.404592
-0.003817 0.053956 0.248669
-0.075052 0.158772 0.241624
-0.025702 0.085893 0.244964
-0.027248 0.107567 0.247890
-0.008717 0.095180 0.252896
-0.030636 0.128564 0.250479
-0.009379 0.136874 0.268946
0.076680 0.148196 0.333965
-0.011373 0.116470 0.256057
-0.024958 0.149363 0.254823
0.139250 0.167895 0.374281
0.069656 0.148473 0.316681
0.137420 0.152785 0.364507
-0.094873 0.161088 0.195470
0.063967 0.148245 0.303745
0.129190 0.152999 0.347939
0.138731 0.172427 0.357298
0.057129 0.147524 0.286681
-0.103090 0.162875 0.172418
0.121038 0.151983 0.325683
-0.045639 0.159403 0.204212
0.138310 0.166021 0.335561
-0.113152 0.163007 0.148858
0.112091 0.151418 0.305042
0.138658 0.155317 0.324165
-0.052157 0.159837 0.185745
-0.121061 0.161415 0.132483
0.106046 0.150842 0.288293
-0.063762 0.160736 0.156868
0.097478 0.150830 0.267417
0.139319 0.174638 0.307003
0.138026 0.155164 0.296587
0.088937 0.149057 0.247305
-0.076834 0.161210 0.123235
-0.031720 -0.044341 0.063548
0.080956 0.148428 0.231893
0.076054 0.148368 0.219419
0.140463 0.168513 0.273474
0.139240 0.153152 0.263878
-0.084067 0.162540 0.103042
0.068282 0.147397 0.203277
0.133361 0.153065 0.246571
-0.015317 -0.045583 0.047241
-0.091736 0.162772 0.083555
0.139985 0.171848 0.252956
0.128648 0.152390 0.233646
0.056097 0.147065 0.173721
-0.000906 -0.018285 0.053282
-0.101800 0.163234 0.059325
0.122596 0.151301 0.217018
-0.039827 0.037660 0.046515
-0.032073 -0.015453 0.018694
-0.025465 -0.017813 0.020184
0.114440 0.150790 0.197866
0.139485 0.154953 0.216386
-0.019203 -0.037348 0.011963
-0.048702 0.159496 0.078566
-0.113076 0.162717 0.031414
0.001301 -0.073325 0.007687
-0.027196 -0.010721 0.013527
0.109220 0.150508 0.185921
-0.005572 -0.030508 0.017898
0.010265 0.040878 0.061839
-0.010322 -0.010545 0.022550
-0.022706 -0.026574 0.006165
-0.025587 -0.013579 0.009349
-0.034114 -0.015801 0.001794
-0.029611 -0.025573 -0.000278
-0.023940 -0.029781 0.000840
-0.000630 0.000323 0.032548
-0.027007 -0.003217 0.010319
-0.001306 0.017497 0.038718
0.022630 -0.021750 0.038742
0.007161 -0.035319 0.021373
-0.120553 0.161729 0.014190
0.140412 0.173449 0.211887
-0.007343 -0.003566 0.023948
0.013278 -0.044400 0.019646
0.100653 0.149534 0.171069
-0.009955 0.009237 0.026008
-0.005541 -0.026913 0.012351
-0.037770 0.009083 0.004294
-0.031614 0.021816 0.013178
-0.005732 0.031935 0.036816
-0.036529 0.006241 0.001558
-0.002108 -0.002206 0.022999
-0.060188 0.161340 0.050285
0.001441 -0.012034 0.017064
-0.008702 -0.003695 0.012960
-0.033506 -0.010081 -0.009324
-0.001644 0.006477 0.019300
-0.042279 0.020438 -0.004764
0.000287 -0.002699 0.016297
0.091449 0.149185 0.151447
0.001457 0.002512 0.019071
0.008735 -0.007698 0.018630
-0.010309 -0.038108 -0.010024
0.012106 -0.027331 0.011167
0.012765 -0.006540 0.021427
0.140230 0.163502 0.190371
0.030640 -0.044089 0.016673
0.014516 -0.015700 0.015409
-0.014323 0.024405 0.011889
-0.021906 -0.056685 -0.031682
-0.023629 0.008584 -0.004082
-0.005809 0.013553 0.010642
0.019538 -0.053817 -0.001979
-0.018204 0.004952 -0.003251
-0.027918 0.007378 -0.009728
-0.070048 0.161038 0.028128
-0.007964 0.007382 0.004359
0.003777 -0.040164 -0.008730
0.002559 -0.003054 0.007284
0.013408 0.021625 0.026351
0.010275 -0.012091 0.008185
-0.012574 0.033472 0.011424
-0.045734 0.026852 -0.016795
0.032716 0.029263 0.042767
0.082414 0.148152 0.131891
-0.004313 -0.011074 -0.003753
0.008509 0.009634 0.013606
-0.011780 0.017034 0.001915
-0.035047 -0.014387 -0.030993
-0.000689 -0.041203 -0.018195
0.025456 -0.027730 0.007769
0.033709 -0.001518 0.025068
0.001996 0.020574 0.011863
0.019389 -0.027636 0.000347
0.042343 -0.021984 0.019727
-0.025536 0.028380 -0.007801
0.011619 -0.042740 -0.012270
-0.025817 -0.013724 -0.027982
0.007890 -0.035043 -0.013399
-0.019069 0.007235 -0.013236
0.006092 0.019196 0.009777
0.139278 0.152646 0.166010
0.016134 0.020823 0.016928
-0.019227 0.011238 -0.016136
-0.023868 0.020294 -0.015568
0.033929 -0.036187 0.001004
0.002789 -0.012749 -0.012090
0.024933 0.029234 0.023810
0.051436 0.015455 0.037061
0.140480 0.167698 0.170189
0.000013 0.032005 0.005050
-0.000222 -0.002291 -0.011126
0.016306 -0.030703 -0.012394
-0.019340 -0.001080 -0.026097
0.033450 0.004971 0.015814
-0.004766 0.025539 -0.006185
0.008608 -0.010838 -0.012337
0.024229 -0.002272 0.002360
-0.001375 0.030535 -0.001710
0.069579 0.147443 0.103481
-0.081065 0.162159 -0.001785
0.001725 -0.008589 -0.019623
0.020871 -0.017342 -0.010047
-0.001357 -0.013888 -0.025177
0.135112 0.152446 0.147726
-0.039896 0.026859 -0.038966
0.009865 -0.007191 -0.017365
0.035035 0.017925 0.011963
0.001995 -0.002564 -0.023074
-0.002025 0.027260 -0.014068
0.015696 -0.021859 -0.025895
0.027761 -0.007049 -0.010797
-0.003261 0.011557 -0.025727
-0.025236 0.001858 -0.046230
-0.013055 0.049229 -0.015732
0.140188 0.170664 0.150727
0.130610 0.151328 0.135459
0.026558 -0.022973 -0.019841
0.014447 -0.000890 -0.019693
0.006140 -0.003722 -0.028148
-0.089517 0.162222 -0.025861
0.009331 0.057866 0.000855
0.019025 0.013881 -0.012497
0.015330 0.007782 -0.019695
0.057546 0.147607 0.074796
-0.011561 0.026813 -0.032946
0.024028 -0.001090 -0.019446
0.033775 -0.025912 -0.024559
-0.008551 0.017153 -0.036237
0.032333 0.048286 0.005162
0.013325 0.000175 -0.031310
-0.016213 0.004946 -0.051156
0.140031 0.165197 0.135530
0.046974 0.005643 -0.006869
0.027736 0.005935 -0.022250
0.118803 0.149997 0.108800
0.048693 0.147334 0.054138
0.040066 -0.017606 -0.028991
0.026475 -0.013025 -0.038236
-0.101340 0.162278 -0.054486
0.005479 0.017863 -0.039927
0.033035 -0.014884 -0.036396
0.139565 0.173506 0.126999
0.138871 0.154392 0.117028
0.113590 0.149183 0.096649
0.016550 0.029901 -0.028843
0.031759 0.017467 -0.024487
0.036582 0.011505 -0.025655
-0.107729 0.161916 -0.067977
-0.006109 0.019166 -0.059843
-0.047896 0.159077 -0.028967
0.104548 0.148771 0.077688
-0.119567 0.160712 -0.093007
-0.055657 0.160797 -0.046338
0.138315 0.162851 0.097188
0.090893 0.147899 0.051707
0.137802 0.153020 0.087229
0.047666 0.064020 -0.020722
-0.061755 0.161026 -0.059541
0.081326 0.147678 0.032287
-0.069753 0.160220 -0.076209
0.137854 0.151926 0.068228
0.138384 0.165491 0.068572
-0.079365 0.160597 -0.098935
0.069187 0.147205 0.004258
0.131192 0.151322 0.047690
-0.086458 0.160861 -0.118433
0.137185 0.169467 0.050637
0.060809 0.147007 -0.016716
0.124181 0.150274 0.027465
-0.091111 0.161245 -0.131402
0.055362 0.147173 -0.029030
0.116552 0.148909 0.007482
0.048082 0.146939 -0.045003
0.137151 0.162984 0.027365
-0.101490 0.161149 -0.160596
0.107401 0.147768 -0.011539
0.136750 0.153026 0.007040
-0.051178 0.161107 -0.132866
0.097028 0.146821 -0.029006
-0.109774 0.161822 -0.185504
0.137970 0.165544 -0.002749
0.088469 0.146479 -0.049084
-0.115973 0.160847 -0.203285
-0.062748 0.161294 -0.163840
0.136480 0.151399 -0.020867
0.078211 0.147027 -0.068154
-0.121163 0.161049 -0.216955
0.133977 0.150800 -0.033669
-0.071024 0.161293 -0.186381
0.070393 0.147039 -0.087579
0.003214 -0.135987 -0.277478
0.125835 0.149663 -0.053075
0.064565 0.147365 -0.100042
-0.044115 -0.153773 -0.328579
-0.005442 -0.126014 -0.287393
0.024883 -0.152961 -0.278644
-0.078979 0.161088 -0.208754
0.047606 -0.178660 -0.274888
0.137306 0.167015 -0.044114
-0.045440 -0.137216 -0.328853
0.121496 0.148775 -0.065418
-0.008328 -0.105457 -0.286962
0.055322 0.146939 -0.119089
0.029690 -0.163113 -0.286672
-0.012825 -0.177366 -0.331666
0.135450 0.161705 -0.061403
-0.084759 0.160250 -0.228426
0.113372 0.148025 -0.084099
0.031718 -0.166278 -0.298889
-0.015234 -0.154938 -0.331120
0.023617 -0.137963 -0.294889
0.004737 -0.132193 -0.306249
-0.019391 -0.133476 -0.326462
0.043363 0.147217 -0.147184
0.134674 0.161069 -0.074262
-0.004127 -0.079482 -0.292373
-0.011137 -0.057888 -0.287387
0.054394 -0.178886 -0.296464
0.105684 0.147010 -0.102958
0.003488 -0.115388 -0.305817
-0.093795 0.161634 -0.249049
-0.020973 -0.116739 -0.326807
-0.003418 -0.131758 -0.321520
0.099803 0.146495 -0.113310
0.015224 -0.179063 -0.334112
-0.012659 -0.036979 -0.286923
-0.020888 -0.105002 -0.327429
-0.005023 -0.115111 -0.321341
0.022239 -0.145233 -0.316480
0.030244 -0.165671 -0.321015
-0.022023 -0.088703 -0.327668
-0.000099 -0.095659 -0.315037
0.050974 -0.178471 -0.317625
