0.001840 -0.078741 -0.306339
0.090926 0.147513 -0.131827
-0.015260 -0.006988 -0.285924
0.014218 -0.154456 -0.335975
0.134632 0.164233 -0.093456
-0.050165 0.161383 -0.234818
0.027351 -0.161090 -0.333059
-0.007058 -0.019321 -0.291655
0.022700 -0.140697 -0.327836
0.041364 -0.180692 -0.334047
-0.016042 0.010408 -0.285382
-0.007000 -0.079230 -0.321738
0.000597 -0.057282 -0.305895
0.080729 0.148074 -0.150905
-0.023144 -0.049829 -0.327310
0.134427 0.163581 -0.107130
-0.019124 0.041249 -0.282439
-0.007262 -0.057155 -0.320966
0.133719 0.150066 -0.115674
-0.058414 0.161043 -0.256269
0.075962 0.147509 -0.163211
-0.024836 -0.028223 -0.326683
-0.110494 0.163303 -0.304531
-0.003089 -0.027449 -0.313589
-0.021669 0.074045 -0.278597
-0.007166 -0.036131 -0.321090
0.126120 0.150056 -0.134682
-0.004207 0.001584 -0.304819
-0.025599 -0.006865 -0.326448
0.134228 0.166381 -0.124131
-0.009455 -0.019368 -0.320474
0.063749 0.148416 -0.190415
-0.010391 -0.006670 -0.320487
-0.116271 0.163906 -0.321876
-0.004747 0.023180 -0.303106
-0.026518 0.010347 -0.326179
-0.023826 0.114956 -0.275015
-0.016820 0.096011 -0.281193
-0.007155 0.040992 -0.301424
-0.011247 0.010336 -0.320199
0.133834 0.165555 -0.137020
-0.008331 0.054088 -0.299890
0.113314 0.149184 -0.164288
-0.028943 0.040869 -0.323661
-0.013111 0.031979 -0.317535
-0.024652 0.148081 -0.271104
-0.017902 0.128958 -0.277154
-0.010058 0.081071 -0.296501
0.049409 0.148061 -0.220534
-0.030677 0.064986 -0.320798
-0.073862 0.161871 -0.308234
0.132462 0.161026 -0.154065
-0.011161 0.094406 -0.294773
-0.015095 0.063667 -0.314713
0.107336 0.147708 -0.183767
-0.021782 0.081760 -0.316396
0.132433 0.151703 -0.166583
-0.080224 0.162997 -0.326314
-0.012768 0.127345 -0.291313
-0.034320 0.113648 -0.316029
0.042551 0.148384 -0.239972
-0.013791 0.112993 -0.301234
0.097059 0.148636 -0.205578
-0.019509 0.127210 -0.306403
-0.034647 0.149501 -0.308951
-0.014954 0.144484 -0.297689
0.132637 0.164022 -0.176916
-0.088721 0.162881 -0.347467
0.086211 0.150114 -0.222895
0.132373 0.150891 -0.189656
-0.094091 0.162098 -0.361436
-0.047988 0.160501 -0.328423
0.078105 0.149433 -0.241489
0.133030 0.171073 -0.189632
-0.100612 0.161780 -0.379026
0.131535 0.158943 -0.205751
-0.055647 0.161687 -0.348653
0.125685 0.150927 -0.216056
-0.109217 0.161375 -0.399328
0.065057 0.148705 -0.271493
-0.060012 0.161443 -0.361601
0.118312 0.150434 -0.238651
0.132434 0.169541 -0.219289
-0.117571 0.159948 -0.419195
-0.068141 0.161072 -0.382492
0.056962 0.148071 -0.294372
0.131907 0.164783 -0.239456
0.106518 0.150100 -0.267141
0.131972 0.152857 -0.247320
-0.079525 0.160504 -0.410727
0.044452 0.147126 -0.323889
-0.083124 0.159275 -0.424983
0.094427 0.149934 -0.295647
0.131607 0.152335 -0.270677
0.132240 0.171395 -0.263523
-0.091308 0.158963 -0.445408
0.084016 0.148931 -0.316431
-0.048860 0.158557 -0.421312
0.130973 0.159008 -0.289946
0.070641 0.147479 -0.345551
-0.056964 0.157743 -0.441438
0.119795 0.151609 -0.310454
0.113842 0.150977 -0.328696
0.058579 0.146797 -0.374570
0.131593 0.164293 -0.321226
0.105491 0.150939 -0.349722
0.049877 0.146087 -0.397166
0.132030 0.152014 -0.339839
0.043155 0.145969 -0.415721
0.092385 0.148124 -0.376707
0.130935 0.151418 -0.358081
0.132158 0.162395 -0.352129
0.083049 0.147111 -0.397866
0.123411 0.149823 -0.379658
0.071353 0.145938 -0.427368
0.131756 0.168444 -0.370685
0.115725 0.148253 -0.401203
0.132623 0.151169 -0.391618
0.106271 0.147490 -0.420687
0.058790 0.144836 -0.460619
0.131481 0.169599 -0.397027
0.132550 0.149127 -0.410632
0.095992 0.145881 -0.440659
0.079517 0.145926 -0.462111
0.126894 0.147750 -0.441716
0.131984 0.165269 -0.433361
0.119123 0.146271 -0.462859
0.132455 0.159332 -0.463548
