-0.034227 -0.041579 -0.073615
-0.002042 0.000898 -0.049963
-0.020256 0.066113 -0.028024
-0.003538 0.065399 -0.046186
0.013174 0.066721 -0.042209
0.005395 0.066567 -0.003704
-0.010659 0.065421 -0.055406
0.014758 0.066315 0.001924
-0.020947 0.065231 -0.011598
0.002941 0.065187 -0.036676
0.006856 0.064763 -0.010311
0.026860 0.065591 -0.021883
-0.005402 0.063808 -0.010970
-0.003672 0.065087 0.001379
0.007456 0.066990 0.011167
0.017840 0.065579 -0.029074
0.019229 0.067180 -0.013508
0.005460 0.067234 -0.053414
-0.012575 0.066448 0.004846
0.016888 0.066969 -0.023433
0.011287 0.065303 -0.031726
0.021147 0.065114 -0.045989
0.000739 0.064306 -0.028285
0.000190 0.065364 -0.018135
-0.006397 0.064991 -0.015910
0.008619 0.065705 -0.021306
-0.007428 0.065846 -0.026518
0.029779 0.065264 -0.035208
0.016103 0.066794 -0.055976
-0.016049 0.064335 -0.019939
-0.011767 0.064718 -0.035274
-0.020635 0.063954 -0.043086
-0.002458 0.066409 -0.036962
0.027038 0.067564 -0.006780
0.081253 0.082672 0.110358
0.089532 0.135790 0.087668
0.091572 0.101045 0.104035
0.087712 0.087013 0.136641
0.086811 0.115567 0.069593
0.084809 0.110242 0.138604
0.085845 0.109814 0.118254
0.107087 0.114273 0.101754
0.087463 0.143224 0.130348
0.095438 0.119334 0.123561
0.098687 0.121565 0.129037
0.086098 0.139220 0.125898
0.095216 0.083107 0.135778
0.100905 0.137313 0.109722
0.096850 0.106648 0.134449
0.094724 0.087663 0.074196
0.084105 0.095591 0.138073
0.086398 0.073301 0.119831
0.094198 0.099797 0.119306
0.088247 0.100869 0.093726
0.088023 0.124828 0.109771
0.093303 0.162607 0.118652
0.076921 0.100713 0.129510
0.088735 0.115902 0.112986
0.088502 0.108590 0.118131
0.091139 0.144713 0.105799
0.100414 0.103877 0.068069
0.097936 0.135166 0.116007
0.083440 0.122797 0.095173
0.088756 0.094964 0.078701
0.080197 0.075458 0.103917
0.086097 0.107301 0.129703
0.072831 0.074459 0.096892
0.082568 0.127469 0.077481
0.084361 0.093587 0.092172
0.079826 0.078740 0.122143
0.079073 0.106936 0.061422
0.078348 0.103264 0.125429
0.077318 0.102430 0.104836
0.101741 0.106431 0.090952
0.081916 0.135339 0.117321
0.089657 0.112154 0.110794
0.092503 0.115040 0.116024
0.078236 0.131965 0.112289
0.088967 0.076813 0.121919
0.095106 0.129797 0.097832
0.091263 0.098653 0.120700
0.087413 0.079644 0.064157
0.075603 0.087925 0.124473
0.080435 0.067198 0.106032
0.087004 0.091888 0.106844
0.082635 0.092891 0.083951
0.080539 0.117425 0.097523
0.086626 0.154906 0.106752
0.069431 0.093622 0.115368
0.081697 0.108519 0.100486
0.080902 0.101036 0.104946
0.086085 0.137427 0.095075
0.094026 0.096326 0.060380
0.091346 0.127401 0.102712
0.075292 0.115682 0.082866
0.079019 0.086792 0.068201
0.071692 0.069113 0.090954
0.080361 0.100765 0.116397
0.010526 -0.024266 -0.018548
0.035864 0.022322 -0.045156
0.041472 0.002973 -0.033562
0.028784 -0.019899 -0.007758
0.023421 0.007842 -0.049127
0.050379 0.011478 -0.000746
0.010766 0.006691 -0.013734
0.046497 0.014274 -0.032463
0.048285 0.026496 -0.012964
0.065077 0.010266 -0.023123
0.036187 0.014279 -0.011924
0.027595 0.019789 -0.001896
0.048413 -0.016022 0.001336
0.049524 0.021904 -0.024231
0.053104 -0.000035 -0.010202
0.042306 -0.021154 -0.047511
0.017224 -0.007383 -0.000867
0.064026 -0.039360 -0.017299
0.047044 -0.011852 -0.021793
0.068611 -0.012885 -0.035777
0.028673 0.010347 -0.026718
0.031774 0.033245 -0.024324
0.024429 0.006469 -0.010205
0.040986 0.005535 -0.016790
0.026058 -0.004527 -0.020572
0.067733 0.025262 -0.033720
0.057775 0.005511 -0.050823
0.019302 0.017276 -0.016013
0.015616 0.015889 -0.030567
0.011685 -0.008699 -0.034724
0.031909 -0.044769 -0.024734
0.069611 -0.000046 -0.010911
0.003257 0.015573 -0.010061
0.028106 0.042765 -0.029585
0.039996 0.035953 -0.025637
0.026074 0.017057 0.015936
0.016692 0.034431 -0.035208
0.050070 0.042504 0.028456
0.001447 0.037076 0.004252
0.036816 0.042252 -0.018746
0.043427 0.045199 0.010008
0.063084 0.037249 -0.008083
0.027531 0.040129 0.006996
0.024921 0.041324 0.026466
0.043897 0.025123 0.036038
0.045643 0.045059 -0.011906
0.052194 0.036073 0.008129
0.035888 0.017217 -0.035871
0.009444 0.032595 0.030120
0.057835 -0.002664 -0.002684
0.044949 0.023657 -0.014818
0.064901 0.024677 -0.024582
0.022667 0.038642 -0.017813
0.028306 0.047842 -0.005740
0.017560 0.038717 0.007715
0.036903 0.036889 -0.007153
0.020884 0.030300 -0.009030
0.066721 0.044581 -0.018581
0.052450 0.037229 -0.034778
0.007394 0.041055 -0.003344
0.009846 0.039647 -0.021417
0.003372 0.027271 -0.026841
0.024851 -0.006528 -0.017883
0.069186 0.036961 0.014481
-0.016464 -0.014514 -0.027421
0.001311 0.024428 -0.048130
0.005613 0.007059 -0.040018
-0.002661 -0.012957 -0.016304
-0.007262 0.012241 -0.051380
0.014462 0.015993 -0.008018
-0.019213 0.011945 -0.022163
0.009527 0.017210 -0.040151
0.012225 0.027770 -0.020445
0.025817 0.013262 -0.029507
0.002003 0.017418 -0.020720
-0.005247 0.022292 -0.010321
0.013372 -0.010260 -0.007470
0.011023 0.023348 -0.032283
0.014688 0.004336 -0.018551
0.006367 -0.013722 -0.048904
-0.011357 -0.000566 -0.008250
0.024006 -0.026179 -0.024453
0.011196 -0.007060 -0.030205
0.028334 -0.006597 -0.038874
-0.003877 0.013514 -0.034530
-0.002052 0.032640 -0.032568
-0.005620 0.011375 -0.018696
0.007250 0.009467 -0.026091
-0.004471 0.001397 -0.028984
0.026784 0.026004 -0.037699
0.016618 0.009322 -0.051216
-0.010877 0.020654 -0.025496
-0.014494 0.019588 -0.038063
-0.017543 -0.002661 -0.041760
0.000936 -0.029250 -0.032886
0.032240 0.003716 -0.016902
-0.136766 0.200066 0.014620
-0.098606 0.236999 -0.030229
-0.074303 0.222685 -0.022240
-0.092540 0.198886 0.047493
-0.119764 0.227256 -0.062984
-0.046950 0.228835 0.057871
-0.137389 0.228194 0.033531
-0.069051 0.237771 -0.001316
-0.068671 0.234475 0.050203
-0.012258 0.231220 0.032680
-0.092129 0.230363 0.043832
-0.106509 0.234729 0.051109
-0.067566 0.213849 0.054575
-0.042724 0.238906 0.027999
-0.039384 0.219416 0.043328
-0.093250 0.211723 -0.062224
-0.124904 0.207203 0.045494
-0.058369 0.174321 0.034390
-0.065305 0.215111 0.007099
-0.013631 0.221634 -0.020614
-0.109629 0.229709 0.008368
-0.089180 0.240191 0.034404
-0.122407 0.227888 0.044897
-0.087238 0.217840 0.025851
-0.108855 0.212107 0.027347
0.006863 0.236102 0.010617
-0.039724 0.231299 -0.069487
-0.120995 0.234020 0.034662
-0.125265 0.231374 0.000676
-0.137617 0.217249 -0.027358
-0.112332 0.169314 -0.001728
0.005521 0.221500 0.052013
-0.012099 0.055218 0.013160
0.009176 0.057047 -0.008954
0.025445 0.056112 -0.003510
0.018873 0.054576 0.044281
0.000278 0.054903 -0.016366
0.028715 0.056680 0.051834
-0.013043 0.055487 0.035772
0.016704 0.055961 0.003006
0.021384 0.058298 0.034910
0.039874 0.056108 0.019671
0.008991 0.054262 0.033098
0.007787 0.057011 0.050801
0.019951 0.055789 0.061829
0.031021 0.057492 0.011917
0.031937 0.056531 0.028894
0.017211 0.055373 -0.014065
-0.003172 0.055887 0.056590
0.027750 0.054591 0.019160
0.024996 0.053580 0.007818
0.034295 0.054853 -0.006052
0.011169 0.054506 0.011123
0.011733 0.061075 0.022435
0.005284 0.054601 0.030555
0.022363 0.054926 0.020911
0.005137 0.055234 0.015990
0.040734 0.058341 0.005056
0.028710 0.057698 -0.018439
-0.005987 0.055780 0.024217
-0.001388 0.055900 0.003918
-0.013532 0.053516 -0.003882
0.009551 0.054055 0.003603
0.039315 0.057219 0.040387
0.014337 0.051544 -0.017613
0.037401 0.049994 -0.036570
0.059887 0.051826 -0.032249
0.049108 0.052772 0.008511
0.028071 0.049686 -0.043322
0.061310 0.051195 0.012805
0.014795 0.050757 0.000066
0.045789 0.050324 -0.026200
0.051784 0.049440 -0.000681
0.077903 0.049960 -0.011296
0.034591 0.048743 -0.000465
0.037214 0.049506 0.013187
0.052072 0.052346 0.024284
0.066390 0.050405 -0.019754
0.068794 0.052134 -0.002873
0.048975 0.052775 -0.044873
0.023863 0.051807 0.015382
0.064986 0.052063 -0.014652
0.057631 0.051300 -0.021772
0.071755 0.049827 -0.035733
0.042586 0.049099 -0.017750
0.042475 0.049018 -0.006934
0.031943 0.050280 -0.005447
0.052745 0.051127 -0.012161
0.031155 0.050851 -0.015933
0.082537 0.050134 -0.025394
0.064856 0.051104 -0.044602
0.019980 0.048233 -0.008654
0.025243 0.049782 -0.024918
0.014511 0.048759 -0.031995
0.037005 0.050759 -0.027102
0.076520 0.052743 0.005563
-0.016685 0.038504 -0.028569
0.005597 0.038597 -0.048610
0.025506 0.038586 -0.044285
0.016548 0.039322 0.000750
-0.004140 0.037215 -0.057100
0.027247 0.039823 0.006796
-0.017756 0.038255 -0.008197
0.012963 0.038327 -0.037551
0.019138 0.039069 -0.007460
0.040521 0.038378 -0.020651
0.003963 0.036622 -0.009616
0.005126 0.038694 0.006124
0.018542 0.039929 0.016643
0.029118 0.038927 -0.028499
0.032100 0.039860 -0.012003
0.014723 0.039632 -0.055743
-0.008055 0.038962 0.008865
0.028395 0.038696 -0.023180
0.024339 0.036761 -0.032978
0.033771 0.037407 -0.046654
0.009629 0.037006 -0.028659
0.009730 0.039636 -0.017049
0.001571 0.038277 -0.012816
0.019539 0.037780 -0.022740
0.001260 0.037712 -0.025190
0.041932 0.039464 -0.034563
0.027396 0.038657 -0.056983
-0.010202 0.037722 -0.018825
-0.005789 0.037501 -0.036027
-0.018416 0.036314 -0.044287
0.006840 0.037418 -0.038904
0.039809 0.040526 -0.003344
0.003148 0.053481 0.051238
0.023739 0.166199 0.027218
0.027723 0.105216 0.041497
0.018589 0.060863 0.072018
0.019873 0.130299 0.014125
0.031671 0.114570 0.078494
-0.005442 0.128730 0.063844
0.050404 0.128407 0.036607
0.030539 0.185234 0.068859
0.049596 0.136973 0.060762
0.034974 0.138370 0.066288
0.011636 0.171463 0.069340
0.038961 0.053730 0.070775
0.044273 0.160323 0.050621
0.041055 0.094356 0.070272
0.031712 0.059074 0.016068
0.010042 0.075436 0.073085
0.035453 0.023716 0.060252
0.033713 0.081402 0.056362
0.042243 0.086152 0.036043
0.011051 0.142554 0.049563
0.021772 0.209440 0.053347
0.004693 0.107267 0.068970
0.026852 0.124618 0.055776
0.016154 0.098182 0.055225
0.040742 0.180183 0.049231
0.045850 0.107166 0.009594
0.022500 0.161947 0.059998
-0.002962 0.158472 0.043708
0.002519 0.091569 0.029783
0.015960 0.012969 0.044016
0.039464 0.105321 0.069407
-0.034326 0.048251 -0.056554
-0.013329 0.050876 -0.079791
0.004690 0.049964 -0.074284
-0.006035 0.049216 -0.028361
-0.023073 0.048898 -0.091957
0.006283 0.051785 -0.020710
-0.036766 0.048426 -0.036917
-0.006048 0.050208 -0.066306
-0.000407 0.051800 -0.033225
0.018664 0.050020 -0.049271
-0.014048 0.047808 -0.037363
-0.014574 0.050745 -0.021050
-0.001458 0.050161 -0.012754
0.007977 0.051659 -0.055147
0.010525 0.051271 -0.037986
-0.004123 0.050427 -0.089095
-0.027445 0.048971 -0.018911
0.009096 0.048323 -0.049551
0.005089 0.047510 -0.060077
0.013143 0.048971 -0.077633
-0.010339 0.048273 -0.058171
-0.009444 0.052949 -0.046768
-0.017886 0.048741 -0.038226
-0.001125 0.048895 -0.050935
-0.017258 0.048186 -0.052463
0.020561 0.052407 -0.064176
0.008208 0.051684 -0.090943
-0.028427 0.049352 -0.046863
-0.024687 0.049119 -0.064786
-0.036296 0.046542 -0.075747
-0.012395 0.046501 -0.069073
0.018961 0.052103 -0.031880
-0.001687 -0.014547 -0.010909
0.017192 0.029978 -0.033970
0.021332 0.009011 -0.025128
0.014287 -0.014490 0.005355
0.008600 0.015217 -0.038752
0.034200 0.019261 0.016388
-0.004318 0.015061 -0.003119
0.028154 0.021292 -0.026276
0.030904 0.032681 0.000964
0.044538 0.017673 -0.010820
0.019156 0.022004 0.000259
0.012088 0.026027 0.012999
0.032260 -0.010987 0.018077
0.028002 0.027975 -0.015657
0.031905 0.005634 0.002494
0.023283 -0.014979 -0.036579
0.005055 0.001649 0.016145
0.042094 -0.028053 -0.005508
0.029624 -0.007377 -0.014441
0.047374 -0.005732 -0.025127
0.011849 0.016817 -0.018386
0.015335 0.037910 -0.014905
0.010953 0.014462 0.002352
0.025363 0.012068 -0.008347
0.011540 0.002730 -0.011011
0.045309 0.032110 -0.021936
0.033925 0.011402 -0.039491
0.003802 0.026298 -0.007447
0.001220 0.023103 -0.024165
-0.002368 -0.001800 -0.029447
0.017288 -0.031467 -0.018444
0.051773 0.004833 0.005077
0.021365 -0.015917 -0.022907
0.046876 0.027393 -0.045604
0.054008 0.010755 -0.036401
0.040025 -0.009914 -0.012661
0.034307 0.013787 -0.049388
0.062063 0.018306 -0.004884
0.021234 0.013690 -0.017909
0.056695 0.020576 -0.033169
0.059140 0.032329 -0.016491
0.077993 0.016688 -0.026566
0.046619 0.020058 -0.015838
0.038649 0.026273 -0.005938
0.059335 -0.005774 -0.002609
0.061801 0.028118 -0.027399
0.066298 0.008387 -0.014311
0.053268 -0.011846 -0.048722
0.027315 0.001131 -0.005318
0.075577 -0.031130 -0.021895
0.058223 -0.002153 -0.025643
0.082083 -0.005104 -0.037588
0.039802 0.017473 -0.029980
0.043063 0.039274 -0.026310
0.034818 0.013729 -0.015350
0.051398 0.013096 -0.020511
0.037121 0.003555 -0.025073
0.082575 0.030432 -0.035250
0.070184 0.012108 -0.050853
0.030794 0.022990 -0.019755
0.026569 0.022499 -0.032459
0.021518 -0.000451 -0.036424
0.041992 -0.036893 -0.027984
0.083849 0.008678 -0.014989
-0.033875 0.015938 -0.048079
-0.013358 0.045840 -0.073497
-0.006907 0.030344 -0.064229
-0.016668 0.016144 -0.029524
-0.023812 0.035068 -0.080917
0.001280 0.038780 -0.017956
-0.037469 0.033629 -0.036539
-0.005967 0.039776 -0.061055
-0.000848 0.049708 -0.031757
0.011846 0.036120 -0.046331
-0.012741 0.038160 -0.035213
-0.019192 0.043768 -0.020057
-0.003040 0.020044 -0.016731
-0.001646 0.044793 -0.050147
0.001039 0.030026 -0.032468
-0.009144 0.017323 -0.077265
-0.028836 0.025819 -0.017625
0.007345 0.005791 -0.041735
-0.001092 0.019671 -0.050908
0.011989 0.024238 -0.064758
-0.017423 0.034854 -0.054501
-0.014946 0.054756 -0.049387
-0.020078 0.033943 -0.030976
-0.006169 0.031052 -0.044551
-0.019719 0.025478 -0.045699
0.013483 0.048307 -0.057957
0.002719 0.035194 -0.079604
-0.028041 0.041661 -0.042030
-0.030537 0.040093 -0.059901
-0.036030 0.023660 -0.067478
-0.014876 0.003689 -0.057222
0.016493 0.031349 -0.030733
0.033668 0.066895 0.029693
0.058599 0.064516 0.005703
0.080569 0.067598 0.010746
0.071903 0.066722 0.069625
0.048319 0.064731 -0.000230
0.085875 0.065987 0.076423
0.034655 0.065952 0.055226
0.067133 0.065627 0.019185
0.074620 0.064170 0.054752
0.102632 0.065834 0.038506
0.057229 0.064043 0.057097
0.057435 0.064892 0.077051
0.075066 0.067352 0.093119
0.091630 0.065935 0.026579
0.092891 0.067247 0.051224
0.070608 0.067448 -0.001405
0.043468 0.068052 0.083624
0.087884 0.066878 0.036266
0.079430 0.066006 0.023706
0.094956 0.066021 0.007802
0.061865 0.064662 0.028978
0.064560 0.064924 0.045284
0.050926 0.065286 0.051122
0.075144 0.066248 0.036776
0.052270 0.065996 0.034212
0.106961 0.066191 0.020427
0.087703 0.067048 -0.003542
0.038849 0.063728 0.043190
0.045674 0.064513 0.020374
0.034557 0.063405 0.011731
0.055837 0.065920 0.017935
0.101127 0.068203 0.065394
-0.011194 -0.018278 -0.037252
0.009662 0.030805 -0.065029
0.014240 0.006055 -0.052014
0.005776 -0.016980 -0.024501
-0.000349 0.014631 -0.068879
0.024666 0.015823 -0.016061
-0.013410 0.012409 -0.031306
0.020987 0.019236 -0.054127
0.022753 0.034735 -0.029913
0.037822 0.016016 -0.039319
0.011590 0.019837 -0.029230
0.001940 0.026669 -0.018346
0.022950 -0.014562 -0.015013
0.022098 0.027519 -0.043305
0.024894 0.002428 -0.026768
0.016012 -0.016971 -0.064394
-0.004846 -0.003568 -0.015701
0.035578 -0.032380 -0.033883
0.022290 -0.009762 -0.039454
0.039191 -0.007639 -0.053337
0.004174 0.014875 -0.044957
0.006283 0.042427 -0.045624
0.002101 0.010759 -0.025507
0.017083 0.009270 -0.034979
0.002489 -0.001090 -0.037519
0.037231 0.033121 -0.051841
0.027948 0.010439 -0.067890
-0.004020 0.025496 -0.034640
-0.008475 0.022462 -0.051573
-0.012176 -0.003676 -0.055238
0.009173 -0.035913 -0.043594
0.042025 0.002462 -0.026592
-0.030864 -0.000779 -0.053660
-0.008863 0.037042 -0.081769
-0.004053 0.019470 -0.070047
-0.014721 0.000974 -0.039207
-0.020417 0.025407 -0.087541
0.002876 0.027935 -0.030481
-0.034063 0.023440 -0.045685
-0.001117 0.029591 -0.068258
0.001577 0.040000 -0.044150
0.015362 0.026182 -0.056624
-0.009017 0.028577 -0.044536
-0.017657 0.033848 -0.031611
0.000655 0.003743 -0.028710
0.001936 0.036271 -0.058698
0.004837 0.017670 -0.042174
-0.003600 0.000933 -0.084027
-0.026687 0.012452 -0.029032
0.014807 -0.012654 -0.050464
0.002410 0.006024 -0.056856
0.017537 0.008907 -0.072161
-0.015325 0.025308 -0.062052
-0.012718 0.045489 -0.059209
-0.018698 0.023133 -0.040507
-0.003928 0.021135 -0.051909
-0.017590 0.013392 -0.053255
0.017391 0.039410 -0.068665
0.009175 0.024346 -0.087997
-0.025774 0.031795 -0.049878
-0.028240 0.031030 -0.066741
-0.031848 0.010406 -0.072232
-0.010708 -0.016173 -0.062184
0.019044 0.018035 -0.042443
0.073973 0.079456 0.093889
0.080548 0.138110 0.070176
0.083347 0.098495 0.087163
0.079382 0.083054 0.120228
0.079291 0.115713 0.051960
0.076119 0.108987 0.124035
0.076398 0.110183 0.102577
0.097736 0.113107 0.083850
0.078691 0.145613 0.114879
0.087749 0.118684 0.106880
0.089372 0.121229 0.112328
0.077096 0.140469 0.111451
0.086384 0.077775 0.120507
0.092130 0.137222 0.092643
0.087836 0.103279 0.118735
0.086253 0.082583 0.057164
0.075804 0.091520 0.122116
0.078641 0.066407 0.103761
0.086289 0.095369 0.102055
0.080699 0.096743 0.075683
0.078334 0.123835 0.093126
0.083382 0.164451 0.101520
0.068487 0.099895 0.113502
0.080259 0.114065 0.096705
0.079005 0.105187 0.101750
0.082932 0.146748 0.089439
0.092330 0.101215 0.048743
0.087729 0.136545 0.099977
0.074089 0.123892 0.079911
0.080423 0.092585 0.062809
0.072409 0.067145 0.085702
0.078509 0.103872 0.114226
0.036098 0.048543 -0.018604
0.062316 0.047763 -0.038223
0.088546 0.048805 -0.034578
0.074201 0.051195 0.005588
0.051355 0.046628 -0.046030
0.088846 0.048913 0.009174
0.036067 0.047414 -0.002384
0.070808 0.047774 -0.026352
0.077855 0.047043 -0.003102
0.108564 0.046960 -0.013033
0.058789 0.045743 -0.003462
0.061161 0.047088 0.010017
0.078719 0.049808 0.019880
0.094333 0.048559 -0.020647
0.099149 0.050060 -0.003597
0.076096 0.050639 -0.048697
0.044458 0.048888 0.010275
0.094370 0.049353 -0.016094
0.086328 0.048693 -0.022094
0.102548 0.046598 -0.037073
0.067360 0.046688 -0.019413
0.067700 0.046809 -0.009491
0.055189 0.047426 -0.006528
0.078219 0.048602 -0.015391
0.055595 0.047798 -0.016672
0.115027 0.047799 -0.026749
0.095267 0.048747 -0.047294
0.042653 0.045522 -0.010889
0.048003 0.046797 -0.025320
0.035129 0.045446 -0.032765
0.060851 0.047712 -0.029367
0.108050 0.049691 0.002902
0.017076 0.048591 -0.035680
0.043654 0.047932 -0.057194
0.069788 0.048888 -0.053120
0.054518 0.051426 -0.010860
0.032526 0.046893 -0.066602
0.069233 0.049017 -0.007216
0.016757 0.047359 -0.018942
0.051489 0.047900 -0.044101
0.058177 0.047151 -0.019452
0.088856 0.046921 -0.030202
0.039459 0.045645 -0.019875
0.041569 0.047184 -0.006168
0.058791 0.049971 0.003190
0.074521 0.049039 -0.037425
0.079388 0.050103 -0.020223
0.057345 0.050852 -0.068876
0.024737 0.048988 -0.006076
0.074835 0.049327 -0.032973
0.067521 0.048798 -0.039600
0.083490 0.046596 -0.056485
0.048168 0.046835 -0.036889
0.048482 0.047328 -0.026443
0.035825 0.047317 -0.022770
0.059008 0.048569 -0.032444
0.036662 0.047828 -0.033598
0.095453 0.048021 -0.045050
0.076631 0.049091 -0.068191
0.023428 0.045619 -0.027559
0.029047 0.047067 -0.042730
0.016743 0.045624 -0.051258
0.042044 0.047381 -0.047366
0.088225 0.049663 -0.013833
0.062298 0.081687 0.085954
0.073898 0.132707 0.065883
0.075233 0.100352 0.080800
0.069955 0.085499 0.113019
0.069595 0.113605 0.050140
0.070098 0.111079 0.118085
0.066940 0.108430 0.095335
0.095479 0.113657 0.081464
0.075641 0.139075 0.110342
0.080888 0.118694 0.102465
0.086255 0.122268 0.107794
0.070890 0.135555 0.103314
0.080504 0.084922 0.112455
0.087782 0.136535 0.087961
0.084110 0.105771 0.112654
0.077696 0.087577 0.052357
0.066078 0.095911 0.115420
0.070925 0.077647 0.096513
0.078403 0.100305 0.097377
0.072879 0.101907 0.073949
0.072098 0.124279 0.088017
0.080687 0.159507 0.099469
0.061154 0.100402 0.105966
0.073079 0.115964 0.091468
0.072304 0.109608 0.095345
0.078014 0.144062 0.085938
0.085695 0.105015 0.048886
0.083947 0.132611 0.092723
0.065433 0.121565 0.071708
0.066105 0.093714 0.055098
0.061392 0.079491 0.080634
0.070603 0.109811 0.106948
-0.009421 0.056549 0.045088
0.016120 0.179119 0.015573
0.019639 0.115397 0.030918
0.011248 0.064033 0.066277
0.010545 0.142441 -0.001919
0.030909 0.124519 0.073334
-0.018843 0.140424 0.059210
0.047383 0.141332 0.027622
0.027796 0.199334 0.065546
0.050591 0.149678 0.054942
0.029505 0.149951 0.062311
0.004043 0.184809 0.065419
0.035730 0.059551 0.064692
0.040144 0.173449 0.045694
0.038114 0.101092 0.064523
0.022803 0.063793 0.001880
-0.000219 0.081613 0.067557
0.032533 0.024621 0.055414
0.029471 0.087002 0.048664
0.040955 0.095446 0.027162
0.002166 0.153883 0.044576
0.014660 0.224059 0.049084
-0.003101 0.118634 0.064582
0.022515 0.134133 0.050821
0.008289 0.104526 0.050044
0.039138 0.194303 0.044183
0.040483 0.118614 -0.007903
0.012904 0.175310 0.056093
-0.013994 0.172160 0.037589
-0.011182 0.100678 0.018893
0.007871 0.012533 0.037279
0.039982 0.115262 0.063387
0.027137 0.033948 -0.031802
0.052485 0.034262 -0.051024
0.075314 0.034268 -0.047187
0.064004 0.036028 -0.000426
0.042330 0.032142 -0.058207
0.077709 0.034951 0.005024
0.027121 0.033301 -0.011296
0.059409 0.034020 -0.038663
0.067295 0.034029 -0.010575
0.094419 0.032956 -0.024079
0.050179 0.031809 -0.012879
0.051595 0.033111 0.005221
0.067057 0.035142 0.017976
0.080270 0.035055 -0.032431
0.085519 0.035893 -0.013624
0.063225 0.035296 -0.059697
0.034941 0.034820 0.008257
0.080132 0.033943 -0.026811
0.074720 0.033483 -0.035726
0.088315 0.032138 -0.049339
0.055869 0.032904 -0.033100
0.057286 0.034313 -0.020667
0.045763 0.033604 -0.014691
0.066334 0.033688 -0.028460
0.047431 0.033019 -0.028250
0.099670 0.034769 -0.038344
0.080992 0.034267 -0.057893
0.033754 0.031933 -0.022128
0.038520 0.032993 -0.038974
0.025962 0.030703 -0.046444
0.050985 0.031753 -0.042495
0.094539 0.035816 -0.004486
0.002901 -0.021405 -0.042678
0.023200 0.022782 -0.068818
0.028412 0.000829 -0.056986
0.019286 -0.019507 -0.029372
0.013556 0.008097 -0.073356
0.037440 0.009818 -0.019641
0.000722 0.006143 -0.035985
0.032270 0.012552 -0.056909
0.034675 0.027061 -0.033932
0.050058 0.008670 -0.044372
0.024190 0.012569 -0.033861
0.016763 0.019132 -0.022170
0.035148 -0.017180 -0.018678
0.034212 0.020247 -0.047565
0.037820 -0.001601 -0.031014
0.028845 -0.020110 -0.070071
0.009214 -0.007083 -0.019756
0.047622 -0.035363 -0.038837
0.035020 -0.013326 -0.045129
0.052316 -0.011740 -0.057975
0.018106 0.008613 -0.049884
0.019265 0.034912 -0.049158
0.015908 0.005524 -0.030833
0.029878 0.003404 -0.039932
0.016474 -0.005496 -0.042894
0.050709 0.024776 -0.055578
0.041058 0.004579 -0.073508
0.009420 0.017283 -0.039500
0.005180 0.015347 -0.055173
0.001712 -0.008263 -0.060057
0.022743 -0.038918 -0.049177
0.055653 -0.001703 -0.031024
-0.132700 0.244092 -0.077924
-0.100694 0.251819 -0.143121
-0.061270 0.244107 -0.139636
-0.088631 0.240271 0.007640
-0.112929 0.250310 -0.192915
-0.033126 0.249601 0.026575
-0.135997 0.245221 -0.031100
-0.076690 0.254606 -0.106054
-0.065890 0.248466 0.000739
-0.001040 0.246282 -0.050047
-0.096940 0.243670 -0.022894
-0.100205 0.248353 0.018565
-0.070780 0.250652 0.041011
-0.038494 0.254504 -0.059950
-0.032785 0.246725 -0.015410
-0.086982 0.252946 -0.193438
-0.125171 0.241393 0.028258
-0.065271 0.231684 -0.034556
-0.046178 0.245292 -0.099994
-0.006655 0.254584 -0.154111
-0.106463 0.248036 -0.087981
-0.084087 0.258709 -0.045330
-0.121211 0.248131 -0.002628
-0.081010 0.239442 -0.073223
-0.107981 0.239260 -0.053275
0.018395 0.250596 -0.096901
-0.025411 0.253568 -0.207199
-0.124798 0.248990 -0.043245
-0.124834 0.245104 -0.101189
-0.128626 0.245071 -0.145617
-0.112225 0.227454 -0.117975
0.010679 0.250339 0.003814
-0.006574 0.043569 -0.054803
0.023408 0.054994 -0.078061
0.044458 0.052840 -0.072312
0.024866 0.045843 -0.035499
0.009645 0.051034 -0.086279
0.046072 0.055271 -0.029353
-0.008215 0.051730 -0.041612
0.032267 0.055198 -0.064003
0.037263 0.056074 -0.041965
0.065323 0.051437 -0.053560
0.019592 0.052253 -0.041880
0.017179 0.054359 -0.028278
0.037522 0.048939 -0.023184
0.048781 0.057109 -0.056530
0.054273 0.053164 -0.041668
0.034919 0.046666 -0.087858
0.000042 0.049496 -0.029486
0.055874 0.031988 -0.052183
0.044149 0.048387 -0.058495
0.063235 0.046510 -0.075082
0.021311 0.052348 -0.060069
0.024621 0.057883 -0.051075
0.010699 0.052029 -0.042770
0.034750 0.051976 -0.051269
0.014181 0.049582 -0.053936
0.070448 0.056058 -0.066536
0.054737 0.054435 -0.087626
0.000312 0.053278 -0.048652
0.004588 0.053197 -0.063916
-0.006693 0.048158 -0.070571
0.018639 0.029001 -0.063978
0.067315 0.052412 -0.037602
0.020880 0.005233 -0.039262
0.047873 0.038917 -0.062425
0.058632 0.026637 -0.054364
0.042219 0.010204 -0.026786
0.034587 0.028229 -0.067764
0.064978 0.033345 -0.018938
0.020313 0.028481 -0.031912
0.056975 0.034781 -0.048728
0.060153 0.042661 -0.030744
0.082617 0.030566 -0.041953
0.045994 0.032900 -0.030642
0.039886 0.037890 -0.019119
0.059995 0.014487 -0.015808
0.065473 0.040516 -0.042843
0.070786 0.025628 -0.029240
0.055053 0.008876 -0.068007
0.026304 0.019190 -0.019267
0.077126 -0.008566 -0.038038
0.061467 0.016416 -0.042359
0.085841 0.013586 -0.056099
0.041634 0.031627 -0.045884
0.044967 0.048161 -0.040770
0.035147 0.029033 -0.030106
0.053070 0.027872 -0.036495
0.037730 0.020541 -0.040412
0.089019 0.041487 -0.051946
0.074254 0.028424 -0.069451
0.029462 0.035231 -0.035180
0.027483 0.034899 -0.048254
0.021021 0.017140 -0.053679
0.042394 -0.013099 -0.045904
0.088758 0.025408 -0.029190
0.073083 0.089180 0.095710
0.079756 0.154035 0.070786
0.081841 0.109797 0.087882
0.077783 0.092147 0.122329
0.079630 0.130616 0.053508
0.075143 0.122250 0.127964
0.074158 0.123705 0.105186
0.096566 0.126169 0.084782
0.077975 0.161873 0.117965
0.086325 0.132908 0.109567
0.088713 0.135354 0.114853
0.076637 0.155198 0.115250
0.084729 0.085506 0.123323
0.090976 0.151560 0.093726
0.086326 0.113671 0.121956
0.084654 0.091298 0.057969
0.074761 0.101135 0.124989
0.077129 0.073505 0.106531
0.085441 0.105399 0.103213
0.079441 0.108338 0.077091
0.077152 0.137505 0.095003
0.083184 0.182033 0.103804
0.067969 0.112697 0.115976
0.079398 0.126556 0.099016
0.077454 0.116163 0.103606
0.081366 0.163978 0.091907
0.091223 0.113937 0.049272
0.086403 0.151396 0.102064
0.072808 0.138564 0.082733
0.079003 0.103825 0.064350
0.072190 0.073090 0.086955
0.076944 0.115615 0.116629
0.063590 0.081546 0.084773
0.071747 0.154418 0.059160
0.072987 0.104764 0.076390
0.067678 0.084850 0.110726
0.071912 0.127757 0.043295
0.066327 0.119741 0.118380
0.063910 0.121599 0.094828
0.088183 0.123169 0.072889
0.069264 0.162942 0.108003
0.078596 0.131272 0.098530
0.079605 0.134849 0.104222
0.067012 0.155769 0.105430
0.075557 0.078516 0.112947
0.082635 0.150383 0.082043
0.077772 0.107818 0.112024
0.075127 0.082630 0.046043
0.063773 0.094135 0.114759
0.068636 0.064843 0.095299
0.076784 0.097950 0.091668
0.071764 0.102351 0.065643
0.067828 0.135252 0.084498
0.074419 0.183319 0.093418
0.058876 0.109696 0.105116
0.071053 0.122851 0.088508
0.067379 0.110279 0.092963
0.073294 0.165684 0.082247
0.082691 0.108400 0.037004
0.076864 0.151274 0.091036
0.063673 0.137056 0.073681
0.069167 0.097536 0.053923
0.062251 0.063578 0.073637
0.068978 0.111790 0.105764
0.061420 0.078644 0.076464
0.073827 0.130209 0.056814
0.075374 0.097593 0.071541
0.069653 0.082469 0.103834
0.069058 0.110745 0.041392
0.070539 0.108819 0.109761
0.065196 0.105831 0.086485
0.096011 0.111381 0.072259
0.076300 0.136218 0.101957
0.081417 0.116326 0.093630
0.086570 0.119683 0.098937
0.070836 0.132315 0.094636
0.080589 0.081992 0.103282
0.088352 0.134126 0.079186
0.084551 0.103053 0.103747
0.077688 0.084693 0.043014
0.065818 0.093160 0.106626
0.070921 0.074886 0.087308
0.078230 0.097978 0.088236
0.073212 0.099500 0.064792
0.071432 0.121916 0.078644
0.081044 0.156476 0.090870
0.060940 0.097836 0.097031
0.072869 0.113530 0.082656
0.072024 0.107075 0.086070
0.078922 0.141915 0.076754
0.086439 0.103007 0.040453
0.083547 0.129739 0.083855
0.063812 0.119457 0.062420
0.063827 0.090810 0.046165
0.060872 0.076255 0.071293
0.070989 0.107584 0.098063
0.004954 0.050965 -0.037941
0.023832 0.049821 -0.059349
0.042590 0.050899 -0.054839
0.035368 0.051120 -0.006674
0.015772 0.049566 -0.069871
0.045021 0.050531 -0.000164
0.004523 0.050215 -0.016992
0.031726 0.049517 -0.047759
0.036412 0.049539 -0.015091
0.057408 0.049965 -0.029625
0.023111 0.048069 -0.016443
0.024607 0.049324 -0.000812
0.036732 0.051325 0.011537
0.048073 0.049997 -0.038423
0.049618 0.051283 -0.020034
0.033447 0.051442 -0.067382
0.013969 0.050952 0.004147
0.046244 0.051639 -0.031910
0.041216 0.049536 -0.042577
0.051023 0.049534 -0.058679
0.028809 0.048372 -0.037987
0.028512 0.050717 -0.025489
0.020956 0.049414 -0.021405
0.037428 0.050007 -0.030921
0.020379 0.050123 -0.034884
0.060313 0.049884 -0.045810
0.045655 0.050738 -0.070647
0.010258 0.048766 -0.027462
0.014612 0.049152 -0.046073
0.004123 0.048404 -0.056016
0.025473 0.050271 -0.048594
0.057221 0.052123 -0.010974
0.016345 0.053844 -0.025628
0.043096 0.057882 -0.045151
0.064166 0.057958 -0.041184
0.050711 0.056006 0.004311
0.032038 0.055168 -0.051790
0.066573 0.059064 0.010586
0.015995 0.056402 -0.006713
0.050060 0.058311 -0.032632
0.056725 0.057629 -0.006535
0.082642 0.055514 -0.020080
0.040087 0.055989 -0.007622
0.040206 0.057013 0.010150
0.057355 0.057581 0.022401
0.067784 0.059289 -0.026266
0.073210 0.059452 -0.007824
0.053664 0.055614 -0.053473
0.023352 0.057441 0.013429
0.071628 0.044771 -0.019832
0.063979 0.055517 -0.029671
0.077852 0.053792 -0.042620
0.043432 0.056745 -0.029241
0.046896 0.057717 -0.016388
0.033807 0.057076 -0.008768
0.056095 0.057378 -0.022008
0.036958 0.055927 -0.022649
0.085418 0.058362 -0.033285
0.070103 0.058343 -0.051967
0.022565 0.056191 -0.017224
0.028993 0.056338 -0.034256
0.016349 0.054152 -0.040693
0.040288 0.042156 -0.034923
0.082854 0.058830 0.000639
0.033102 0.050313 -0.038325
0.059577 0.048432 -0.058348
0.086430 0.050353 -0.054440
0.071404 0.052560 -0.014105
0.048795 0.048184 -0.066436
0.086972 0.049657 -0.010581
0.033177 0.048853 -0.022060
0.067857 0.048658 -0.046564
0.075177 0.047661 -0.023096
0.107646 0.048015 -0.032934
0.055105 0.046466 -0.022718
0.057865 0.047740 -0.009156
0.075883 0.051103 0.000540
0.093330 0.049248 -0.040913
0.097435 0.050835 -0.023574
0.074331 0.052098 -0.068980
0.041523 0.050431 -0.009348
0.092422 0.051803 -0.036556
0.083929 0.050405 -0.042112
0.101892 0.047856 -0.057854
0.064827 0.047535 -0.038924
0.064845 0.047374 -0.029025
0.051798 0.048276 -0.026728
0.076100 0.049841 -0.034906
0.051791 0.049583 -0.036911
0.115607 0.048343 -0.047548
0.094516 0.050001 -0.068309
0.038874 0.046304 -0.030184
0.044471 0.048297 -0.044892
0.033207 0.047212 -0.052500
0.057312 0.050312 -0.048898
0.107115 0.050936 -0.016101
-0.150838 0.219165 -0.102149
-0.114796 0.227068 -0.173984
-0.075796 0.219042 -0.171682
-0.102544 0.215799 -0.011301
-0.127092 0.225657 -0.222509
-0.056764 0.224702 0.006932
-0.153959 0.220367 -0.048191
-0.092601 0.227341 -0.135973
-0.082965 0.224831 -0.022420
-0.026348 0.220135 -0.078428
-0.111856 0.219342 -0.043089
-0.116518 0.223753 0.001303
-0.088526 0.223840 0.022379
-0.059408 0.228916 -0.088869
-0.053520 0.221826 -0.037654
-0.098237 0.225242 -0.222905
-0.140215 0.218331 0.015335
-0.079371 0.209674 -0.061274
-0.063188 0.218706 -0.128905
-0.032378 0.225794 -0.186918
-0.119892 0.223734 -0.114388
-0.100737 0.234636 -0.069162
-0.135654 0.222870 -0.022918
-0.094236 0.216528 -0.097723
-0.121961 0.215626 -0.075781
-0.016318 0.225839 -0.128933
-0.047174 0.227378 -0.240147
-0.141448 0.224949 -0.067879
-0.141221 0.221509 -0.129400
-0.147397 0.221080 -0.174632
-0.124895 0.206151 -0.149748
-0.023217 0.224413 -0.021995
-0.019034 0.051190 -0.068618
0.000327 0.051014 -0.091039
0.018401 0.051094 -0.086555
0.009623 0.051941 -0.039924
-0.008048 0.049834 -0.102339
0.019936 0.051931 -0.034394
-0.020361 0.050069 -0.048781
0.006985 0.050253 -0.078336
0.012420 0.051333 -0.046945
0.032127 0.050911 -0.061432
-0.000438 0.048906 -0.049504
-0.000020 0.050610 -0.034412
0.012024 0.051742 -0.024465
0.022169 0.051553 -0.069168
0.024916 0.052101 -0.051454
0.009219 0.052067 -0.100460
-0.011511 0.050909 -0.030707
0.021855 0.053492 -0.063069
0.017444 0.050045 -0.073562
0.026874 0.050042 -0.090493
0.004327 0.049224 -0.069195
0.004350 0.052248 -0.057635
-0.003161 0.049867 -0.052053
0.012166 0.050280 -0.063209
-0.003424 0.050133 -0.064929
0.035511 0.052109 -0.076866
0.021700 0.051341 -0.103190
-0.013981 0.049544 -0.058787
-0.009960 0.049616 -0.076412
-0.020489 0.048096 -0.086852
0.001700 0.052090 -0.080943
0.032447 0.052767 -0.044417
-0.141546 0.126729 -0.013576
-0.077656 0.169647 -0.054583
-0.054596 0.152158 -0.046484
-0.071388 0.125136 0.012134
-0.111794 0.155425 -0.077563
-0.041194 0.153378 0.016267
-0.157575 0.161495 0.008939
-0.038658 0.167583 -0.032046
-0.050789 0.174849 0.010645
-0.016064 0.162009 -0.004314
-0.066931 0.160460 0.004820
-0.093395 0.167984 0.012307
-0.051772 0.132085 0.012393
-0.031108 0.173955 -0.007854
-0.033167 0.147021 0.001863
-0.067508 0.135836 -0.079764
-0.122512 0.134929 0.009062
-0.043184 0.097469 -0.002149
-0.045727 0.140183 -0.017856
-0.026849 0.148514 -0.044052
-0.092403 0.164705 -0.022837
-0.069369 0.183836 -0.006074
-0.111161 0.154172 0.007159
-0.062678 0.154849 -0.008727
-0.089653 0.147095 -0.007109
-0.018897 0.175515 -0.020798
-0.028998 0.160360 -0.083794
-0.108970 0.165396 0.003286
-0.131354 0.173307 -0.024712
-0.160363 0.149548 -0.042472
-0.091866 0.091623 -0.025674
-0.019351 0.152085 0.008059
0.053730 0.078860 0.057304
0.065273 0.131496 0.039378
0.066610 0.098073 0.053572
0.061241 0.082104 0.085061
0.060588 0.111690 0.024416
0.061698 0.109496 0.092162
0.056579 0.107324 0.067969
0.087078 0.112232 0.053432
0.068439 0.137310 0.083994
0.072600 0.117634 0.074758
0.077896 0.120171 0.079663
0.063112 0.132076 0.077065
0.071428 0.081166 0.084844
0.079787 0.134421 0.060403
0.075559 0.103193 0.084819
0.068867 0.084028 0.026364
0.058270 0.093099 0.087672
0.061864 0.073519 0.069032
0.069336 0.097501 0.069022
0.064010 0.100051 0.046400
0.062160 0.122423 0.059492
0.072707 0.157524 0.071506
0.053192 0.098394 0.078525
0.064179 0.114266 0.063631
0.063147 0.107381 0.066958
0.070551 0.143311 0.057987
0.077835 0.104134 0.023264
0.074586 0.130325 0.065353
0.054457 0.120680 0.043883
0.054087 0.091437 0.029052
0.052563 0.073367 0.052262
0.061460 0.108191 0.079568
-0.167433 0.165150 -0.106952
-0.144612 0.184796 -0.150835
-0.130553 0.165320 -0.147072
-0.143962 0.159575 -0.054077
-0.151620 0.172275 -0.177838
-0.124414 0.165768 -0.041212
-0.167582 0.164846 -0.070693
-0.137465 0.171617 -0.131256
-0.134053 0.191273 -0.061108
-0.108204 0.166018 -0.099886
-0.142026 0.167570 -0.076051
-0.151483 0.174460 -0.048550
-0.138516 0.162000 -0.032728
-0.128042 0.175704 -0.102024
-0.122546 0.165776 -0.067005
-0.136438 0.164120 -0.176199
-0.160262 0.161617 -0.032865
-0.130778 0.147249 -0.081660
-0.121818 0.163687 -0.120132
-0.106845 0.165550 -0.157827
-0.149694 0.165650 -0.113673
-0.146346 0.203591 -0.099117
-0.156034 0.167357 -0.059674
-0.137904 0.163762 -0.100776
-0.150360 0.162101 -0.088065
-0.111247 0.184684 -0.124332
-0.117349 0.170447 -0.194161
-0.158617 0.173874 -0.082932
-0.158055 0.168722 -0.121484
-0.165516 0.166378 -0.152580
-0.148761 0.148880 -0.134665
-0.104676 0.167467 -0.065196
-0.093333 0.169121 -0.019338
-0.054482 0.191006 -0.062358
-0.031822 0.181412 -0.058048
-0.049356 0.168346 0.018652
-0.073454 0.182763 -0.086160
-0.012083 0.186111 0.029936
-0.093085 0.182417 0.005448
-0.038065 0.192026 -0.037754
-0.028750 0.192503 0.016873
0.014266 0.185524 -0.008184
-0.054148 0.184832 0.010548
-0.060898 0.188696 0.026310
-0.033506 0.179388 0.032955
-0.011622 0.191809 -0.011413
-0.006922 0.182317 0.008916
-0.048245 0.176506 -0.088844
-0.079519 0.172895 0.023329
-0.021157 0.154251 -0.000822
-0.021982 0.177114 -0.032433
0.009571 0.182566 -0.056618
-0.062640 0.184058 -0.028364
-0.051197 0.196527 -0.005141
-0.073473 0.183071 0.013001
-0.041249 0.178212 -0.011800
-0.066174 0.173925 -0.009077
0.025690 0.191346 -0.029811
-0.004502 0.187334 -0.091654
-0.084031 0.187140 -0.000259
-0.079476 0.185932 -0.035918
-0.090717 0.177727 -0.058694
-0.068000 0.150851 -0.039692
0.021730 0.184096 0.019871
0.062203 0.091355 0.058361
0.066107 0.171199 0.028700
0.067824 0.112575 0.045614
0.063835 0.092973 0.089696
0.069444 0.143756 0.009465
0.060839 0.132585 0.100693
0.061053 0.135745 0.072681
0.081034 0.135477 0.040526
0.063442 0.177469 0.088459
0.072979 0.143667 0.074150
0.073312 0.147616 0.081745
0.065063 0.166711 0.088516
0.069313 0.083476 0.094709
0.076220 0.161794 0.052767
0.071662 0.116076 0.091809
0.069203 0.088541 0.012498
0.061943 0.102050 0.096540
0.063742 0.068841 0.073022
0.072885 0.104358 0.062335
0.064946 0.114131 0.033670
0.064092 0.146658 0.057188
0.069560 0.195992 0.068742
0.057075 0.122622 0.085577
0.067604 0.132715 0.060965
0.063782 0.118469 0.068994
0.066824 0.181395 0.054671
0.076373 0.118756 0.000966
0.069878 0.165044 0.066022
0.060662 0.148560 0.047390
0.066166 0.107557 0.021231
0.060125 0.065261 0.042821
0.062557 0.121088 0.083572
0.033591 0.070234 0.000419
0.047810 0.131727 -0.012318
0.047836 0.090646 0.000460
0.042607 0.069676 0.030692
0.043284 0.108620 -0.026746
0.040549 0.108187 0.043745
0.032098 0.108049 0.013545
0.066577 0.107975 -0.004591
0.046648 0.136994 0.030556
0.051712 0.115074 0.017201
0.056278 0.118488 0.023443
0.042409 0.130039 0.029557
0.050837 0.069186 0.036103
0.059724 0.130650 0.003596
0.053230 0.095938 0.028397
0.053299 0.069581 -0.025517
0.038299 0.085804 0.037909
0.041361 0.054756 0.012875
0.048784 0.084579 0.011960
0.044211 0.090488 -0.009629
0.039449 0.120083 0.001969
0.052346 0.157711 0.015276
0.032535 0.095432 0.024831
0.044735 0.110060 0.006060
0.040831 0.100868 0.010099
0.050982 0.143409 0.002329
0.062089 0.099085 -0.029301
0.050453 0.129121 0.010568
0.030831 0.121744 -0.010465
0.032453 0.084777 -0.020917
0.034460 0.051901 -0.005698
0.038198 0.101733 0.024616
0.057630 0.085460 0.042435
0.061677 0.174397 0.011793
0.062960 0.109316 0.028405
0.058373 0.087861 0.074421
0.065966 0.144598 -0.007239
0.056125 0.132480 0.087204
0.056028 0.136056 0.057906
0.076047 0.135366 0.021994
0.058197 0.181579 0.074380
0.068774 0.144596 0.058350
0.067721 0.149552 0.067017
0.060098 0.169660 0.075126
0.064764 0.077502 0.080865
0.071170 0.163408 0.035496
0.066867 0.112250 0.077758
0.064260 0.082234 -0.005381
0.056395 0.097447 0.083027
0.059494 0.061794 0.057609
0.068080 0.099050 0.045469
0.060900 0.110969 0.016429
0.059574 0.147189 0.041190
0.064544 0.199747 0.053732
0.052637 0.121892 0.070894
0.063208 0.131043 0.044831
0.058577 0.114607 0.053363
0.062051 0.185837 0.039030
0.071368 0.115914 -0.016858
0.064659 0.167912 0.049963
0.056229 0.149024 0.032274
0.061939 0.103160 0.003887
0.055402 0.058166 0.024777
0.058444 0.119341 0.068166
0.035816 0.062253 -0.026857
0.054449 0.061679 -0.043188
0.072086 0.062639 -0.038415
0.062240 0.062290 -0.008420
0.046788 0.061187 -0.049116
0.073958 0.061936 -0.003116
0.036768 0.061691 -0.014646
0.061635 0.061810 -0.034294
0.064907 0.061196 -0.015621
0.088341 0.061303 -0.023044
0.050725 0.060445 -0.014515
0.053910 0.061576 -0.004233
0.064563 0.062252 0.003501
0.078392 0.062387 -0.028715
0.079316 0.062900 -0.016932
0.063444 0.062111 -0.048276
0.044855 0.062448 -0.002469
0.075378 0.061970 -0.024197
0.069617 0.061182 -0.029427
0.082633 0.060450 -0.040997
0.057627 0.060676 -0.027515
0.057394 0.062193 -0.020218
0.050225 0.060911 -0.019590
0.068762 0.061868 -0.018498
0.048081 0.062487 -0.027632
0.092934 0.060909 -0.034194
0.075788 0.062738 -0.050596
0.041444 0.061065 -0.020516
0.045731 0.061498 -0.034163
0.036168 0.060350 -0.038776
0.053735 0.061279 -0.032801
0.088524 0.062707 -0.009080
-0.099127 0.173752 -0.048761
-0.058200 0.192950 -0.098791
-0.036841 0.180270 -0.094436
-0.053779 0.170850 0.000079
-0.076723 0.183455 -0.127398
-0.017874 0.184950 0.014171
-0.099351 0.181188 -0.016461
-0.043034 0.191903 -0.071330
-0.033319 0.194121 -0.001832
0.005406 0.183784 -0.035631
-0.058058 0.182990 -0.013291
-0.064405 0.187789 0.008865
-0.041055 0.180482 0.018921
-0.019170 0.192115 -0.038864
-0.015139 0.182273 -0.012249
-0.052244 0.179931 -0.130506
-0.084170 0.173625 0.009267
-0.030074 0.159640 -0.024775
-0.025048 0.177881 -0.064849
0.001090 0.184337 -0.097105
-0.067166 0.183766 -0.058199
-0.055306 0.199900 -0.033088
-0.077665 0.182143 -0.006023
-0.046043 0.177837 -0.040900
-0.071157 0.174598 -0.034423
0.014297 0.193228 -0.063334
-0.009796 0.187851 -0.136246
-0.089406 0.186506 -0.023674
-0.085864 0.185464 -0.067845
-0.094883 0.179165 -0.096114
-0.072400 0.156601 -0.075575
0.011196 0.185153 -0.002047
0.018294 0.066757 -0.003523
0.030100 0.152600 -0.018815
0.033987 0.095643 -0.007989
0.029970 0.065665 0.030447
0.029120 0.122112 -0.033705
0.030157 0.113529 0.047752
0.009359 0.120176 0.016594
0.050092 0.117442 -0.011944
0.034004 0.160755 0.031230
0.042262 0.125317 0.014897
0.040011 0.127777 0.021431
0.028703 0.148232 0.035939
0.039679 0.060141 0.039900
0.044717 0.143603 -0.000173
0.040053 0.094713 0.028694
0.039114 0.063694 -0.033454
0.024868 0.083301 0.039615
0.032587 0.038472 0.012088
0.039174 0.081242 0.004591
0.034998 0.088754 -0.016148
0.022549 0.130891 -0.002416
0.033346 0.182492 0.009236
0.019068 0.104138 0.025486
0.033093 0.115954 0.002631
0.024951 0.099886 0.006215
0.036545 0.162758 -0.000056
0.047979 0.102722 -0.039498
0.028324 0.145111 0.010940
0.008615 0.139303 -0.010133
0.014020 0.089575 -0.023408
0.025878 0.030290 -0.012665
0.030437 0.103554 0.026208
-0.112632 0.167528 -0.085295
-0.069517 0.190293 -0.142378
-0.049169 0.166045 -0.137285
-0.064810 0.163087 -0.022545
-0.087884 0.173726 -0.172386
-0.033368 0.170404 -0.003599
-0.113754 0.168066 -0.043289
-0.055601 0.179686 -0.112048
-0.046247 0.192660 -0.027079
-0.010801 0.168459 -0.072558
-0.069275 0.171261 -0.043693
-0.077164 0.179662 -0.010660
-0.057374 0.168767 0.003203
-0.035537 0.182797 -0.073745
-0.030237 0.169395 -0.036558
-0.062718 0.171345 -0.175838
-0.096557 0.163911 -0.003544
-0.045378 0.156052 -0.055819
-0.035527 0.165948 -0.103365
-0.013406 0.171647 -0.144305
-0.080781 0.171966 -0.094197
-0.070079 0.201636 -0.070116
-0.090401 0.168918 -0.028206
-0.059914 0.164761 -0.076154
-0.084163 0.163317 -0.062772
-0.008226 0.189442 -0.104949
-0.022614 0.174930 -0.186605
-0.100898 0.178814 -0.052151
-0.100985 0.175910 -0.107092
-0.108485 0.168567 -0.138874
-0.085094 0.153136 -0.118950
-0.008488 0.173563 -0.032153
0.054689 0.081270 0.032298
0.058846 0.174170 0.000289
0.058761 0.106485 0.017337
0.055261 0.083303 0.065365
0.063334 0.144432 -0.017998
0.053085 0.131950 0.079885
0.052534 0.135200 0.048216
0.072681 0.134580 0.010460
0.054933 0.180177 0.065943
0.064894 0.144075 0.048590
0.064366 0.149116 0.058407
0.057521 0.167917 0.067540
0.061079 0.072856 0.072503
0.067344 0.162303 0.024558
0.062899 0.108863 0.069764
0.060546 0.077519 -0.016141
0.053632 0.094463 0.075760
0.055119 0.056585 0.048332
0.064509 0.095769 0.035356
0.056491 0.108892 0.005890
0.056375 0.146555 0.031447
0.061831 0.198563 0.045203
0.049823 0.120654 0.061984
0.060137 0.129173 0.035070
0.055045 0.112420 0.043779
0.058190 0.185760 0.028949
0.067615 0.115124 -0.028325
0.060824 0.166898 0.040321
0.053127 0.147906 0.021790
0.058829 0.100333 -0.007753
0.053090 0.052890 0.015089
0.054425 0.117579 0.058626
0.055773 0.089093 0.035242
0.058770 0.174818 0.003381
0.058872 0.111391 0.020797
0.056286 0.090272 0.068294
0.063211 0.147273 -0.015512
0.052788 0.135363 0.081779
0.054017 0.138006 0.050359
0.072386 0.137601 0.014461
0.054821 0.179817 0.068181
0.063757 0.145984 0.051487
0.064939 0.150650 0.060888
0.058664 0.168337 0.069404
0.060825 0.079964 0.074561
0.067161 0.163739 0.027833
0.062608 0.114718 0.071926
0.060774 0.085133 -0.012466
0.055164 0.100999 0.077874
0.054471 0.064580 0.051075
0.064449 0.102848 0.038887
0.055145 0.114432 0.008968
0.056758 0.148986 0.034428
0.062408 0.198453 0.048031
0.050186 0.124246 0.064390
0.059856 0.133251 0.038011
0.055794 0.118698 0.046678
0.057569 0.185497 0.031484
0.067569 0.120250 -0.025551
0.061592 0.167885 0.043152
0.054083 0.150147 0.023917
0.059601 0.106739 -0.005018
0.053814 0.061330 0.019364
0.053382 0.121517 0.061338
-0.114178 0.155959 -0.090559
-0.087269 0.155356 -0.116788
-0.069858 0.155856 -0.115096
-0.079081 0.155358 -0.058966
-0.098297 0.154843 -0.132004
-0.066232 0.154710 -0.054677
-0.111409 0.153225 -0.068050
-0.081278 0.156108 -0.104152
-0.075769 0.155171 -0.067674
-0.050660 0.155458 -0.083182
-0.089384 0.152870 -0.070121
-0.089885 0.154167 -0.056386
-0.077446 0.155184 -0.044667
-0.064279 0.155637 -0.088859
-0.061518 0.156466 -0.071695
-0.079928 0.156253 -0.132418
-0.101291 0.153062 -0.053331
-0.070059 0.154289 -0.079837
-0.069275 0.155371 -0.099007
-0.057654 0.154616 -0.117779
-0.087375 0.154357 -0.093524
-0.084354 0.155675 -0.079288
-0.095510 0.153999 -0.070959
-0.076969 0.154507 -0.086302
-0.093533 0.154723 -0.085181
-0.048553 0.154651 -0.099478
-0.063347 0.157222 -0.137205
-0.105444 0.154065 -0.078529
-0.099333 0.154111 -0.100115
-0.111223 0.154181 -0.114284
-0.091736 0.153665 -0.105979
-0.050242 0.156246 -0.060622
0.003443 0.060976 -0.006482
0.018627 0.177996 -0.033372
0.022549 0.108059 -0.022781
0.017657 0.063375 0.026830
0.020263 0.143974 -0.054297
0.027309 0.124971 0.042268
-0.006923 0.137151 0.015646
0.041414 0.137493 -0.027177
0.025287 0.189786 0.028955
0.040844 0.144904 0.008931
0.028576 0.147106 0.019864
0.014509 0.173874 0.033288
0.033674 0.055069 0.033589
0.034079 0.167484 -0.006717
0.031886 0.098431 0.026033
0.028461 0.061324 -0.053121
0.011361 0.082448 0.035309
0.029656 0.024567 0.010318
0.033616 0.081277 -0.004606
0.032941 0.096721 -0.029694
0.010361 0.148960 -0.006085
0.019420 0.211188 0.005448
0.007447 0.118212 0.025084
0.027161 0.127968 -0.001324
0.013603 0.102278 0.003233
0.028634 0.189916 -0.006983
0.038867 0.114243 -0.063145
0.012076 0.168634 0.010697
-0.003310 0.162002 -0.013183
0.004770 0.097087 -0.037219
0.019696 0.012811 -0.018832
0.030414 0.112396 0.021414
0.047089 0.083794 0.014891
0.054384 0.178264 -0.014122
0.051985 0.109866 0.002907
0.049405 0.084981 0.049809
0.057222 0.146449 -0.030211
0.048442 0.136241 0.067620
0.046029 0.138579 0.030955
0.069123 0.138497 -0.003376
0.051668 0.184724 0.050669
0.059659 0.148749 0.032280
0.060881 0.153208 0.041905
0.054170 0.171500 0.053540
0.056063 0.076596 0.059778
0.063237 0.166566 0.009085
0.058307 0.111838 0.054953
0.054643 0.080202 -0.029752
0.048542 0.097605 0.062399
0.048854 0.061688 0.032158
0.058403 0.099063 0.019950
0.050429 0.111712 -0.007614
0.050405 0.151123 0.015006
0.058675 0.204240 0.029123
0.045585 0.123967 0.045600
0.054989 0.133295 0.019253
0.048475 0.116438 0.026554
0.054079 0.190765 0.014207
0.062530 0.119421 -0.040224
0.056542 0.170666 0.023589
0.045694 0.152264 0.004469
0.049349 0.102150 -0.022174
0.045774 0.057034 -0.000386
0.047667 0.122729 0.042532
-0.110084 0.146323 -0.116265
-0.087446 0.151231 -0.139799
-0.074108 0.149531 -0.137008
-0.083035 0.145654 -0.092780
-0.096232 0.149615 -0.153239
-0.068781 0.148859 -0.086912
-0.108687 0.147170 -0.099884
-0.082191 0.151692 -0.127906
-0.078516 0.151371 -0.098715
-0.053819 0.148160 -0.112926
-0.089165 0.146313 -0.103010
-0.089614 0.148752 -0.089955
-0.079645 0.146507 -0.078958
-0.069336 0.150984 -0.115181
-0.065347 0.149381 -0.102900
-0.081772 0.147773 -0.152316
-0.099435 0.145623 -0.086575
-0.072391 0.141823 -0.106434
-0.071764 0.147059 -0.122929
-0.059241 0.147594 -0.138963
-0.088989 0.148109 -0.122186
-0.086752 0.153448 -0.112047
-0.094323 0.147562 -0.101605
-0.079470 0.147226 -0.113597
-0.092511 0.147285 -0.114029
-0.050949 0.149998 -0.124169
-0.066024 0.152060 -0.157060
-0.102330 0.148366 -0.108515
-0.097681 0.149476 -0.125379
-0.108198 0.147438 -0.137683
-0.090551 0.140768 -0.127588
-0.050766 0.149070 -0.092961
0.063762 0.096632 0.028045
0.060251 0.182455 -0.000229
0.061799 0.117823 0.013836
0.061698 0.097074 0.062494
0.067181 0.158360 -0.020340
0.057475 0.142873 0.079506
0.061108 0.146488 0.046114
0.071749 0.145382 0.008364
0.058412 0.186166 0.063825
0.066920 0.154437 0.046078
0.066467 0.155522 0.055727
0.064832 0.172903 0.067993
0.063557 0.085532 0.071072
0.066990 0.168599 0.021995
0.064334 0.120144 0.066789
0.062515 0.091585 -0.016125
0.064446 0.107650 0.076348
0.058227 0.068476 0.046999
0.067957 0.107182 0.031860
0.057088 0.123394 0.004036
0.060808 0.154645 0.029298
0.063290 0.201914 0.042077
0.057850 0.134124 0.061293
