-0.027481 -0.068777 0.052241
0.072112 -0.089066 0.029585
0.049190 -0.069570 0.020019
0.102312 -0.072886 0.019523
-0.010180 -0.038729 0.021839
0.022166 -0.009796 0.029918
-0.030472 -0.043315 0.040913
0.024883 -0.053134 0.029265
0.003700 -0.065270 0.028840
0.108823 -0.024196 0.027627
0.075998 -0.053928 -0.001821
-0.002696 -0.023711 0.034965
-0.035863 -0.020518 0.022581
-0.066899 -0.059327 0.015234
-0.004855 -0.097943 0.020560
0.114962 -0.058000 0.046133
0.031236 -0.003070 0.014170
0.042355 0.029704 0.004547
0.043224 0.012922 0.008458
0.039382 0.001317 0.016214
0.033639 0.018042 0.000993
0.050202 0.019904 0.025951
0.026297 0.020662 0.017056
0.048236 0.022887 0.008648
0.051628 0.037414 0.020245
0.061710 0.020570 0.012690
0.043328 0.022495 0.018245
0.035851 0.031620 0.023112
0.049378 0.001610 0.023785
0.050175 0.026786 0.013552
0.052950 0.011207 0.016565
0.045619 -0.002479 0.005630
0.035413 0.007508 0.022340
0.055434 -0.006789 0.016264
0.046507 0.005152 0.012959
0.062168 0.002699 0.008473
0.036640 0.022205 0.013009
0.040879 0.040987 0.012028
0.034714 0.016954 0.017466
0.043741 0.015513 0.014609
0.041107 0.008284 0.013240
0.063296 0.033077 0.012806
0.051679 0.013088 -0.001877
0.038316 0.028197 0.016906
0.031194 0.026630 0.011109
0.025953 0.007071 0.006623
0.041102 -0.014502 0.009745
0.068879 0.010733 0.021022
0.073214 -0.068775 -0.114740
0.115429 -0.052913 -0.120089
0.117908 -0.058516 -0.115073
0.114413 -0.066329 -0.102526
0.093978 -0.061106 -0.126553
0.125723 -0.049660 -0.109971
0.074497 -0.058016 -0.111431
0.135526 -0.051809 -0.107982
0.123238 -0.053974 -0.104007
0.133583 -0.051473 -0.099960
0.134728 -0.040523 -0.100523
0.099695 -0.042223 -0.109528
0.125858 -0.051881 -0.106868
0.131947 -0.036031 -0.104856
0.127886 -0.050865 -0.102381
0.123235 -0.052617 -0.127313
0.092449 -0.055025 -0.103753
0.116465 -0.067213 -0.115699
0.115528 -0.057105 -0.107112
0.131951 -0.055239 -0.100703
0.110128 -0.044211 -0.111301
0.123773 -0.033448 -0.098042
0.089957 -0.058616 -0.103461
0.113907 -0.052802 -0.112393
0.108861 -0.050455 -0.103850
0.136966 -0.037293 -0.109362
0.131949 -0.056336 -0.114299
0.111570 -0.051729 -0.110962
0.084254 -0.045042 -0.121612
0.074915 -0.063850 -0.125084
0.108334 -0.055259 -0.103237
0.135952 -0.046782 -0.101970
0.078858 -0.113238 -0.088527
0.152658 -0.086679 -0.075352
0.137462 -0.098100 -0.075552
0.137698 -0.129867 -0.080854
0.105742 -0.082860 -0.106612
0.159272 -0.048486 -0.063541
0.014992 -0.070101 -0.089469
0.186313 -0.092521 -0.076949
0.161035 -0.062732 -0.068397
0.140478 -0.043105 -0.073352
0.151582 -0.041339 -0.064786
0.117777 -0.057512 -0.089745
0.150190 -0.075811 -0.086664
0.141465 -0.043978 -0.082318
0.159210 -0.082565 -0.095348
0.156408 -0.108357 -0.085483
0.054986 -0.098424 -0.097654
0.126697 -0.102945 -0.126481
0.111272 -0.084380 -0.046430
0.172451 -0.095359 -0.059046
0.121649 -0.050130 -0.087118
0.159410 -0.022544 -0.041735
0.076474 -0.089774 -0.113434
0.122064 -0.059295 -0.075912
0.103442 -0.060738 -0.074403
0.153723 -0.025268 -0.076767
0.184198 -0.088302 -0.070679
0.146136 -0.058095 -0.105161
0.096020 -0.025488 -0.105117
-0.013757 -0.091249 -0.139623
0.097786 -0.103705 -0.072667
0.155660 -0.088987 -0.066720
0.051349 -0.054427 -0.114846
0.096174 -0.038249 -0.118099
0.100664 -0.044061 -0.114143
0.092922 -0.052292 -0.102373
0.072412 -0.048594 -0.124834
0.107800 -0.037033 -0.109344
0.049680 -0.043328 -0.111325
0.117715 -0.036971 -0.109126
0.105804 -0.037266 -0.104014
0.119212 -0.036316 -0.101886
0.114294 -0.027747 -0.101441
0.076595 -0.028586 -0.110399
0.106216 -0.038118 -0.108909
0.116298 -0.021838 -0.105186
0.112111 -0.036861 -0.103340
0.102892 -0.039666 -0.124875
0.068494 -0.043324 -0.104960
0.099388 -0.052512 -0.114778
0.095962 -0.043664 -0.107852
0.116349 -0.040641 -0.102018
0.086869 -0.031251 -0.112251
0.103216 -0.018292 -0.100623
0.066913 -0.044277 -0.104387
0.093548 -0.039624 -0.112120
0.088971 -0.038591 -0.104951
0.123916 -0.021855 -0.109065
0.114859 -0.041877 -0.113626
0.091399 -0.037086 -0.111352
0.060313 -0.030579 -0.120478
0.048486 -0.050027 -0.122164
0.083454 -0.044268 -0.104986
0.122470 -0.033066 -0.103563
0.167032 -0.040272 -0.073210
0.219433 -0.024652 -0.079112
0.219314 -0.032055 -0.074724
0.213860 -0.041383 -0.062960
0.194746 -0.034080 -0.082725
0.228724 -0.020269 -0.069178
0.167567 -0.031092 -0.069218
0.232880 -0.024077 -0.069203
0.225788 -0.025127 -0.066112
0.232083 -0.022291 -0.060159
0.234626 -0.012641 -0.060114
0.198855 -0.010782 -0.064180
0.224517 -0.026634 -0.064580
0.229470 -0.010719 -0.066066
0.226358 -0.027111 -0.064552
0.222425 -0.026922 -0.088245
0.188662 -0.030269 -0.060097
0.216943 -0.042269 -0.077842
0.216690 -0.031426 -0.069440
0.234272 -0.029616 -0.062971
0.212202 -0.016477 -0.069422
0.224757 -0.006188 -0.059625
0.189133 -0.028187 -0.060226
0.217700 -0.027642 -0.071189
0.208097 -0.025913 -0.062086
0.233496 -0.009908 -0.067392
0.231971 -0.029853 -0.073819
0.205619 -0.024859 -0.068313
0.181800 -0.016703 -0.079905
0.165700 -0.039270 -0.079766
0.210718 -0.027948 -0.061671
0.237604 -0.021904 -0.060860
0.132759 -0.058281 -0.094115
0.177781 -0.043768 -0.100193
0.179176 -0.050041 -0.095441
0.176491 -0.058272 -0.083528
0.156099 -0.051378 -0.105106
0.187390 -0.039126 -0.090175
0.133334 -0.049301 -0.090348
0.193797 -0.043214 -0.088340
0.184775 -0.045388 -0.085391
0.192223 -0.042368 -0.079586
0.195368 -0.031347 -0.080250
0.162132 -0.031976 -0.086936
0.186360 -0.043500 -0.085537
0.190005 -0.028695 -0.085114
0.186843 -0.043744 -0.082960
0.184114 -0.044040 -0.108425
0.153831 -0.046112 -0.082405
0.177335 -0.058947 -0.097091
0.177142 -0.048654 -0.088276
0.192560 -0.047358 -0.081280
0.173633 -0.034975 -0.090313
0.185598 -0.025725 -0.078054
0.152248 -0.048245 -0.082177
0.177073 -0.044596 -0.092021
0.169778 -0.042344 -0.083002
0.194276 -0.029177 -0.088954
0.191754 -0.048206 -0.094038
0.169729 -0.043453 -0.090287
0.144958 -0.035832 -0.100737
0.133073 -0.054931 -0.103250
0.172775 -0.044811 -0.082477
0.195332 -0.038846 -0.081151
0.151733 -0.041748 -0.087702
0.202426 -0.026943 -0.093221
0.203036 -0.033983 -0.088840
0.198137 -0.043185 -0.078172
0.178385 -0.035437 -0.097219
0.211731 -0.022386 -0.083940
0.151480 -0.032855 -0.083822
0.217124 -0.026171 -0.083025
0.209907 -0.027364 -0.079952
0.215701 -0.024643 -0.074200
0.218608 -0.014195 -0.074408
0.183666 -0.013701 -0.080034
0.208783 -0.028785 -0.080230
0.213098 -0.011994 -0.079800
0.210162 -0.028409 -0.078086
0.206588 -0.028859 -0.102034
0.173939 -0.031384 -0.076652
0.201226 -0.043860 -0.092073
0.200066 -0.032749 -0.083008
0.217244 -0.031428 -0.076095
0.195759 -0.018101 -0.083868
0.209116 -0.008491 -0.073116
0.173354 -0.030819 -0.075740
0.200633 -0.028498 -0.085517
0.192192 -0.026811 -0.076762
0.217826 -0.011049 -0.082036
0.215624 -0.032107 -0.087831
0.191022 -0.026711 -0.083745
0.165202 -0.018173 -0.093704
0.148969 -0.040160 -0.095008
0.194628 -0.030203 -0.076358
0.220494 -0.023307 -0.075199
0.063205 -0.105458 -0.084303
0.111722 -0.073074 -0.085586
0.093814 -0.093401 -0.084280
0.095842 -0.133137 -0.068170
0.084631 -0.074420 -0.113040
0.116766 -0.027135 -0.056852
-0.002330 -0.059580 -0.101173
0.128864 -0.090792 -0.094389
0.114619 -0.045347 -0.093489
0.099060 -0.020306 -0.094762
0.086701 -0.029398 -0.085346
0.068307 -0.016858 -0.083206
0.098510 -0.068515 -0.078843
0.096525 -0.047975 -0.102970
0.119567 -0.091810 -0.109643
0.113211 -0.138328 -0.086480
0.010160 -0.082478 -0.095291
0.071458 -0.117384 -0.141646
0.053006 -0.091926 -0.055878
0.151287 -0.107066 -0.088054
0.090572 -0.030066 -0.083994
0.118281 0.000894 -0.049452
0.054429 -0.082030 -0.111121
0.098180 -0.046533 -0.075830
0.051937 -0.070883 -0.062962
0.111432 -0.030065 -0.081499
0.128592 -0.095012 -0.088171
0.125547 -0.029005 -0.095978
0.085573 -0.001027 -0.117546
-0.020206 -0.076887 -0.143532
0.064700 -0.106830 -0.087620
0.121183 -0.109643 -0.075272
0.201589 -0.043438 -0.022420
0.242436 -0.023153 -0.024594
0.238334 -0.031561 -0.019266
0.236239 -0.040814 -0.006152
0.220640 -0.033081 -0.031765
0.244445 -0.021479 -0.014655
0.203774 -0.029163 -0.019527
0.255644 -0.023278 -0.017306
0.240823 -0.020261 -0.012943
0.246211 -0.021060 -0.006680
0.256321 -0.014319 -0.005742
0.220120 -0.010526 -0.017399
0.245662 -0.024905 -0.012395
0.246837 -0.006749 -0.012858
0.244494 -0.022668 -0.009504
0.244664 -0.029950 -0.034718
0.216928 -0.028245 -0.008023
0.234216 -0.044328 -0.023574
0.234515 -0.030641 -0.012426
0.243398 -0.027327 -0.008496
0.233496 -0.014913 -0.016041
0.244256 0.004613 -0.002899
0.211801 -0.030384 -0.009669
0.234909 -0.025149 -0.015518
0.232929 -0.023598 -0.009705
0.243076 -0.004103 -0.017010
0.247971 -0.029920 -0.021776
0.238889 -0.023757 -0.018236
0.212278 -0.015816 -0.030858
0.205961 -0.034594 -0.030864
0.230930 -0.033725 -0.007174
0.244524 -0.016660 -0.011813
0.120121 -0.052664 -0.111126
0.165346 -0.035979 -0.113575
0.166509 -0.044367 -0.110755
0.160988 -0.053625 -0.100954
0.143147 -0.046906 -0.118977
0.173317 -0.033815 -0.107045
0.116616 -0.042272 -0.107651
0.179280 -0.037073 -0.106101
0.171748 -0.035589 -0.103231
0.178946 -0.034721 -0.098165
0.180418 -0.026167 -0.098130
0.145429 -0.025916 -0.104481
0.171215 -0.038626 -0.103962
0.175914 -0.023024 -0.102438
0.173230 -0.038291 -0.100555
0.168464 -0.041426 -0.122617
0.138467 -0.043349 -0.101267
0.164133 -0.055053 -0.112749
0.161817 -0.044228 -0.106303
0.178094 -0.041478 -0.099519
0.157323 -0.029593 -0.107709
0.170876 -0.018154 -0.096876
0.136743 -0.041531 -0.100210
0.162264 -0.039225 -0.108086
0.156688 -0.039382 -0.100733
0.179895 -0.021167 -0.105732
0.176037 -0.043387 -0.108955
0.157164 -0.037247 -0.107806
0.128774 -0.028470 -0.115970
0.115361 -0.049129 -0.115880
0.155257 -0.043872 -0.101034
0.181090 -0.033375 -0.100076
0.134584 -0.052148 -0.108537
0.179891 -0.036390 -0.112431
0.180801 -0.044983 -0.109334
0.176350 -0.053935 -0.099104
0.158431 -0.046116 -0.117070
0.187760 -0.033568 -0.104535
0.132772 -0.042514 -0.104784
0.192981 -0.037516 -0.103614
0.186333 -0.036830 -0.101288
0.192050 -0.035592 -0.095819
0.194755 -0.025993 -0.095697
0.162208 -0.024972 -0.100976
0.185939 -0.039373 -0.101119
0.189314 -0.024034 -0.100569
0.186886 -0.039762 -0.098646
0.183656 -0.041145 -0.122056
0.154499 -0.042177 -0.098362
0.179278 -0.055437 -0.111507
0.177382 -0.044705 -0.104380
0.193766 -0.042864 -0.097747
0.173571 -0.029711 -0.104914
0.185086 -0.019042 -0.094308
0.153366 -0.041625 -0.097336
0.178305 -0.039322 -0.106225
0.170900 -0.039074 -0.098170
0.193869 -0.022428 -0.103051
0.191651 -0.043827 -0.108459
0.170050 -0.037005 -0.104714
0.144711 -0.028921 -0.113826
0.131755 -0.049581 -0.114598
0.172907 -0.042884 -0.098651
0.195877 -0.034719 -0.097008
0.175558 -0.026121 -0.061955
0.246764 -0.009030 -0.066812
0.247341 -0.014885 -0.059741
0.235832 -0.026856 -0.052436
0.210203 -0.018392 -0.071213
0.259421 -0.002311 -0.056554
0.171961 -0.014531 -0.057544
0.266650 -0.004507 -0.057460
0.258568 -0.004072 -0.052738
0.263350 -0.000883 -0.048080
0.265864 0.008376 -0.047539
0.216206 0.007655 -0.055114
0.251693 -0.014078 -0.056480
0.259922 0.013034 -0.055083
0.257119 -0.007568 -0.053355
0.249451 -0.011819 -0.075497
0.202177 -0.017354 -0.051528
0.245741 -0.026497 -0.068743
0.240729 -0.011048 -0.055230
0.263590 -0.011369 -0.047981
0.231053 0.004988 -0.056545
0.254081 0.015896 -0.046971
0.201656 -0.011152 -0.049051
0.239634 -0.007799 -0.057087
0.231744 -0.006308 -0.049100
0.264541 0.016627 -0.055844
0.263531 -0.012474 -0.062450
0.232678 -0.007161 -0.058438
0.194423 0.004808 -0.067117
0.160581 -0.026749 -0.068245
0.226559 -0.015879 -0.048875
0.270982 -0.002246 -0.049260
0.210246 -0.036591 -0.023270
0.252868 -0.018404 -0.026884
0.248357 -0.025706 -0.021827
0.245884 -0.035185 -0.008867
0.230560 -0.027916 -0.032426
0.256043 -0.015928 -0.016285
0.213246 -0.023238 -0.020340
0.266111 -0.017885 -0.018685
0.252378 -0.015473 -0.014250
0.258125 -0.016344 -0.009230
0.266586 -0.007967 -0.008032
0.231060 -0.004764 -0.017240
0.255459 -0.019515 -0.013656
0.258434 -0.002024 -0.015379
0.254898 -0.018256 -0.012824
0.254932 -0.023251 -0.036194
0.226721 -0.022381 -0.008360
0.245892 -0.037870 -0.026306
0.245654 -0.025551 -0.015128
0.256629 -0.021960 -0.011300
0.243504 -0.010104 -0.017636
0.253816 0.008205 -0.005561
0.222814 -0.024546 -0.010494
0.246347 -0.020085 -0.017695
0.241825 -0.017501 -0.011485
0.256734 0.000496 -0.017972
0.260371 -0.023962 -0.024195
0.246122 -0.017830 -0.018635
0.222693 -0.010275 -0.031419
0.215502 -0.029884 -0.031898
0.241835 -0.027428 -0.009470
0.258961 -0.012160 -0.012562
0.123094 -0.050865 -0.117048
0.170579 -0.030584 -0.118850
0.172007 -0.041979 -0.116937
0.165244 -0.052604 -0.106071
0.147983 -0.044711 -0.123557
0.177950 -0.030366 -0.112592
0.116968 -0.038787 -0.113592
0.182738 -0.033917 -0.114408
0.175967 -0.029126 -0.110143
0.183141 -0.029801 -0.105189
0.184049 -0.023099 -0.104438
0.147292 -0.020878 -0.109178
0.174632 -0.036604 -0.109190
0.179873 -0.020230 -0.109488
0.177385 -0.036532 -0.107024
0.171757 -0.040966 -0.128940
0.140513 -0.042902 -0.105738
0.167845 -0.055387 -0.118169
0.165799 -0.043203 -0.113388
0.182221 -0.038767 -0.107562
0.160600 -0.025599 -0.114368
0.174250 -0.011129 -0.103567
0.139368 -0.037438 -0.105394
0.167113 -0.036822 -0.113441
0.161241 -0.039414 -0.107101
0.181544 -0.015646 -0.112369
0.179175 -0.040816 -0.114088
0.160897 -0.033313 -0.114325
0.130419 -0.023877 -0.122203
0.115722 -0.047355 -0.119208
0.158036 -0.043743 -0.107657
0.183847 -0.030701 -0.107485
-0.000067 -0.091350 -0.077840
0.055876 -0.052913 -0.081271
0.069586 -0.077586 -0.075489
0.046359 -0.111883 -0.063123
0.025070 -0.070779 -0.103898
0.086879 -0.030865 -0.058633
-0.056229 -0.047217 -0.088961
0.104414 -0.063895 -0.090424
0.083263 -0.033045 -0.088200
0.107518 -0.022515 -0.087466
0.060013 -0.024064 -0.076408
0.007321 -0.017627 -0.076293
0.065421 -0.060026 -0.075517
0.093784 -0.035496 -0.095868
0.110028 -0.071532 -0.098784
0.069516 -0.119401 -0.083201
-0.032054 -0.078079 -0.084612
0.055842 -0.099598 -0.118645
0.017358 -0.077669 -0.062218
0.132990 -0.091372 -0.085885
0.033937 -0.029611 -0.079910
0.075568 0.003504 -0.061177
-0.008547 -0.073358 -0.097890
0.054027 -0.042666 -0.072424
0.018621 -0.067703 -0.061847
0.125693 -0.014175 -0.084119
0.097908 -0.082828 -0.082669
0.073466 -0.026426 -0.089321
0.010674 -0.007580 -0.099181
-0.072494 -0.077055 -0.113614
0.009082 -0.096254 -0.086655
0.133404 -0.089529 -0.079271
0.155750 -0.033261 -0.086469
0.214027 -0.015440 -0.085139
0.211043 -0.023637 -0.082509
0.203643 -0.035382 -0.073963
0.183519 -0.027975 -0.089916
0.221859 -0.011997 -0.079244
0.149978 -0.020530 -0.081984
0.228243 -0.014191 -0.082038
0.219766 -0.008888 -0.078447
0.224750 -0.008898 -0.072780
0.229844 -0.003279 -0.071736
0.182643 -0.001703 -0.080154
0.215131 -0.019832 -0.079671
0.221465 0.002297 -0.078763
0.218613 -0.016622 -0.076260
0.212409 -0.021952 -0.095391
0.175965 -0.026805 -0.075089
0.207763 -0.035317 -0.089228
0.204613 -0.022363 -0.080307
0.221574 -0.019045 -0.071558
0.197618 -0.005088 -0.080146
0.215959 0.010682 -0.069828
0.172041 -0.019218 -0.074198
0.205169 -0.017695 -0.079559
0.201473 -0.018336 -0.074153
0.221204 0.008693 -0.079669
0.220758 -0.021824 -0.080387
0.204245 -0.016098 -0.084630
0.167249 -0.003436 -0.090191
0.143698 -0.031436 -0.087902
0.194657 -0.027652 -0.072424
0.227748 -0.009933 -0.075660
0.172065 -0.039972 -0.085076
0.222978 -0.026278 -0.091036
0.222556 -0.031602 -0.085599
0.216658 -0.040443 -0.075740
0.197424 -0.034378 -0.095231
0.231907 -0.020897 -0.081606
0.171267 -0.031153 -0.081660
0.237114 -0.023850 -0.081546
0.230102 -0.024892 -0.077709
0.235355 -0.022511 -0.072137
0.238914 -0.012968 -0.072601
0.202713 -0.013237 -0.078708
0.227884 -0.027058 -0.078849
0.232584 -0.009431 -0.078296
0.229543 -0.025381 -0.076326
0.226272 -0.026624 -0.098747
0.193238 -0.029922 -0.074707
0.220136 -0.040345 -0.090145
0.219109 -0.029444 -0.080101
0.234694 -0.027821 -0.073754
0.215110 -0.016421 -0.081148
0.229716 -0.006844 -0.071209
0.192707 -0.029412 -0.073787
0.219298 -0.026404 -0.082564
0.212267 -0.024130 -0.074396
0.236798 -0.008118 -0.080709
0.234578 -0.029762 -0.086192
0.212267 -0.026050 -0.081839
0.185922 -0.016739 -0.091446
0.168105 -0.038217 -0.092460
0.213003 -0.029242 -0.073329
0.239216 -0.019873 -0.073581
0.124729 -0.048600 -0.103460
0.186425 -0.030579 -0.104677
0.184590 -0.036519 -0.098242
0.179084 -0.048024 -0.091014
0.152888 -0.041092 -0.110686
0.195301 -0.023998 -0.096832
0.119023 -0.035314 -0.099158
0.209215 -0.026306 -0.095537
0.194092 -0.025165 -0.091877
0.201392 -0.022672 -0.085088
0.209397 -0.013062 -0.085450
0.156447 -0.017969 -0.101056
0.193597 -0.030788 -0.098401
0.198164 -0.004312 -0.091775
0.195527 -0.024073 -0.089044
0.190625 -0.032200 -0.110829
0.149652 -0.038213 -0.093717
0.180736 -0.046663 -0.106033
0.178571 -0.030670 -0.090991
0.192780 -0.030440 -0.079501
0.170765 -0.015650 -0.096605
0.195057 0.000084 -0.080270
0.142469 -0.035333 -0.093921
0.175639 -0.026916 -0.094543
0.176281 -0.024173 -0.089526
0.197109 0.001317 -0.096632
0.197183 -0.033664 -0.092944
0.183949 -0.029506 -0.104205
0.138180 -0.014216 -0.107305
0.112396 -0.043946 -0.110364
0.166782 -0.037499 -0.084193
0.200877 -0.015932 -0.090311
0.142987 -0.050709 -0.106202
0.185764 -0.035504 -0.109424
0.185491 -0.042903 -0.106035
0.180864 -0.051661 -0.096647
0.164544 -0.044893 -0.115283
0.192610 -0.032250 -0.102113
0.140545 -0.040880 -0.102934
0.198326 -0.035675 -0.101469
0.191544 -0.034616 -0.098693
0.196837 -0.033735 -0.093357
0.200186 -0.024960 -0.093437
0.167441 -0.024981 -0.099679
0.190374 -0.037445 -0.099465
0.193975 -0.021663 -0.098356
0.191654 -0.036653 -0.096002
0.188658 -0.039934 -0.118245
0.160943 -0.040870 -0.097125
0.183541 -0.052855 -0.108743
0.181639 -0.042184 -0.101123
0.196177 -0.039526 -0.095004
0.178902 -0.028556 -0.102459
0.191640 -0.017432 -0.091958
0.159389 -0.040564 -0.096062
0.182209 -0.037377 -0.103133
0.176926 -0.036807 -0.095945
0.198236 -0.019757 -0.101409
0.194975 -0.041977 -0.105970
0.178082 -0.036373 -0.102865
0.151948 -0.027632 -0.111351
0.139759 -0.047186 -0.112346
0.177040 -0.042558 -0.095749
0.199128 -0.031501 -0.095299
0.171842 -0.069646 -0.033986
0.268964 -0.037609 -0.037581
0.263476 -0.045969 -0.024510
0.256604 -0.067583 -0.011219
0.209662 -0.050597 -0.047253
0.283692 -0.025059 -0.019012
0.157568 -0.043237 -0.028248
0.312039 -0.029998 -0.024811
0.279522 -0.021295 -0.014374
0.286743 -0.017479 -0.011311
0.305790 -0.006737 -0.006411
0.216106 -0.013980 -0.030279
0.279088 -0.043694 -0.023617
0.286434 0.011510 -0.022609
0.282359 -0.026407 -0.018375
0.277190 -0.047590 -0.039654
0.198648 -0.051487 -0.018018
0.259777 -0.066246 -0.040666
0.255777 -0.034199 -0.007074
0.278231 -0.037285 0.003316
0.232110 -0.007437 -0.027534
0.279811 0.023923 0.002934
0.191553 -0.045122 -0.023362
0.246715 -0.027496 -0.017299
0.247857 -0.023647 -0.014171
0.276738 0.023763 -0.026851
0.295346 -0.033922 -0.020535
0.266477 -0.030238 -0.040455
0.195058 -0.006384 -0.044076
0.141938 -0.064502 -0.052228
0.224403 -0.054902 -0.001566
0.289187 -0.013177 -0.019294
0.050765 -0.093382 -0.081815
0.109819 -0.060551 -0.080955
0.105181 -0.080484 -0.078555
0.092481 -0.118496 -0.064163
0.076197 -0.070582 -0.105293
0.123040 -0.024251 -0.057551
-0.009091 -0.048301 -0.096363
0.137985 -0.075002 -0.091778
0.123744 -0.034397 -0.090795
0.124460 -0.017278 -0.092457
0.095812 -0.024213 -0.083515
0.056596 -0.012425 -0.081461
0.106134 -0.061247 -0.076423
0.117365 -0.037130 -0.097508
0.135060 -0.078164 -0.103788
0.115993 -0.125873 -0.080811
0.011420 -0.075644 -0.090589
0.087869 -0.104153 -0.128024
0.059485 -0.081207 -0.059868
0.165460 -0.095260 -0.087282
0.081956 -0.027195 -0.078589
0.119767 0.004017 -0.058596
0.044004 -0.070476 -0.102673
0.098075 -0.042817 -0.072559
0.058220 -0.067934 -0.060080
0.138130 -0.022275 -0.082473
0.136074 -0.084868 -0.087290
0.125279 -0.023829 -0.089445
0.068297 -0.000730 -0.108698
-0.029600 -0.070085 -0.124363
0.058123 -0.099786 -0.087911
0.147714 -0.095539 -0.075813
0.171716 -0.010468 -0.069875
0.237142 0.006657 -0.076008
0.236433 0.000106 -0.068104
0.223712 -0.011265 -0.061552
0.203796 -0.002762 -0.080776
0.246935 0.012000 -0.063621
0.168236 0.002274 -0.065673
0.253879 0.010625 -0.066931
0.248482 0.012718 -0.061465
0.250515 0.013955 -0.058364
0.253423 0.022914 -0.057612
0.207917 0.023104 -0.063926
0.239409 -0.001003 -0.065959
0.247657 0.028296 -0.065447
0.244753 0.006591 -0.062574
0.238432 0.001146 -0.083387
0.195692 -0.001142 -0.061754
0.235766 -0.011759 -0.077709
0.229516 0.003927 -0.063944
0.251715 0.003108 -0.059724
0.221255 0.019284 -0.065233
0.242372 0.030725 -0.057403
0.195967 0.003686 -0.058955
0.228732 0.008253 -0.065340
0.221524 0.008928 -0.058943
0.253665 0.031993 -0.065231
0.252430 0.001638 -0.076066
0.224013 0.009508 -0.066591
0.188072 0.020288 -0.075149
0.158092 -0.010851 -0.076831
0.216825 -0.004113 -0.059331
0.258639 0.011259 -0.058735
0.134644 0.022622 -0.063534
0.235109 0.048792 -0.072684
0.251968 0.035658 -0.063809
0.223175 0.020658 -0.054459
0.191265 0.033503 -0.077136
0.262291 0.051183 -0.053112
0.127089 0.039385 -0.057674
0.264784 0.049146 -0.059186
0.257448 0.047642 -0.052080
0.275810 0.053132 -0.052063
0.255049 0.065147 -0.049423
0.197425 0.069478 -0.050361
0.248149 0.030397 -0.051047
0.270023 0.067979 -0.058058
0.267662 0.040500 -0.054978
0.245594 0.034444 -0.083605
0.168925 0.032798 -0.049581
0.253301 0.016449 -0.072669
0.236999 0.038500 -0.058454
0.287775 0.029864 -0.057572
0.213023 0.060462 -0.058901
0.246148 0.069787 -0.053854
0.173570 0.044038 -0.047288
0.233324 0.044487 -0.058738
0.212881 0.040674 -0.049145
0.288044 0.067408 -0.053159
0.277067 0.033599 -0.074363
0.212063 0.055666 -0.053850
0.159197 0.059074 -0.067189
0.106336 0.018368 -0.069210
0.204084 0.035253 -0.058688
0.296724 0.039649 -0.047410
0.144837 -0.041530 -0.106884
0.188622 -0.025010 -0.109118
0.188671 -0.033545 -0.106182
0.182699 -0.042670 -0.097712
0.166970 -0.035583 -0.114646
0.195055 -0.022873 -0.102395
0.140391 -0.030656 -0.103395
0.200625 -0.026011 -0.102903
0.194452 -0.023018 -0.099895
0.199783 -0.023355 -0.094621
0.202291 -0.015691 -0.094326
0.168536 -0.015147 -0.100771
0.192612 -0.028425 -0.100881
0.196674 -0.012361 -0.099086
0.194619 -0.027376 -0.096940
0.190321 -0.031662 -0.118320
0.162342 -0.032634 -0.098520
0.186502 -0.044026 -0.109142
0.183365 -0.033150 -0.102248
0.198286 -0.030028 -0.096312
0.180092 -0.018897 -0.103276
0.193401 -0.006277 -0.092968
0.160382 -0.030617 -0.097265
0.184258 -0.027820 -0.103284
0.179790 -0.028221 -0.097163
0.200209 -0.008683 -0.102201
0.196928 -0.032983 -0.106001
0.180728 -0.026291 -0.104088
0.152551 -0.017158 -0.111252
0.139162 -0.037550 -0.111190
0.177779 -0.034815 -0.097476
0.201223 -0.021944 -0.096896
-0.077221 -0.053109 -0.116903
0.003597 -0.017215 -0.113032
0.036335 -0.037577 -0.111605
0.004883 -0.055538 -0.101258
-0.019387 -0.043116 -0.119098
0.054471 -0.027252 -0.103046
-0.088514 -0.021666 -0.114181
0.081726 -0.028816 -0.111653
0.050249 -0.003385 -0.110190
0.105645 -0.016340 -0.112705
0.049413 -0.010633 -0.108901
-0.041416 0.008318 -0.109177
0.042461 -0.039480 -0.100484
0.083078 0.000533 -0.110825
0.086949 -0.037036 -0.112153
0.034135 -0.052340 -0.114867
-0.049559 -0.045749 -0.099327
0.056358 -0.055781 -0.117956
0.018190 -0.048071 -0.110478
0.113570 -0.051791 -0.107830
-0.029278 -0.014171 -0.111715
0.018203 0.030010 -0.109857
-0.064068 -0.029807 -0.108691
0.008422 -0.031873 -0.111628
-0.005292 -0.042918 -0.105884
0.116071 0.008404 -0.108218
0.068981 -0.041768 -0.109815
0.019167 -0.003807 -0.110421
-0.064158 -0.002406 -0.122261
-0.091706 -0.051336 -0.114771
-0.026425 -0.052068 -0.110095
0.131970 -0.038032 -0.109165
0.147114 -0.040164 -0.105756
0.189080 -0.024973 -0.109033
0.188777 -0.032225 -0.105378
0.183675 -0.040966 -0.096645
0.168333 -0.034285 -0.114876
0.195776 -0.021943 -0.101360
0.144931 -0.030063 -0.102500
0.201735 -0.025149 -0.101224
0.195049 -0.023450 -0.098399
0.200147 -0.023121 -0.093419
0.203309 -0.014530 -0.093425
0.171126 -0.014404 -0.099563
0.193512 -0.027375 -0.099622
0.197328 -0.011111 -0.098413
0.195073 -0.026153 -0.095975
0.191826 -0.029887 -0.117495
0.164789 -0.030215 -0.097288
0.187304 -0.042207 -0.108579
0.184794 -0.031496 -0.100799
0.199336 -0.029032 -0.094956
0.182179 -0.018322 -0.102053
0.194689 -0.006625 -0.091948
0.163183 -0.030152 -0.096376
0.185414 -0.026499 -0.102677
0.180299 -0.025929 -0.095967
0.201827 -0.008831 -0.101155
0.198232 -0.031549 -0.106168
0.181884 -0.025532 -0.102544
0.155986 -0.016947 -0.110857
0.144105 -0.036533 -0.111847
0.180311 -0.032813 -0.095776
0.202467 -0.020986 -0.095392
0.163434 -0.031704 -0.092126
0.211277 -0.008149 -0.093666
0.208604 -0.021091 -0.091187
0.200590 -0.033444 -0.079704
0.189619 -0.024077 -0.097497
0.216384 -0.010583 -0.084412
0.161038 -0.016700 -0.089091
0.222260 -0.012010 -0.090487
0.214477 -0.003098 -0.085940
0.220388 -0.006678 -0.082219
0.222513 -0.001630 -0.080481
0.184067 0.004983 -0.083170
0.210967 -0.018670 -0.083549
0.217746 0.003048 -0.087848
0.214770 -0.016682 -0.083656
0.210275 -0.023408 -0.102677
0.179282 -0.023298 -0.078897
0.206452 -0.036960 -0.093939
0.203619 -0.024428 -0.088773
0.220809 -0.019223 -0.085208
0.197211 -0.004066 -0.089028
0.210551 0.015813 -0.081016
0.177999 -0.016478 -0.080322
0.205201 -0.015637 -0.087615
0.199002 -0.019086 -0.082829
0.218478 0.009612 -0.087065
0.218060 -0.019884 -0.093302
0.200883 -0.008555 -0.088758
0.172864 -0.001374 -0.097947
0.161617 -0.029033 -0.093879
0.195561 -0.028637 -0.082459
0.223537 -0.012026 -0.083664
0.143158 -0.046710 -0.082110
0.241474 -0.018834 -0.080014
0.241997 -0.028438 -0.073129
0.224908 -0.048617 -0.061937
0.184512 -0.037458 -0.087262
0.259653 -0.011105 -0.068416
0.126425 -0.025500 -0.074495
0.277294 -0.012417 -0.074743
0.258148 -0.004945 -0.064756
0.266103 -0.001929 -0.063200
0.271776 0.005161 -0.059453
0.186356 0.000224 -0.075316
0.248592 -0.026929 -0.072575
0.263295 0.017715 -0.071055
0.257640 -0.013961 -0.067243
0.243885 -0.031691 -0.087133
0.169716 -0.040698 -0.068652
0.239266 -0.045349 -0.085837
0.227528 -0.022966 -0.065809
0.260662 -0.021260 -0.055268
0.204066 0.002292 -0.074024
0.249783 0.025305 -0.056315
0.163191 -0.023027 -0.067539
0.222979 -0.017119 -0.068183
0.219979 -0.019179 -0.063144
0.260450 0.026707 -0.073533
0.264084 -0.021742 -0.071402
0.232006 -0.015529 -0.083053
0.162234 0.004030 -0.086290
0.107702 -0.046271 -0.087521
0.195210 -0.039619 -0.060003
0.272651 -0.005706 -0.067769
0.220111 -0.103734 -0.026858
0.323624 -0.063591 -0.026243
0.308867 -0.075767 -0.015624
0.310239 -0.106243 -0.013460
0.264634 -0.064736 -0.049841
0.329119 -0.032227 -0.004723
0.185237 -0.062084 -0.024184
0.362576 -0.065261 -0.015022
0.323813 -0.045123 -0.006157
0.319402 -0.027945 -0.000871
0.342875 -0.022468 0.008367
0.281105 -0.029469 -0.023238
0.328525 -0.060331 -0.019121
0.318616 -0.009150 -0.015092
0.330142 -0.052653 -0.017265
0.331561 -0.077554 -0.034969
0.229125 -0.073226 -0.020496
0.293875 -0.092985 -0.053610
0.297201 -0.057349 0.017244
0.326497 -0.065677 0.015259
0.290143 -0.021533 -0.023643
0.334975 0.011467 0.026221
0.239737 -0.071023 -0.034500
0.295349 -0.040329 -0.012115
0.284376 -0.032498 -0.009333
0.312355 0.009405 -0.017696
0.352338 -0.059650 -0.004306
0.312778 -0.044416 -0.042667
0.249372 -0.013320 -0.045448
0.166842 -0.082904 -0.068230
0.270391 -0.074798 0.008219
0.321583 -0.041051 -0.007206
0.136986 -0.033739 -0.103673
0.213975 -0.010436 -0.099230
0.213937 -0.021393 -0.096044
0.203164 -0.036553 -0.086369
0.172866 -0.027526 -0.104542
0.227750 -0.007069 -0.092503
0.125156 -0.016830 -0.096738
0.238017 -0.009205 -0.097543
0.224607 -0.001180 -0.091733
0.233237 -0.000392 -0.086792
0.237354 0.004747 -0.084272
0.170216 0.004876 -0.095814
0.218601 -0.018178 -0.093954
0.229330 0.012530 -0.093377
0.225519 -0.011897 -0.090024
0.213911 -0.022007 -0.109906
0.161653 -0.029755 -0.088664
0.210402 -0.035997 -0.104576
0.203459 -0.019472 -0.094153
0.227824 -0.016243 -0.082197
0.188127 0.003448 -0.095357
0.217502 0.023350 -0.081552
0.153610 -0.014585 -0.088237
0.201918 -0.013276 -0.092706
0.199452 -0.015766 -0.087527
0.225788 0.021462 -0.094652
0.226468 -0.018423 -0.091461
0.205503 -0.010808 -0.102853
0.149894 0.005954 -0.105921
0.113259 -0.032805 -0.102854
0.183844 -0.027801 -0.085283
0.236358 -0.003844 -0.091125
0.160515 -0.024902 -0.099421
0.209031 -0.008198 -0.104356
0.208536 -0.017415 -0.099626
0.200457 -0.026826 -0.091050
0.186942 -0.018424 -0.108601
0.216086 -0.006508 -0.092905
0.159158 -0.013060 -0.095521
0.220955 -0.008723 -0.096533
0.216706 -0.005368 -0.092636
0.220151 -0.006165 -0.089338
0.221594 0.002030 -0.088761
0.188580 0.004993 -0.091401
0.211726 -0.015954 -0.093295
0.217400 0.005163 -0.094800
0.214741 -0.012915 -0.091745
0.210829 -0.016369 -0.112283
0.180076 -0.016031 -0.090571
0.208761 -0.029201 -0.104440
0.204232 -0.017279 -0.096376
0.222793 -0.016217 -0.092527
0.198853 -0.002006 -0.095992
0.211926 0.010479 -0.088912
0.180186 -0.013384 -0.089564
0.205332 -0.010867 -0.096763
0.197035 -0.011495 -0.090681
0.223738 0.008392 -0.094620
0.221217 -0.016720 -0.105134
0.197565 -0.006453 -0.095173
0.171933 0.000440 -0.104664
0.156657 -0.023633 -0.105168
0.197543 -0.020853 -0.091891
0.226500 -0.009316 -0.089267
0.157027 -0.039923 -0.100310
0.205801 -0.023538 -0.102981
0.205041 -0.030898 -0.098740
0.197618 -0.041447 -0.091894
0.181434 -0.033609 -0.108173
0.212987 -0.020492 -0.094645
0.152905 -0.028377 -0.096704
0.220388 -0.022720 -0.096123
0.213892 -0.019272 -0.092446
0.218120 -0.019835 -0.088385
0.220849 -0.011455 -0.087900
0.183614 -0.011385 -0.094641
0.209339 -0.028533 -0.095715
0.215055 -0.007344 -0.093566
0.212553 -0.024832 -0.090899
0.207807 -0.030235 -0.110725
0.176166 -0.031191 -0.093065
0.204274 -0.042165 -0.104359
0.199921 -0.029774 -0.094430
0.216544 -0.027775 -0.088933
0.194738 -0.015409 -0.096305
0.211090 -0.002178 -0.086521
0.174265 -0.028658 -0.091561
0.200019 -0.024148 -0.095979
0.195413 -0.023919 -0.090615
0.219381 -0.002996 -0.095255
0.216037 -0.030294 -0.100644
0.198062 -0.022746 -0.097895
0.166939 -0.012913 -0.104582
0.149280 -0.037373 -0.105629
0.192257 -0.034698 -0.090341
0.221064 -0.019297 -0.090225
0.160242 -0.034428 -0.100305
0.215853 -0.017912 -0.100217
0.212333 -0.024828 -0.096559
0.205955 -0.035951 -0.088443
0.186212 -0.028975 -0.105310
0.222744 -0.013359 -0.093895
0.155120 -0.022274 -0.096300
0.230285 -0.015538 -0.095673
0.221063 -0.011864 -0.092302
0.225657 -0.011307 -0.086126
0.232297 -0.004655 -0.085601
0.186642 -0.005053 -0.095682
0.217553 -0.020039 -0.094501
0.222570 0.001625 -0.092359
0.219817 -0.016332 -0.089513
0.215180 -0.022134 -0.109151
0.180580 -0.026551 -0.090277
0.208555 -0.035192 -0.103559
0.206281 -0.022276 -0.092793
0.220578 -0.019236 -0.084073
0.201006 -0.006607 -0.094203
0.219387 0.008659 -0.082502
0.176230 -0.021948 -0.089738
0.206108 -0.017988 -0.093302
0.204294 -0.017314 -0.088241
0.222059 0.007946 -0.094493
0.221841 -0.023145 -0.094408
0.208376 -0.018451 -0.099542
0.171707 -0.005362 -0.104595
0.150083 -0.031576 -0.103622
0.197619 -0.027744 -0.085313
0.226869 -0.009002 -0.089679
0.212971 -0.099991 -0.031455
0.316213 -0.050841 -0.030841
0.292696 -0.067691 -0.025356
0.299422 -0.107792 -0.021432
0.261405 -0.052053 -0.059460
0.320393 -0.014111 -0.007944
0.170357 -0.049646 -0.031707
0.350099 -0.058906 -0.021216
0.313305 -0.030253 -0.011783
0.304123 -0.011735 -0.011209
0.325689 -0.008247 0.003719
0.271926 -0.009870 -0.023292
0.313460 -0.054622 -0.020267
0.304440 -0.000705 -0.023103
0.316619 -0.053876 -0.029986
0.317838 -0.080184 -0.042832
0.206980 -0.065433 -0.026925
0.282331 -0.093159 -0.067925
0.284091 -0.057711 0.012230
0.328414 -0.064342 0.003238
0.278948 -0.008990 -0.031203
0.321948 0.026772 0.020016
0.228733 -0.057658 -0.043557
0.288329 -0.030259 -0.019838
0.265331 -0.027347 -0.017724
0.303909 0.016956 -0.020127
0.346606 -0.051578 -0.017043
0.296010 -0.027710 -0.042884
0.244917 0.002495 -0.054671
0.155022 -0.076640 -0.081937
0.259203 -0.073693 -0.002633
0.317059 -0.044946 -0.009286
0.180629 0.001444 -0.071530
0.244582 0.017841 -0.079189
0.246176 0.011024 -0.071284
0.231517 0.001198 -0.063786
0.213873 0.008067 -0.083391
0.255418 0.022153 -0.065188
0.178202 0.013365 -0.066922
0.259990 0.021132 -0.069755
0.256294 0.022208 -0.064139
0.260151 0.023656 -0.061387
0.258977 0.032199 -0.060686
0.217470 0.033688 -0.064173
0.247322 0.009969 -0.067132
0.256773 0.036642 -0.068158
0.254230 0.016447 -0.065422
0.246439 0.012689 -0.086686
0.203984 0.010051 -0.062586
0.245216 0.000329 -0.079442
0.238819 0.013929 -0.067904
0.262726 0.012901 -0.065193
0.230629 0.028363 -0.067798
0.249377 0.038066 -0.062071
0.206271 0.015224 -0.059986
0.238857 0.017810 -0.068645
0.229124 0.018127 -0.061709
0.264985 0.038826 -0.067007
0.261588 0.011817 -0.080680
0.229665 0.021099 -0.066873
0.197542 0.029019 -0.076787
0.168838 0.000271 -0.077567
0.226069 0.008419 -0.063989
0.269483 0.019322 -0.060647
0.155482 -0.033950 -0.103177
0.202265 -0.015740 -0.105043
0.199903 -0.025113 -0.101808
0.192708 -0.035942 -0.093645
0.179572 -0.027532 -0.109714
0.207594 -0.014567 -0.096485
0.151374 -0.021025 -0.099621
0.213699 -0.016609 -0.100372
0.207691 -0.010520 -0.096588
0.211519 -0.012621 -0.092433
0.214643 -0.006382 -0.091462
0.178525 -0.003930 -0.096691
0.202957 -0.022490 -0.097483
0.208661 -0.002188 -0.097600
0.206097 -0.019630 -0.094493
0.201822 -0.025307 -0.113540
0.172544 -0.025833 -0.094523
0.198342 -0.037181 -0.106511
0.194604 -0.025802 -0.098749
0.210134 -0.021824 -0.093990
0.190005 -0.009362 -0.099501
0.204368 0.006625 -0.090478
0.170913 -0.021945 -0.094149
0.195633 -0.018765 -0.098605
0.191149 -0.019974 -0.094306
0.211100 0.004191 -0.098427
0.209353 -0.024452 -0.104271
0.193646 -0.015566 -0.100683
0.164534 -0.006843 -0.107682
0.149630 -0.031156 -0.106674
0.187757 -0.030885 -0.094033
0.213927 -0.014259 -0.094158
-0.039729 -0.026465 -0.114299
0.034134 0.003212 -0.118430
0.063681 -0.012130 -0.115896
0.032106 -0.027660 -0.101965
0.008946 -0.019902 -0.120663
0.077243 -0.007358 -0.110155
-0.048846 0.000705 -0.112491
0.096101 -0.004922 -0.115066
0.071416 0.011971 -0.114611
0.130257 0.002480 -0.117616
0.069101 0.007682 -0.113381
-0.008173 0.020748 -0.111957
0.063645 -0.013296 -0.106067
0.107010 0.017685 -0.117115
0.109812 -0.009913 -0.114704
0.059985 -0.022685 -0.117644
-0.016112 -0.020590 -0.100937
0.079209 -0.030956 -0.117055
0.046604 -0.022257 -0.113737
0.134542 -0.024213 -0.114325
0.005062 0.004273 -0.114670
0.045589 0.039714 -0.116369
-0.024900 -0.005643 -0.109468
0.036180 -0.010574 -0.117040
0.024136 -0.017557 -0.108581
0.147928 0.023870 -0.116782
0.092572 -0.017049 -0.114765
0.038492 0.012393 -0.113514
-0.028019 0.012822 -0.122623
-0.046015 -0.023219 -0.111339
0.004790 -0.026979 -0.108560
0.158572 -0.011536 -0.114221
0.108490 -0.024879 -0.109085
0.186384 0.010763 -0.105632
0.196839 -0.009226 -0.103351
0.178288 -0.026938 -0.094114
0.153705 -0.014173 -0.108727
0.208621 0.003786 -0.096323
0.095353 -0.000978 -0.102803
0.218535 0.002475 -0.104429
0.204778 0.019112 -0.099076
0.223610 0.012411 -0.097702
0.212168 0.017666 -0.094455
0.144134 0.028935 -0.096266
0.199947 -0.012074 -0.096797
0.216558 0.023207 -0.101110
0.214074 -0.006694 -0.099230
0.193921 -0.019165 -0.116187
0.134625 -0.019040 -0.090674
0.201410 -0.032325 -0.108790
0.185202 -0.015030 -0.104930
0.225484 -0.013935 -0.098694
0.158256 0.015544 -0.103675
0.189686 0.041434 -0.094994
0.125872 0.000696 -0.093354
0.182815 -0.000988 -0.101604
0.173267 -0.010967 -0.096581
0.220046 0.031448 -0.100162
0.212305 -0.009669 -0.103775
0.179532 0.013575 -0.104189
0.118239 0.022848 -0.110553
0.088573 -0.023070 -0.103679
0.158957 -0.022221 -0.098477
0.231089 -0.002134 -0.100159
0.161279 -0.029120 -0.097785
0.207595 -0.011595 -0.100297
0.206321 -0.020410 -0.096343
0.198128 -0.031075 -0.089577
0.185052 -0.022451 -0.105329
0.213476 -0.010354 -0.090941
0.157116 -0.016331 -0.094037
0.220262 -0.011984 -0.094712
0.215122 -0.006370 -0.090537
0.218154 -0.008584 -0.087432
0.220410 -0.001528 -0.086602
0.185663 0.000352 -0.091542
0.209382 -0.019258 -0.093153
0.215373 0.002562 -0.092432
0.212900 -0.015411 -0.089306
0.208466 -0.021259 -0.108086
0.178854 -0.020847 -0.090845
0.206182 -0.032414 -0.101859
0.201050 -0.020582 -0.093140
0.217723 -0.017956 -0.089208
0.195797 -0.005271 -0.094153
0.210697 0.009469 -0.086016
0.177456 -0.017536 -0.089459
0.201580 -0.013584 -0.093680
0.196601 -0.014562 -0.089214
0.219829 0.007923 -0.093126
0.217134 -0.020126 -0.100917
0.199261 -0.010491 -0.095028
0.170172 -0.001966 -0.101976
0.154198 -0.026538 -0.102356
0.193637 -0.026813 -0.089986
0.221573 -0.010537 -0.088626
-0.059378 -0.032522 -0.108401
0.015601 0.000991 -0.107590
0.046433 -0.018387 -0.105860
0.015370 -0.034175 -0.094935
-0.007653 -0.023134 -0.113342
0.059574 -0.012681 -0.097168
-0.069223 -0.004739 -0.106304
0.082880 -0.010165 -0.106090
0.055475 0.014227 -0.103556
0.104959 -0.002769 -0.107141
0.053496 0.003458 -0.102627
-0.023911 0.020478 -0.102690
0.049595 -0.021491 -0.095128
0.084396 0.014685 -0.104506
0.088018 -0.018465 -0.104159
0.042163 -0.029921 -0.107953
-0.032542 -0.027107 -0.092713
0.065074 -0.036454 -0.107415
0.031825 -0.027631 -0.104090
0.112232 -0.031990 -0.102493
-0.014506 -0.000823 -0.105838
0.024877 0.042512 -0.106208
-0.043628 -0.011826 -0.100614
0.019063 -0.014708 -0.105424
0.006475 -0.024567 -0.100961
0.114028 0.021896 -0.103746
0.075247 -0.021838 -0.107186
0.025540 0.011243 -0.103688
-0.049491 0.012746 -0.114655
-0.074845 -0.029282 -0.106059
-0.012383 -0.034602 -0.101821
0.126830 -0.018807 -0.102750
0.163834 -0.013941 -0.093458
0.217662 0.005725 -0.099580
0.215506 -0.003996 -0.092373
0.204182 -0.015284 -0.083994
0.191882 -0.006038 -0.104571
0.223974 0.006604 -0.084408
0.161856 0.000716 -0.089180
0.231643 0.006518 -0.091214
0.226457 0.011839 -0.085111
0.228652 0.009646 -0.083622
0.230663 0.017837 -0.082463
0.191703 0.020656 -0.085946
0.217648 -0.005901 -0.087931
0.226473 0.023685 -0.090438
0.222749 0.001457 -0.085791
0.218346 -0.006024 -0.104952
0.183276 -0.004153 -0.084918
0.216051 -0.018045 -0.099415
0.209753 -0.003143 -0.088726
0.230591 -0.002709 -0.086985
0.202224 0.013638 -0.089715
0.219907 0.029472 -0.083252
0.183502 -0.000628 -0.083548
0.210112 0.004435 -0.088980
0.202909 0.002982 -0.084588
0.232834 0.027786 -0.089166
0.230652 -0.003238 -0.103321
0.207072 0.009571 -0.089509
0.176314 0.016729 -0.098754
0.157201 -0.012802 -0.100314
0.199387 -0.013188 -0.085530
0.236252 0.004435 -0.083355
0.167627 -0.024468 -0.094356
0.222758 -0.005704 -0.097028
0.220920 -0.014155 -0.091696
0.209634 -0.026250 -0.085390
0.194940 -0.017348 -0.102115
0.230051 -0.003728 -0.085816
0.162252 -0.010267 -0.089845
0.237791 -0.004171 -0.091299
0.232689 0.002068 -0.085942
0.235028 -0.000262 -0.083686
0.237160 0.006809 -0.082316
0.195052 0.008436 -0.088107
0.223526 -0.015421 -0.090252
0.231844 0.012590 -0.089693
0.228914 -0.008468 -0.085749
0.222725 -0.016697 -0.103555
0.186735 -0.016954 -0.087450
0.221225 -0.027146 -0.099219
0.214409 -0.013111 -0.088539
0.233783 -0.011529 -0.084868
0.206203 0.003135 -0.089993
0.226211 0.018749 -0.082222
0.185572 -0.011213 -0.085310
0.214344 -0.006226 -0.088795
0.209544 -0.007631 -0.084733
0.236788 0.018515 -0.089360
0.233633 -0.013686 -0.098627
0.213727 -0.003005 -0.091847
0.178633 0.006413 -0.097864
0.155984 -0.023077 -0.098957
0.202725 -0.023353 -0.085334
0.240224 -0.003601 -0.084753
0.131908 0.023306 -0.040351
0.231536 0.049780 -0.049464
0.256399 0.036514 -0.042950
0.222180 0.022146 -0.033940
0.188689 0.034078 -0.054968
0.265925 0.046119 -0.024698
0.118115 0.043458 -0.030508
0.261482 0.048532 -0.037054
0.260231 0.049895 -0.027118
0.290818 0.050317 -0.032071
0.246252 0.058651 -0.027931
0.198542 0.064525 -0.023492
0.248516 0.027294 -0.025343
0.277008 0.062625 -0.034412
0.276838 0.036529 -0.032601
0.242217 0.030162 -0.058704
0.162584 0.029139 -0.027182
0.262992 0.019180 -0.047283
0.241403 0.037306 -0.037465
0.299146 0.025696 -0.041285
0.208029 0.055290 -0.035413
0.242282 0.063776 -0.035250
0.172205 0.043140 -0.024951
0.231947 0.042303 -0.036158
0.210029 0.036830 -0.028682
0.312266 0.060534 -0.030861
0.281709 0.030533 -0.057664
0.208133 0.058012 -0.029522
0.152700 0.057907 -0.038747
0.090911 0.023207 -0.043457
0.196347 0.027609 -0.044736
0.312548 0.034569 -0.024081
0.155769 -0.017412 -0.095087
0.208137 0.008833 -0.098788
0.206769 -0.005782 -0.093234
0.194341 -0.019622 -0.085546
0.183642 -0.006732 -0.103691
0.213360 0.005308 -0.084814
0.150067 0.001255 -0.090610
0.222436 0.005622 -0.093787
0.217207 0.017173 -0.086902
0.219866 0.010795 -0.085806
0.220672 0.017463 -0.083669
0.180451 0.022771 -0.087558
0.207739 -0.008927 -0.089643
0.217503 0.023639 -0.091855
0.213765 -0.000906 -0.085914
0.208374 -0.012245 -0.105082
0.173560 -0.008520 -0.087645
0.207888 -0.023318 -0.098947
0.199627 -0.007529 -0.090408
0.220563 -0.004743 -0.089438
0.190383 0.013542 -0.091798
0.209607 0.034974 -0.084602
0.172282 -0.001674 -0.086225
0.199782 0.003928 -0.089528
0.194334 -0.000673 -0.086707
0.222196 0.031848 -0.090988
0.219633 -0.005620 -0.103535
0.199533 0.011715 -0.092158
0.164276 0.018623 -0.099019
0.146697 -0.014143 -0.099640
0.187569 -0.020127 -0.088740
0.224726 0.003511 -0.086594
0.186516 0.024397 -0.063480
0.265612 0.046617 -0.074928
0.275146 0.035505 -0.065154
0.249528 0.024301 -0.057445
0.230757 0.033281 -0.079300
0.281823 0.048219 -0.054468
0.180917 0.040163 -0.057045
0.283949 0.047825 -0.063375
0.283302 0.048708 -0.055477
0.292223 0.050169 -0.056070
0.279893 0.060287 -0.053726
0.233912 0.062735 -0.053445
0.271317 0.030534 -0.057104
0.286493 0.064442 -0.062555
0.284559 0.040768 -0.057899
0.270282 0.033504 -0.083398
0.213816 0.033264 -0.054390
0.275282 0.020739 -0.073273
0.262325 0.038803 -0.061812
0.298429 0.033223 -0.063680
0.247392 0.055307 -0.060695
0.272093 0.063760 -0.058015
0.218874 0.041913 -0.051156
0.261408 0.044368 -0.060734
0.246320 0.041322 -0.053909
0.301726 0.064838 -0.059856
0.293429 0.033662 -0.081251
0.246646 0.052038 -0.057064
0.205487 0.055824 -0.067359
0.166827 0.022275 -0.069463
0.239589 0.030567 -0.061914
0.306022 0.040739 -0.052081
0.100516 -0.054618 -0.028458
0.158637 -0.048155 -0.047026
0.198898 -0.047381 -0.045934
0.170219 -0.054569 -0.009083
0.135435 -0.050201 -0.057317
0.209114 -0.049149 0.002009
0.097875 -0.050031 -0.009905
0.183736 -0.043939 -0.038363
0.189759 -0.044763 -0.011804
0.240518 -0.049247 -0.020501
0.160443 -0.049559 -0.011383
0.152914 -0.044081 0.001416
0.186831 -0.049206 0.002350
0.217288 -0.043154 -0.028093
0.220059 -0.048334 -0.010848
0.177241 -0.049062 -0.055454
0.121923 -0.051686 -0.003956
0.204178 -0.054526 -0.021975
0.197792 -0.050604 -0.032023
0.236631 -0.050566 -0.043511
0.158982 -0.048406 -0.027809
0.167045 -0.039580 -0.020447
0.134994 -0.048498 -0.009158
0.180775 -0.051804 -0.024982
0.146478 -0.053222 -0.021181
0.254917 -0.045146 -0.030394
0.218518 -0.046956 -0.060145
0.127981 -0.044184 -0.020492
0.123381 -0.046496 -0.033258
0.096103 -0.051736 -0.043445
0.147042 -0.052789 -0.033432
0.250963 -0.049421 -0.005775
0.141145 -0.024029 -0.102745
0.194812 -0.002113 -0.104076
0.192318 -0.011809 -0.100058
0.182084 -0.025832 -0.087675
0.166667 -0.018255 -0.109079
0.201674 -0.002581 -0.092977
0.137041 -0.009141 -0.098027
0.210168 -0.002440 -0.101298
0.199681 0.006897 -0.094604
0.206867 0.003206 -0.092127
0.208718 0.007906 -0.089046
0.161949 0.012265 -0.094824
0.194185 -0.010728 -0.094981
0.204265 0.015900 -0.098595
0.200157 -0.005658 -0.093239
0.193929 -0.015783 -0.111334
0.157254 -0.016197 -0.088629
0.189033 -0.027094 -0.104637
0.185860 -0.013772 -0.097305
0.203539 -0.008268 -0.092777
0.176966 0.005790 -0.098318
0.195149 0.027936 -0.088990
0.154932 -0.009023 -0.090640
0.185988 -0.006239 -0.096002
0.181645 -0.008594 -0.092168
0.203065 0.022662 -0.098312
0.202590 -0.010487 -0.103586
0.187207 -0.001004 -0.100745
0.151601 0.008390 -0.108637
0.133903 -0.021901 -0.104736
0.173335 -0.022327 -0.090805
0.208616 0.000133 -0.094604
0.047831 -0.017766 -0.046476
0.131330 0.031307 -0.055576
0.162944 0.000232 -0.048022
0.126323 -0.023995 -0.035415
0.102025 0.002641 -0.060682
0.179166 0.000702 -0.031861
0.029428 0.019743 -0.044179
0.198203 0.014300 -0.050211
0.177063 0.057111 -0.042336
0.229546 0.020865 -0.046774
0.161578 0.026095 -0.041604
0.086250 0.055520 -0.046990
0.165868 -0.014617 -0.036941
0.204687 0.046166 -0.046433
0.206697 -0.002800 -0.040463
0.153903 -0.019364 -0.049040
0.075678 -0.018803 -0.042518
0.189931 -0.028741 -0.047140
0.145940 -0.009393 -0.041447
0.240879 -0.022282 -0.047283
0.093991 0.024637 -0.044543
0.132132 0.081406 -0.048191
0.066945 0.006748 -0.040490
0.129399 0.006986 -0.040588
0.114125 -0.008904 -0.038848
0.251435 0.060076 -0.049411
0.197907 -0.006141 -0.063561
0.133213 0.042685 -0.043259
0.049591 0.044306 -0.053898
0.016969 -0.005807 -0.045064
0.096547 -0.030055 -0.041323
0.261870 -0.007332 -0.042881
0.136254 -0.029653 -0.109246
0.203160 -0.000277 -0.109198
0.203159 -0.014180 -0.105047
0.191422 -0.031529 -0.091093
0.169951 -0.021217 -0.113170
0.214748 -0.002453 -0.097334
0.129168 -0.010360 -0.103745
0.225225 -0.002814 -0.106994
0.210868 0.009002 -0.100253
0.222758 0.005751 -0.097385
0.222845 0.010203 -0.093097
0.161625 0.015868 -0.099028
0.206170 -0.013643 -0.098005
0.218679 0.018830 -0.103937
0.214464 -0.007426 -0.098331
0.204632 -0.021275 -0.116672
0.156607 -0.021895 -0.090781
0.200215 -0.034369 -0.110071
0.194543 -0.018002 -0.102936
0.219271 -0.012575 -0.096106
0.179047 0.008603 -0.104281
0.203982 0.034551 -0.093181
0.150949 -0.008723 -0.094273
0.194037 -0.007375 -0.100949
0.189045 -0.012636 -0.096500
0.215092 0.027362 -0.103863
0.215945 -0.011936 -0.105643
0.195660 0.000812 -0.107524
0.147641 0.011615 -0.115116
0.125052 -0.027898 -0.108412
0.176207 -0.026720 -0.094437
0.225198 -0.001279 -0.100778
0.178506 -0.015440 -0.102506
0.227614 0.017659 -0.109770
0.230670 -0.005102 -0.104579
0.216232 -0.017823 -0.092624
0.209751 -0.001741 -0.113831
0.233552 0.007252 -0.089265
0.171495 0.006559 -0.097746
0.238598 0.007413 -0.105234
0.235838 0.022887 -0.094720
0.241700 0.012546 -0.096785
0.235973 0.019020 -0.094520
0.203422 0.028802 -0.089470
0.229981 -0.010221 -0.091244
0.238060 0.024221 -0.102380
0.235039 -0.002208 -0.093994
0.230632 -0.012298 -0.117320
0.195571 -0.006639 -0.090872
0.233713 -0.026100 -0.104607
0.224249 -0.009283 -0.102961
0.247713 -0.008498 -0.106601
0.211555 0.015275 -0.102242
0.225535 0.038088 -0.098069
0.196568 0.002790 -0.092355
0.223186 0.004898 -0.100385
0.213383 -0.004035 -0.096828
0.246381 0.031946 -0.101082
0.244170 -0.005380 -0.118226
0.214297 0.019308 -0.098051
0.184094 0.021821 -0.108280
0.171902 -0.011355 -0.107104
0.211092 -0.020988 -0.102070
0.248447 -0.000824 -0.095225
0.053073 -0.023004 0.032031
0.178791 0.041166 -0.002955
0.209268 0.002821 -0.001889
0.173629 -0.031236 0.045934
0.131914 0.008907 -0.019189
0.240865 0.014136 0.044350
0.040836 0.025849 0.033842
0.252041 0.036472 0.009121
0.226291 0.065321 0.042578
0.290886 0.030038 0.023744
0.202754 0.046567 0.045399
0.122394 0.078038 0.030916
0.224472 -0.013630 0.049926
0.259410 0.067565 0.030525
0.261446 0.001458 0.037830
0.202658 -0.013221 -0.007436
0.081423 -0.021231 0.033860
0.241838 -0.035607 0.023592
0.209612 -0.010674 0.032607
0.308600 -0.026597 0.017349
0.137215 0.049346 0.026879
0.184282 0.098933 0.042615
0.097812 0.018433 0.039336
0.186837 0.013118 0.034980
0.142451 -0.008081 0.044519
0.304639 0.074056 0.027709
0.267958 0.003362 -0.023070
0.148968 0.066129 0.039747
0.088358 0.055597 0.018683
0.044485 -0.010984 0.005133
0.130516 -0.018223 0.035290
0.322075 -0.008552 0.041676
0.185807 -0.055746 -0.020568
0.233154 -0.045702 -0.038498
0.263421 -0.048341 -0.035952
0.240635 -0.054753 -0.003505
0.214349 -0.049791 -0.045735
0.273759 -0.047489 0.006666
0.179449 -0.048464 -0.004951
0.254431 -0.045074 -0.029273
0.260014 -0.038477 -0.006572
0.301236 -0.048434 -0.014867
0.236310 -0.048833 -0.006906
0.225217 -0.041400 0.006336
0.255194 -0.049613 0.008373
0.278972 -0.041649 -0.020637
0.282609 -0.047718 -0.007233
0.248166 -0.050893 -0.043689
0.201593 -0.051876 0.002744
0.271272 -0.057520 -0.014995
0.265566 -0.051893 -0.024372
0.296267 -0.049819 -0.034081
0.230491 -0.047748 -0.021833
0.237637 -0.032250 -0.017527
