-0.474483 -0.033164 0.034412
-0.452154 -0.033749 0.029968
-0.434230 -0.032016 0.025300
-0.453166 -0.073636 -0.012015
-0.443504 -0.087524 -0.012484
-0.417892 -0.074801 0.011359
-0.440118 -0.073345 -0.011992
-0.426644 -0.082699 -0.010026
-0.414754 -0.033853 0.021264
-0.394993 -0.074820 0.014543
-0.407549 -0.083406 -0.009268
-0.430157 -0.082323 -0.033465
-0.414525 -0.069475 -0.018078
-0.409534 -0.023721 0.005765
-0.476483 -0.063570 -0.070216
-0.382469 -0.079190 -0.005118
-0.413859 -0.078441 -0.031065
-0.409684 -0.034576 -0.008815
-0.391926 -0.074766 -0.016824
-0.481364 -0.040844 -0.073781
-0.463487 -0.063826 -0.070414
-0.367963 -0.079340 -0.004345
-0.419360 0.033818 0.005920
-0.406456 -0.069810 -0.033816
-0.445860 -0.065338 -0.069490
-0.401179 -0.009906 -0.009286
-0.391883 0.014516 0.008602
-0.391599 -0.024147 -0.009451
-0.315933 -0.017827 0.051741
-0.379997 -0.074233 -0.026022
-0.396651 0.004879 -0.004874
-0.451442 -0.042372 -0.071887
-0.377627 -0.032633 -0.012712
-0.424997 -0.066165 -0.066342
-0.396826 0.039412 0.000272
-0.392495 -0.069956 -0.047857
-0.333938 0.022279 0.039239
-0.359909 -0.074121 -0.026618
-0.368895 -0.009674 -0.003989
-0.326260 0.012723 0.038717
-0.429901 -0.043504 -0.070727
-0.358117 -0.018702 -0.003766
-0.406922 -0.066303 -0.066005
-0.347512 -0.074529 -0.022662
-0.312315 -0.017695 0.030156
-0.369566 0.013326 -0.000673
-0.368815 -0.023843 -0.018798
-0.392359 0.058647 0.000483
-0.359228 0.004250 0.000013
-0.310062 -0.002382 0.033054
-0.413281 -0.043611 -0.068400
-0.395471 0.072781 -0.001684
-0.399993 -0.057390 -0.065996
-0.330390 -0.075207 -0.019281
-0.308149 0.017990 0.039472
-0.366191 -0.069784 -0.049247
-0.385085 -0.066048 -0.065045
-0.401017 -0.043593 -0.067909
-0.265613 -0.018635 0.047532
-0.391862 0.067001 -0.013841
-0.344301 -0.070508 -0.044936
-0.367641 -0.066172 -0.064436
-0.383365 -0.043062 -0.067718
-0.301184 -0.074940 -0.017500
-0.356893 -0.024635 -0.042830
-0.369457 -0.052333 -0.066094
-0.303072 -0.018764 -0.005314
-0.357155 -0.052458 -0.065034
-0.346124 -0.066210 -0.063102
-0.337903 -0.033204 -0.043233
-0.315902 -0.070128 -0.043755
-0.276196 -0.075106 -0.017988
-0.298554 0.014837 0.001246
-0.344471 -0.043297 -0.066906
-0.336350 0.019290 -0.031516
-0.330614 -0.024426 -0.047920
-0.292836 -0.070354 -0.041083
-0.327847 0.008695 -0.031802
-0.314178 -0.020452 -0.036278
-0.328851 -0.056057 -0.065064
-0.315253 -0.065812 -0.062076
-0.302929 -0.011036 -0.028298
-0.331394 -0.038784 -0.065679
-0.313320 0.003658 -0.032156
-0.246408 -0.076142 -0.019007
-0.317133 -0.024460 -0.054006
-0.268755 -0.020630 -0.016501
-0.313462 0.022946 -0.031394
-0.230542 -0.021919 0.012097
-0.264918 -0.070821 -0.038024
-0.297008 -0.066103 -0.061279
-0.312719 -0.047332 -0.064944
-0.298547 -0.033261 -0.049434
-0.267531 0.013331 -0.003002
-0.262117 0.028096 0.007544
-0.253478 0.019752 0.007758
-0.278584 -0.032839 -0.042661
-0.270888 0.002612 -0.021092
-0.251129 -0.020582 -0.017534
-0.273011 0.059914 0.001783
-0.245725 -0.071088 -0.037538
-0.300220 -0.038399 -0.065399
-0.291260 -0.024274 -0.051991
-0.246245 -0.011853 -0.010521
-0.215961 -0.075909 -0.020810
-0.280270 -0.056823 -0.063607
-0.245810 -0.034573 -0.026850
-0.230332 -0.021522 -0.009361
-0.268988 -0.065715 -0.060278
-0.277482 0.084889 0.002334
-0.268886 -0.023712 -0.044140
-0.263243 0.013018 -0.024931
-0.252862 0.003300 -0.021336
-0.282048 -0.038320 -0.065600
-0.221220 -0.011503 -0.005935
-0.225153 -0.071152 -0.037419
-0.236911 -0.001510 -0.014381
-0.257359 0.022643 -0.018973
-0.241125 0.023751 -0.006842
-0.253695 -0.064734 -0.060195
-0.260925 0.059409 -0.007901
-0.249393 -0.028842 -0.040659
-0.195950 -0.076514 -0.021825
-0.260431 0.080447 -0.000862
-0.215888 0.002693 -0.002994
-0.262089 -0.047208 -0.064330
-0.198659 -0.020975 -0.005280
-0.234317 -0.024811 -0.036181
-0.198935 -0.029128 -0.012492
-0.212399 -0.029471 -0.024893
-0.200568 -0.071739 -0.036132
-0.174368 -0.076836 -0.023567
-0.236172 -0.055366 -0.064312
-0.190666 -0.020147 -0.014069
-0.180107 -0.030226 -0.015681
-0.239264 -0.037885 -0.066514
-0.213722 -0.065173 -0.060422
-0.168779 -0.031147 -0.010350
-0.175882 -0.011297 -0.007799
-0.153209 -0.077441 -0.022327
-0.223670 -0.046619 -0.063763
-0.169446 -0.072183 -0.034958
-0.194201 -0.034114 -0.043364
-0.139306 -0.033174 -0.000807
-0.120792 -0.079659 -0.009688
-0.132195 -0.078979 -0.020804
-0.197921 -0.057183 -0.062907
-0.211198 -0.037641 -0.064730
-0.184640 -0.066376 -0.057507
-0.148605 -0.072124 -0.033876
-0.137563 -0.032416 -0.012965
-0.189816 -0.047158 -0.062792
-0.174900 -0.034027 -0.050282
-0.163895 -0.066423 -0.056957
-0.089067 -0.080581 -0.011106
-0.131302 -0.032809 -0.025957
-0.115977 -0.073709 -0.034262
-0.169843 -0.047167 -0.062991
-0.142743 -0.067326 -0.056660
-0.068299 -0.081609 -0.010948
-0.014544 -0.045750 0.046294
-0.151925 -0.056682 -0.064422
-0.153515 -0.033477 -0.055160
-0.084418 -0.075044 -0.033995
-0.146164 -0.037840 -0.064569
-0.112011 -0.068017 -0.053383
-0.113724 -0.030617 -0.039332
-0.127416 -0.052774 -0.063799
-0.130235 -0.033601 -0.061534
-0.033975 -0.083525 -0.014423
-0.031261 -0.023015 0.013830
-0.015345 -0.000928 0.033596
-0.093945 -0.031145 -0.040628
-0.023672 0.005917 0.029395
-0.043774 0.017740 0.019191
-0.031074 -0.038209 0.002137
-0.106510 -0.052827 -0.063421
-0.080507 -0.069736 -0.051769
-0.065334 -0.035230 -0.026649
-0.008072 0.022625 0.043224
-0.052038 -0.076104 -0.036096
-0.000631 -0.003921 0.035583
-0.110668 -0.033931 -0.064852
0.012758 -0.034761 0.027979
-0.001837 -0.004465 0.030236
0.007444 -0.015104 0.030138
-0.035622 -0.007013 0.001168
-0.016720 -0.022396 0.007733
-0.016630 -0.011992 0.010897
-0.003324 -0.039651 0.007596
-0.001571 -0.086177 -0.014513
-0.086367 -0.054715 -0.063696
-0.030311 -0.037547 -0.013588
0.003769 -0.008220 0.024689
-0.015677 0.007132 0.016787
-0.032463 0.007174 0.003289
-0.030061 -0.077615 -0.036254
-0.034180 0.002409 -0.002980
-0.033317 0.000307 -0.003485
-0.014172 -0.001297 0.007766
-0.007265 -0.013032 0.007609
-0.001374 -0.017025 0.009549
0.011076 -0.028138 0.013952
0.001182 0.001829 0.020052
-0.090175 -0.034431 -0.066222
-0.009866 -0.021402 0.000348
-0.047933 -0.070488 -0.051574
0.002557 -0.011935 0.012792
-0.011304 -0.009067 0.003876
-0.018309 -0.012449 -0.003751
-0.021576 0.022539 0.009873
-0.017522 0.002890 0.003004
0.024748 0.014779 0.040129
0.007702 -0.036358 0.002740
-0.005556 0.004417 0.010803
-0.005537 -0.019260 -0.001473
-0.023354 -0.011344 -0.011575
0.000202 -0.011972 0.006018
-0.007114 0.016253 0.012806
-0.021178 -0.010962 -0.010885
0.001382 0.002051 0.012091
-0.021576 -0.004689 -0.009416
-0.004411 -0.005026 0.003119
-0.056734 -0.065529 -0.065153
0.004982 -0.023486 0.001385
-0.011739 0.010197 0.004349
-0.015667 -0.000376 -0.003659
0.006873 -0.032736 -0.001975
0.073397 -0.040622 0.042443
0.012868 -0.010681 0.010733
-0.021920 -0.035620 -0.027401
-0.001391 0.008850 0.008149
0.005837 -0.019422 0.000665
-0.018557 0.009657 -0.004959
-0.006239 0.014625 0.006186
0.005756 -0.005658 0.005914
0.003908 -0.016482 -0.001178
-0.069684 -0.035741 -0.066276
0.032765 -0.088329 -0.013715
-0.006019 -0.002762 -0.002647
0.070547 -0.017407 0.047070
0.008603 -0.027393 -0.003712
-0.007426 0.023036 0.007529
0.063521 0.000260 0.049022
-0.011532 -0.006167 -0.009367
0.014118 0.000925 0.012722
0.003621 -0.004708 0.001449
-0.001461 -0.007854 -0.003518
-0.011958 -0.007193 -0.010971
-0.024941 -0.071754 -0.051423
0.003434 -0.005822 0.000432
0.021707 -0.002676 0.015769
-0.008640 0.024326 0.005209
-0.009850 0.006584 -0.003703
0.009687 -0.011464 0.002088
0.056574 0.017470 0.049415
-0.021453 0.003812 -0.016068
-0.008137 -0.001400 -0.008283
0.009650 -0.019484 -0.002867
0.002037 0.020506 0.009232
0.001813 0.011665 0.004045
-0.019118 -0.000958 -0.017355
0.003182 -0.080390 -0.038580
0.010156 0.015054 0.010948
0.005053 0.007829 0.003495
-0.008334 0.010022 -0.005907
-0.027333 0.038733 -0.008214
-0.035601 0.015531 -0.024309
0.010297 -0.005243 -0.001152
0.009960 0.011126 0.006324
0.002125 -0.020964 -0.014496
-0.015065 0.015313 -0.011695
0.003402 -0.008551 -0.009199
-0.004837 0.013390 -0.005414
-0.002203 -0.018019 -0.017779
-0.005797 0.013298 -0.005912
0.020024 0.013666 0.013270
-0.005211 0.023853 -0.000698
0.006621 0.023433 0.007712
-0.034426 -0.067416 -0.066321
0.002091 -0.019747 -0.018496
0.014651 0.013417 0.006407
-0.004012 0.018873 -0.006084
0.021503 0.009670 0.008455
0.018514 0.019045 0.010048
-0.001084 -0.005194 -0.016761
0.020451 0.024581 0.012977
0.006539 -0.020129 -0.018984
-0.029155 0.019414 -0.027480
0.031502 -0.037622 -0.008702
0.103193 -0.027959 0.047754
-0.007305 -0.009059 -0.025588
0.022443 -0.004511 -0.001120
-0.009974 -0.034672 -0.040545
0.005607 0.039056 0.004498
-0.006214 0.017334 -0.014197
0.007429 0.023275 -0.002334
0.020462 -0.033558 -0.019756
0.025858 -0.017439 -0.007395
0.085397 0.017200 0.050342
-0.009430 0.022374 -0.017691
0.026774 -0.082028 -0.040269
0.011018 0.004670 -0.012047
0.098145 -0.006472 0.045273
-0.034793 -0.036301 -0.067724
0.030049 -0.008934 -0.005661
-0.012860 -0.068457 -0.067052
0.001008 0.041041 -0.005897
0.010762 -0.075522 -0.054067
0.006644 -0.007167 -0.025665
0.002473 0.021671 -0.014781
0.108020 -0.017567 0.044367
0.013988 0.016560 -0.010025
0.015348 -0.034533 -0.033553
0.020439 0.038611 0.004107
0.018389 0.011351 -0.011093
0.055378 -0.081162 -0.027531
0.011344 0.000569 -0.023051
0.022196 0.012693 -0.010123
0.009296 0.042696 -0.006103
0.026807 -0.015105 -0.021737
0.038168 0.025198 0.004879
0.132008 -0.024210 0.050628
0.008865 -0.034113 -0.045539
0.001275 -0.001192 -0.035968
0.005657 0.026557 -0.021129
0.127235 -0.012879 0.049504
0.070077 -0.039763 -0.006012
0.027620 0.027727 -0.006234
-0.013183 -0.036991 -0.068187
0.002192 -0.059786 -0.069434
0.025251 0.007610 -0.021611
0.075959 -0.080829 -0.026205
0.037164 -0.082234 -0.056802
0.133889 -0.002222 0.049357
0.034758 -0.039513 -0.041202
0.019584 -0.019863 -0.046055
0.020714 -0.069977 -0.069878
0.034732 0.013000 -0.020216
0.041863 0.028217 -0.010844
0.015333 -0.048773 -0.067958
0.008176 -0.038254 -0.069727
0.054242 -0.076037 -0.053036
0.073655 -0.037195 -0.020405
0.095975 -0.079021 -0.026970
0.045990 -0.000277 -0.034775
0.042123 0.037480 -0.020413
0.045896 -0.069057 -0.068181
0.029327 -0.038790 -0.069176
0.036905 -0.048369 -0.070288
0.117555 -0.079488 -0.025595
0.084257 -0.074132 -0.048620
0.097750 -0.074073 -0.044122
0.045751 -0.004084 -0.056902
0.174862 -0.017491 0.031558
0.062425 -0.053011 -0.068242
0.075087 -0.067074 -0.066292
0.138571 -0.079269 -0.025674
0.184739 -0.033565 0.029493
0.058565 -0.037294 -0.068791
0.044684 0.021385 -0.055051
0.097834 -0.035269 -0.045460
0.121968 -0.073667 -0.045568
0.068427 -0.030930 -0.065441
0.083723 -0.058111 -0.068372
0.190024 -0.036028 0.020195
0.065070 0.006451 -0.056897
0.140257 -0.073274 -0.040668
0.168519 -0.079087 -0.023855
0.080081 -0.038249 -0.070881
0.079799 -0.003157 -0.056478
0.092766 -0.048638 -0.070076
0.119495 -0.035182 -0.043577
0.133892 -0.036408 -0.034695
0.192805 -0.012331 0.018898
0.090945 -0.015900 -0.057964
0.115448 -0.067193 -0.064997
0.104025 -0.056751 -0.069117
0.098057 -0.030288 -0.062451
0.203506 -0.023857 0.015764
0.158633 -0.073155 -0.041516
0.099801 -0.038389 -0.069068
0.080723 0.026046 -0.053919
0.099863 -0.009822 -0.056405
