0.111794 -0.047401 -0.068636
0.104375 0.006871 -0.055336
0.142331 -0.067013 -0.063869
0.129161 -0.056359 -0.068393
0.203700 -0.078074 -0.023668
0.118883 -0.037727 -0.068092
0.185825 -0.072940 -0.040150
0.213451 -0.077972 -0.022144
0.127448 -0.020573 -0.059926
0.165647 -0.018178 -0.033350
0.127719 -0.006203 -0.057006
0.140049 -0.045977 -0.066643
0.254843 -0.021164 0.027714
0.241017 -0.077754 -0.013128
0.179606 -0.034471 -0.039181
0.207896 -0.072812 -0.039040
0.249452 -0.078293 -0.011354
0.159848 -0.056782 -0.067052
0.179167 -0.067344 -0.060977
0.149610 -0.036187 -0.069115
0.219904 -0.073260 -0.039173
0.262778 -0.078395 -0.013244
0.167267 -0.018001 -0.055937
0.181469 -0.032576 -0.056340
0.232047 -0.072983 -0.039044
0.272927 -0.078273 -0.011877
0.170517 -0.037618 -0.067846
0.190927 -0.056487 -0.065466
0.183512 -0.047233 -0.066299
0.242580 -0.072515 -0.037694
0.283918 -0.078485 -0.012106
0.208179 -0.067715 -0.062204
0.186860 -0.017196 -0.059371
0.216431 -0.027050 -0.043898
0.206677 -0.031650 -0.053266
0.255680 -0.072650 -0.039078
0.358358 -0.031245 0.051848
0.198091 -0.016925 -0.057104
0.212191 -0.056957 -0.066638
0.243933 -0.021967 -0.028224
0.302382 -0.078713 -0.013331
0.201847 -0.036185 -0.067609
0.313001 -0.078797 -0.013035
0.241139 -0.067064 -0.059323
0.228103 -0.056457 -0.066316
0.373653 -0.031011 0.046634
0.252280 -0.066963 -0.058858
0.222745 -0.036576 -0.067284
0.287181 -0.073286 -0.037761
0.330891 -0.078969 -0.013230
0.235426 -0.026231 -0.058186
0.236738 -0.046254 -0.067230
0.264005 -0.067226 -0.058672
0.297925 -0.073350 -0.037478
0.250499 -0.056519 -0.066183
0.247807 -0.026342 -0.056098
0.342414 -0.079349 -0.013890
0.264884 -0.026419 -0.046314
0.276135 -0.066998 -0.058523
0.309830 -0.073200 -0.037887
0.395126 -0.030640 0.038891
0.250902 -0.036507 -0.067469
0.354928 -0.079530 -0.013686
0.276646 -0.025949 -0.046253
0.292672 -0.067596 -0.057329
0.279502 -0.062063 -0.065974
0.271794 -0.051272 -0.066901
0.326944 -0.073563 -0.038384
0.264037 -0.041283 -0.068732
0.368375 -0.079541 -0.013314
0.288623 -0.026368 -0.046231
0.309663 -0.067856 -0.055762
0.300091 -0.026698 -0.047325
0.280913 -0.041488 -0.068629
0.417452 -0.030525 0.033079
0.386864 -0.080017 -0.011842
0.302288 -0.062256 -0.066001
0.294442 -0.051545 -0.067395
0.350838 -0.074114 -0.039162
0.322343 -0.068273 -0.056313
0.314037 -0.062448 -0.066164
0.441554 -0.024793 0.039027
0.362891 -0.074330 -0.038901
0.335118 -0.068637 -0.056918
0.326081 -0.062915 -0.067178
0.375361 -0.074260 -0.039111
0.314259 -0.042058 -0.069367
0.391011 -0.074622 -0.028771
0.353648 -0.069211 -0.056976
0.445324 -0.030173 0.025266
0.329678 -0.052563 -0.068247
0.405241 -0.074758 -0.024907
0.416378 -0.075189 -0.017788
0.343989 -0.062986 -0.067713
0.366682 -0.069337 -0.056938
0.333534 -0.042155 -0.070546
0.379205 -0.069506 -0.057008
0.344975 -0.042529 -0.071297
0.354245 -0.052868 -0.069933
0.391906 -0.070301 -0.056360
0.356738 -0.042720 -0.071385
0.366013 -0.052999 -0.070401
0.374916 -0.064473 -0.069884
0.432628 -0.071011 -0.034674
0.420650 -0.070633 -0.044939
0.386535 -0.064997 -0.069902
0.377840 -0.053388 -0.070559
0.370196 -0.042814 -0.072123
0.479505 -0.023679 0.013977
0.390220 -0.053795 -0.070839
0.399526 -0.065029 -0.070151
0.382859 -0.042754 -0.072924
0.413373 -0.065307 -0.066094
0.403097 -0.054397 -0.070400
0.452932 -0.065502 -0.042128
0.395274 -0.043189 -0.072447
0.429593 -0.065996 -0.060670
0.462792 -0.060257 -0.036249
0.446612 -0.060485 -0.051685
0.398484 -0.033549 -0.074794
0.433657 -0.055285 -0.063062
0.449716 -0.049422 -0.055624
0.461486 -0.048802 -0.046607
0.429304 -0.044132 -0.067959
0.478111 -0.037222 -0.038518
0.444273 -0.038903 -0.063595
0.491208 -0.030836 -0.028230
0.463652 -0.027691 -0.052766
