-1.910434663295745850e-01 -4.156121015548706055e-01 9.422492235898971558e-03
-1.605327874422073364e-01 -4.221549630165100098e-01 -7.600115984678268433e-02
-1.918865591287612915e-01 -4.062015116214752197e-01 1.601551473140716553e-02
-1.665287613868713379e-01 -4.203064441680908203e-01 -1.089770626276731491e-02
-1.867011785507202148e-01 -4.170748293399810791e-01 -1.321282330900430679e-02
-1.927339434623718262e-01 -4.038817584514617920e-01 -3.576551005244255066e-02
-1.889535486698150635e-01 -4.179870188236236572e-01 2.124682068824768066e-02
-1.897550821304321289e-01 -4.041547775268554688e-01 -2.619676664471626282e-02
-1.811987459659576416e-01 -4.198789000511169434e-01 4.314366728067398071e-03
-1.880711764097213745e-01 -4.181914329528808594e-01 -8.672434091567993164e-02
-1.902070641517639160e-01 -4.129813015460968018e-01 3.306331112980842590e-02
-1.776941120624542236e-01 -4.218070507049560547e-01 -3.416676074266433716e-02
-1.729016602039337158e-01 -4.196543693542480469e-01 -4.770719259977340698e-02
-1.760318279266357422e-01 -4.200981557369232178e-01 -9.915588051080703735e-02
-1.887406706809997559e-01 -4.175554513931274414e-01 -3.450354933738708496e-02
-1.909682452678680420e-01 -4.107742607593536377e-01 -4.851714894175529480e-02
-1.911154836416244507e-01 -4.167340993881225586e-01 -7.031940855085849762e-03
-1.909864246845245361e-01 -4.141482114791870117e-01 -5.660472065210342407e-02
-1.899588704109191895e-01 -4.116524457931518555e-01 7.174359634518623352e-04
-1.458242833614349365e-01 -4.200485348701477051e-01 -2.971391752362251282e-02
-1.870252788066864014e-01 -4.177199006080627441e-01 -1.121908426284790039e-01
-1.885800212621688843e-01 -4.191246330738067627e-01 -2.175264433026313782e-02
-1.881486773490905762e-01 -4.201330542564392090e-01 -6.579258292913436890e-02
-1.909609138965606689e-01 -4.150930047035217285e-01 -7.321379333734512329e-02
-1.905477046966552734e-01 -4.118622839450836182e-01 -9.952869266271591187e-02
-1.617173999547958374e-01 -4.221121668815612793e-01 2.015382796525955200e-02
-1.924765408039093018e-01 -1.845195740461349487e-01 8.381289988756179810e-02
-1.923198997974395752e-01 -1.558024287223815918e-01 5.998123437166213989e-02
-1.921310126781463623e-01 -1.980007588863372803e-01 7.822880893945693970e-02
-1.925991773605346680e-01 -1.576509773731231689e-01 9.599374979734420776e-02
-1.923203766345977783e-01 -1.462574601173400879e-01 7.199018448591232300e-02
-1.923492401838302612e-01 -1.854574680328369141e-01 1.243207156658172607e-01
-1.924556046724319458e-01 -1.775951236486434937e-01 1.115984395146369934e-01
-1.924478858709335327e-01 -1.652236431837081909e-01 6.880697607994079590e-02
-1.922138929367065430e-01 -1.481764018535614014e-01 1.093366369605064392e-01
-1.920101791620254517e-01 -2.140465080738067627e-01 1.040672585368156433e-01
-1.922839581966400146e-01 -1.772037297487258911e-01 9.295918792486190796e-02
-1.927854418754577637e-01 -1.659756302833557129e-01 8.842802047729492188e-02
-1.926416307687759399e-01 -2.036667615175247192e-01 1.176876947283744812e-01
-1.923892349004745483e-01 -1.457481235265731812e-01 9.015490859746932983e-02
-1.924451887607574463e-01 -1.913043409585952759e-01 1.112601384520530701e-01
-1.923905909061431885e-01 -2.041717767715454102e-01 5.542587488889694214e-02
-1.926492899656295776e-01 -1.689674556255340576e-01 1.234565600752830505e-01
-1.923204660415649414e-01 -2.206667959690093994e-01 8.502384275197982788e-02
-1.923587024211883545e-01 -1.867836117744445801e-01 7.340741157531738281e-02
-1.923512965440750122e-01 -1.782019734382629395e-01 6.435445696115493774e-02
-1.922482848167419434e-01 -1.996021121740341187e-01 1.011511310935020447e-01
-1.924664676189422607e-01 -1.571032404899597168e-01 8.097898215055465698e-02
-1.926904320716857910e-01 -1.849036216735839844e-01 1.007636561989784241e-01
-1.923128068447113037e-01 -1.736027300357818604e-01 7.837523519992828369e-02
-1.923589706420898438e-01 -1.701092571020126343e-01 1.023162752389907837e-01
-1.926413625478744507e-01 -1.925317049026489258e-01 9.079768508672714233e-02
-1.927666366100311279e-01 -1.858386844396591187e-01 5.226460844278335571e-02
-1.925576627254486084e-01 -2.061642259359359741e-01 8.914265036582946777e-02
-1.926425695419311523e-01 -2.107374966144561768e-01 7.121872156858444214e-02
-1.928239464759826660e-01 -1.944595277309417725e-01 6.409426033496856689e-02
-1.925006806850433350e-01 -1.693383157253265381e-01 5.319173261523246765e-02
-1.922165900468826294e-01 -1.619638949632644653e-01 1.122122928500175476e-01
-1.434220671653747559e-01 1.938875950872898102e-02 1.888709217309951782e-01
-1.201048269867897034e-01 5.671256035566329956e-02 1.890789121389389038e-01
-9.908012300729751587e-02 -2.080582082271575928e-03 1.890552341938018799e-01
-1.328285634517669678e-01 4.990358650684356689e-02 1.887061744928359985e-01
-1.353739053010940552e-01 6.369892507791519165e-02 1.886923611164093018e-01
-1.157384514808654785e-01 2.772847563028335571e-02 1.889854222536087036e-01
-1.295610517263412476e-01 2.530920505523681641e-02 1.887674331665039062e-01
-7.004104554653167725e-02 3.875926882028579712e-02 1.890458315610885620e-01
-1.073628515005111694e-01 6.446288526058197021e-02 1.887453347444534302e-01
-7.898894697427749634e-02 -6.679370999336242676e-04 1.886873543262481689e-01
-1.028749570250511169e-01 3.366616740822792053e-02 1.889260411262512207e-01
-1.530732959508895874e-01 5.405171960592269897e-02 1.890934705734252930e-01
-1.496712565422058105e-01 3.152258694171905518e-03 1.893468201160430908e-01
-8.463352918624877930e-02 5.576632916927337646e-02 1.886290907859802246e-01
-9.121464192867279053e-02 1.144636794924736023e-02 1.890559345483779907e-01
-1.345493048429489136e-01 9.469669312238693237e-03 1.889594495296478271e-01
-1.401048451662063599e-01 3.273559361696243286e-02 1.889187693595886230e-01
-1.133287101984024048e-01 -1.123153790831565857e-02 1.891551613807678223e-01
-1.013659983873367310e-01 2.026916109025478363e-02 1.895177066326141357e-01
-8.302582800388336182e-02 2.582601644098758698e-02 1.889486014842987061e-01
-1.095964312553405762e-01 8.526571094989776611e-03 1.889369487762451172e-01
-1.020695269107818604e-01 4.977887868881225586e-02 1.886932849884033203e-01
-1.550814062356948853e-01 3.339413553476333618e-02 1.890328526496887207e-01
-1.143481284379959106e-01 4.186144471168518066e-02 1.889980435371398926e-01
-1.265020966529846191e-01 3.831068053841590881e-02 1.885884851217269897e-01
-6.518666446208953857e-02 1.611106097698211670e-02 1.891118586063385010e-01
-1.217839717864990234e-01 1.523660495877265930e-02 1.892057359218597412e-01
-1.240082383155822754e-01 2.206861972808837891e-05 1.886720061302185059e-01
-1.370235085487365723e-01 -8.017800748348236084e-03 1.885905712842941284e-01
-1.576219350099563599e-01 1.731362752616405487e-02 1.890859901905059814e-01
-1.439324170351028442e-01 4.428586363792419434e-02 1.888170540332794189e-01
-8.927346765995025635e-02 4.065913707017898560e-02 1.893336623907089233e-01
-1.940844058990478516e-01 -1.459733769297599792e-02 1.454228311777114868e-01
-1.939038038253784180e-01 8.491283282637596130e-03 1.290901005268096924e-01
-1.941068619489669800e-01 -2.617047354578971863e-02 1.414320766925811768e-01
-1.941834986209869385e-01 7.180094718933105469e-03 1.546504646539688110e-01
-1.940775513648986816e-01 1.666941493749618530e-02 1.373988389968872070e-01
-1.940333247184753418e-01 -1.599222794175148010e-02 1.740422844886779785e-01
-1.940346956253051758e-01 -9.582890197634696960e-03 1.650346666574478149e-01
-1.940817832946777344e-01 1.233324408531188965e-03 1.352919936180114746e-01
-1.937610954046249390e-01 1.467592641711235046e-02 1.638614535331726074e-01
-1.940584927797317505e-01 -3.888814151287078857e-02 1.602887064218521118e-01
-1.939636021852493286e-01 -9.474642574787139893e-03 1.521509885787963867e-01
-1.945367157459259033e-01 -3.156661987304687500e-04 1.490719914436340332e-01
-1.941358596086502075e-01 -3.041438013315200806e-02 1.693898439407348633e-01
-1.938729882240295410e-01 1.712306961417198181e-02 1.504571884870529175e-01
-1.941598355770111084e-01 -2.077460847795009613e-02 1.649479568004608154e-01
-1.940149515867233276e-01 -3.127136453986167908e-02 1.258772760629653931e-01
-1.941620111465454102e-01 -2.039577811956405640e-03 1.735123544931411743e-01
-1.941905468702316284e-01 -4.421249032020568848e-02 1.470612585544586182e-01
-1.940866112709045410e-01 -1.692023873329162598e-02 1.380141079425811768e-01
-1.940144300460815430e-01 -9.639690630137920380e-03 1.320455372333526611e-01
-1.939941793680191040e-01 -2.721162140369415283e-02 1.575426310300827026e-01
-1.939690113067626953e-01 7.457930594682693481e-03 1.435303092002868652e-01
-1.942753493785858154e-01 -1.581828854978084564e-02 1.573216915130615234e-01
-1.940103024244308472e-01 -6.344085559248924255e-03 1.416092514991760254e-01
-1.940505653619766235e-01 -3.710069693624973297e-03 1.587769091129302979e-01
-1.942133605480194092e-01 -2.158723026514053345e-02 1.499321460723876953e-01
-1.944291740655899048e-01 -1.621269434690475464e-02 1.239641085267066956e-01
-1.941801607608795166e-01 -3.269723057746887207e-02 1.491641849279403687e-01
-1.943458169698715210e-01 -3.688722848892211914e-02 1.364220380783081055e-01
-1.944660842418670654e-01 -2.308856882154941559e-02 1.316165179014205933e-01
-1.941088587045669556e-01 -2.309205010533332825e-03 1.246007308363914490e-01
-1.938082575798034668e-01 3.496648743748664856e-03 1.657181829214096069e-01
-1.178782731294631958e-01 -3.369693085551261902e-02 1.885553598403930664e-01
-9.594190865755081177e-02 2.233583480119705200e-03 1.888123005628585815e-01
-7.534369826316833496e-02 -5.360310524702072144e-02 1.882861405611038208e-01
-1.078040674328804016e-01 -4.056924954056739807e-03 1.883329004049301147e-01
-1.097494661808013916e-01 9.652230888605117798e-03 1.881102025508880615e-01
-9.182354807853698730e-02 -2.488594688475131989e-02 1.888786554336547852e-01
-1.044407859444618225e-01 -2.832813188433647156e-02 1.885915547609329224e-01
-4.781564325094223022e-02 -1.405280269682407379e-02 1.886321604251861572e-01
-8.339333534240722656e-02 1.002012565732002258e-02 1.885570585727691650e-01
-5.658634006977081299e-02 -4.958152770996093750e-02 1.885241866111755371e-01
-7.927872240543365479e-02 -1.915449276566505432e-02 1.886485219001770020e-01
-1.269753724336624146e-01 2.148784697055816650e-04 1.887381970882415771e-01
-1.236962601542472839e-01 -4.775767028331756592e-02 1.888492405414581299e-01
-6.213557720184326172e-02 1.866521313786506653e-03 1.884017586708068848e-01
-6.854145973920822144e-02 -3.993654623627662659e-02 1.885348409414291382e-01
-1.088290661573410034e-01 -4.215812310576438904e-02 1.884350180625915527e-01
-1.153062731027603149e-01 -2.155680209398269653e-02 1.888855993747711182e-01
-8.943967521190643311e-02 -6.082583963871002197e-02 1.886780261993408203e-01
-7.871598005294799805e-02 -3.168419003486633301e-02 1.890028715133666992e-01
-6.095029413700103760e-02 -2.653786353766918182e-02 1.886058002710342407e-01
-8.527128398418426514e-02 -4.305664449930191040e-02 1.884564012289047241e-01
-7.883997261524200439e-02 -4.113206639885902405e-03 1.883776485919952393e-01
-1.298446059226989746e-01 -1.862510666251182556e-02 1.888025701045989990e-01
-9.068311005830764771e-02 -1.180667988955974579e-02 1.886605024337768555e-01
-1.025326997041702271e-01 -1.602486148476600647e-02 1.885243654251098633e-01
-4.377456009387969971e-02 -3.415768593549728394e-02 1.885203272104263306e-01
-9.628333151340484619e-02 -3.695389255881309509e-02 1.823049783706665039e-01
-9.833727777004241943e-02 -4.991474002599716187e-02 1.881528794765472412e-01
-1.106500700116157532e-01 -5.826186016201972961e-02 1.881571412086486816e-01
-1.324256658554077148e-01 -3.383276611566543579e-02 1.887413263320922852e-01
-1.183341741561889648e-01 -9.894046932458877563e-03 1.882443130016326904e-01
-6.644748151302337646e-02 -1.246786490082740784e-02 1.889207214117050171e-01
-1.938422769308090210e-01 -1.377687752246856689e-01 8.599027246236801147e-02
-1.937201321125030518e-01 -1.140391826629638672e-01 6.776711344718933105e-02
-1.937241107225418091e-01 -1.489565074443817139e-01 8.165474236011505127e-02
-1.939542293548583984e-01 -1.154677420854568481e-01 9.613249450922012329e-02
-1.937816739082336426e-01 -1.060407981276512146e-01 7.699915766716003418e-02
-1.937259137630462646e-01 -1.386157870292663574e-01 1.176467612385749817e-01
-1.937692016363143921e-01 -1.321230232715606689e-01 1.076548695564270020e-01
-1.937711983919143677e-01 -1.215129867196083069e-01 7.486133277416229248e-02
-1.935324668884277344e-01 -1.078110486268997192e-01 1.058744341135025024e-01
-1.936398446559906006e-01 -1.622532308101654053e-01 1.018989384174346924e-01
-1.937195509672164917e-01 -1.321512311697006226e-01 9.307021647691726685e-02
-1.942632347345352173e-01 -1.228350698947906494e-01 8.975380659103393555e-02
-1.939404904842376709e-01 -1.536725163459777832e-01 1.125194132328033447e-01
-1.937399208545684814e-01 -1.052469462156295776e-01 9.109896421432495117e-02
-1.938850879669189453e-01 -1.435990035533905029e-01 1.074533015489578247e-01
-1.938203126192092896e-01 -1.543372869491577148e-01 6.416987627744674683e-02
-1.939903348684310913e-01 -1.245280727744102478e-01 1.170956045389175415e-01
-1.939441412687301636e-01 -1.675285398960113525e-01 8.725747466087341309e-02
-1.937986165285110474e-01 -1.398085951805114746e-01 7.775947451591491699e-02
-1.936250329017639160e-01 -1.324328631162643433e-01 7.130049169063568115e-02
-1.936626285314559937e-01 -1.503750681877136230e-01 9.965231269598007202e-02
-1.937803477048873901e-01 -1.149886772036552429e-01 8.376143127679824829e-02
-1.940296441316604614e-01 -1.385024338960647583e-01 9.914546459913253784e-02
-1.937049478292465210e-01 -1.290293633937835693e-01 8.181728422641754150e-02
-1.937803179025650024e-01 -1.262467205524444580e-01 1.002969890832901001e-01
-1.939536780118942261e-01 -1.446242481470108032e-01 9.124694764614105225e-02
-1.941079646348953247e-01 -1.388707906007766724e-01 6.203145533800125122e-02
-1.939325034618377686e-01 -1.558059453964233398e-01 8.997590094804763794e-02
-1.940461844205856323e-01 -1.597648411989212036e-01 7.610276341438293457e-02
-1.941891014575958252e-01 -1.460830122232437134e-01 7.055681198835372925e-02
-1.938917189836502075e-01 -1.251047104597091675e-01 6.258237361907958984e-02
-1.935339719057083130e-01 -1.191488131880760193e-01 1.082310378551483154e-01
-1.921078860759735107e-01 -2.342868149280548096e-01 7.704007625579833984e-02
-1.919823884963989258e-01 -1.810816228389739990e-01 7.042825222015380859e-03
-1.750642210245132446e-01 -2.751402556896209717e-01 4.581651836633682251e-02
-1.939764916896820068e-01 -1.730918586254119873e-01 1.082970201969146729e-01
-1.928941160440444946e-01 -1.650869846343994141e-01 3.925032168626785278e-02
-1.930751949548721313e-01 -2.368488609790802002e-01 1.818266808986663818e-01
-1.926965117454528809e-01 -2.210533916950225830e-01 1.488329172134399414e-01
-1.177368238568305969e-01 -1.997234523296356201e-01 3.466073796153068542e-02
-1.902163624763488770e-01 -1.685552000999450684e-01 1.563076674938201904e-01
-1.568098068237304688e-01 -2.908325791358947754e-01 1.367968618869781494e-01
-1.893526911735534668e-01 -2.187364697456359863e-01 1.105825379490852356e-01
-1.893250793218612671e-01 -1.995908617973327637e-01 8.917847275733947754e-02
-1.877121180295944214e-01 -2.759810686111450195e-01 1.661436557769775391e-01
-1.689853668212890625e-01 -1.649761497974395752e-01 1.029532030224800110e-01
-1.853744983673095703e-01 -2.500783205032348633e-01 1.473428905010223389e-01
-1.885006427764892578e-01 -2.791283726692199707e-01 -5.271896719932556152e-03
-1.914323568344116211e-01 -1.993915587663650513e-01 1.709735393524169922e-01
-1.828633844852447510e-01 -3.002530038356781006e-01 8.630664646625518799e-02
-1.731579899787902832e-01 -2.333997488021850586e-01 5.967161804437637329e-02
-1.701293289661407471e-01 -2.294502258300781250e-01 -7.469482719898223877e-03
-1.939970850944519043e-01 -2.556573748588562012e-01 9.852766245603561401e-02
-1.920405030250549316e-01 -1.848298162221908569e-01 6.800501048564910889e-02
-1.905702054500579834e-01 -2.417615801095962524e-01 1.242647916078567505e-01
-1.945985704660415649e-01 -2.111803144216537476e-01 4.708979278802871704e-02
-1.913951635360717773e-01 -1.960135996341705322e-01 1.334271430969238281e-01
-9.101255238056182861e-02 -2.572818994522094727e-01 8.771497011184692383e-02
-1.911585479974746704e-01 -2.429904937744140625e-01 -3.428059816360473633e-02
-1.912655830383300781e-01 -2.865498661994934082e-01 1.138954386115074158e-01
-1.912757307291030884e-01 -2.879905700683593750e-01 4.259960725903511047e-02
-1.884931921958923340e-01 -2.506111264228820801e-01 2.639384940266609192e-02
-1.895079612731933594e-01 -2.083861827850341797e-01 -1.318736374378204346e-02
-1.327018141746520996e-01 -2.058383673429489136e-01 1.569242030382156372e-01
-1.939204484224319458e-01 -2.076034247875213623e-01 4.753541573882102966e-02
-1.938106715679168701e-01 -1.839411258697509766e-01 3.052301332354545593e-02
-1.937801241874694824e-01 -2.189937233924865723e-01 4.336928576231002808e-02
-1.940422803163528442e-01 -1.853282749652862549e-01 5.712108686566352844e-02
-1.938840150833129883e-01 -1.761500090360641479e-01 3.931233286857604980e-02
-1.937641352415084839e-01 -2.084733545780181885e-01 7.774032652378082275e-02
-1.938176751136779785e-01 -2.021118402481079102e-01 6.815180927515029907e-02
-1.938451826572418213e-01 -1.914257556200027466e-01 3.716581314802169800e-02
-1.936143934726715088e-01 -1.780661940574645996e-01 6.690931320190429688e-02
-1.937367320060729980e-01 -2.313132137060165405e-01 6.297864019870758057e-02
-1.937965601682662964e-01 -2.021907567977905273e-01 5.431179329752922058e-02
-1.943587213754653931e-01 -1.929136961698532104e-01 5.126204341650009155e-02
-1.939592808485031128e-01 -2.229936867952346802e-01 7.271695137023925781e-02
-1.938260644674301147e-01 -1.754667311906814575e-01 5.265030264854431152e-02
-1.939401030540466309e-01 -2.134155482053756714e-01 6.779541075229644775e-02
-1.938884854316711426e-01 -2.239002138376235962e-01 2.711230702698230743e-02
-1.940300166606903076e-01 -1.944919973611831665e-01 7.696273922920227051e-02
-1.940273642539978027e-01 -2.361691743135452271e-01 4.905492067337036133e-02
-1.938542723655700684e-01 -2.095632404088973999e-01 3.978542238473892212e-02
-1.937069743871688843e-01 -2.023575752973556519e-01 3.347552567720413208e-02
-1.937200725078582764e-01 -2.197989672422409058e-01 6.018600612878799438e-02
-1.938614398241043091e-01 -1.851807832717895508e-01 4.587578028440475464e-02
-1.940683424472808838e-01 -2.084070593118667603e-01 6.008455529808998108e-02
-1.937809288501739502e-01 -1.989314109086990356e-01 4.361522197723388672e-02
-1.938401758670806885e-01 -1.962455809116363525e-01 6.111040338873863220e-02
-1.939996331930160522e-01 -2.143990248441696167e-01 5.236406251788139343e-02
-1.942041665315628052e-01 -2.089303135871887207e-01 2.477209642529487610e-02
-1.940232962369918823e-01 -2.254234999418258667e-01 5.154161900281906128e-02
-1.940882802009582520e-01 -2.293202728033065796e-01 3.817491605877876282e-02
-1.942355483770370483e-01 -2.158035635948181152e-01 3.314808756113052368e-02
-1.939723789691925049e-01 -1.949535310268402100e-01 2.551022544503211975e-02
-1.935925334692001343e-01 -1.892465054988861084e-01 6.838492304086685181e-02
-1.935872733592987061e-01 -3.651024401187896729e-01 -3.237241134047508240e-02
-1.935090422630310059e-01 -3.427680730819702148e-01 -5.028180778026580811e-02
-1.934897601604461670e-01 -3.766298294067382812e-01 -3.678147494792938232e-02
-1.936089694499969482e-01 -3.439950048923492432e-01 -2.173901535570621490e-02
-1.934802383184432983e-01 -3.356190919876098633e-01 -4.051863774657249451e-02
-1.933953016996383667e-01 -3.657756149768829346e-01 8.313581347465515137e-04
-1.934192776679992676e-01 -3.599012196063995361e-01 -9.275225922465324402e-03
-1.934203058481216431e-01 -3.499398231506347656e-01 -4.355955123901367188e-02
-1.931430250406265259e-01 -3.375985026359558105e-01 -9.890953078866004944e-03
-1.934538334608078003e-01 -3.883206248283386230e-01 -1.500397548079490662e-02
-1.934179812669754028e-01 -3.601389825344085693e-01 -2.472122758626937866e-02
-1.939668208360671997e-01 -3.514123260974884033e-01 -2.803453989326953888e-02
-1.936112195253372192e-01 -3.797655403614044189e-01 -4.669470712542533875e-03
-1.933857500553131104e-01 -3.352688848972320557e-01 -2.637932263314723969e-02
-1.936146616935729980e-01 -3.708487451076507568e-01 -1.039802283048629761e-02
-1.936322450637817383e-01 -3.807828724384307861e-01 -5.433400347828865051e-02
-1.936272382736206055e-01 -3.525143861770629883e-01 -7.744021713733673096e-04
-1.936961412429809570e-01 -3.939079046249389648e-01 -3.078261762857437134e-02
-1.935654878616333008e-01 -3.666955828666687012e-01 -4.076098650693893433e-02
-1.933059096336364746e-01 -3.601316511631011963e-01 -4.818730056285858154e-02
-1.933616846799850464e-01 -3.763772845268249512e-01 -1.912729442119598389e-02
-1.935033798217773438e-01 -3.442895114421844482e-01 -3.356014937162399292e-02
-1.936973929405212402e-01 -3.658218681812286377e-01 -1.796611398458480835e-02
-1.933981478214263916e-01 -3.567526638507843018e-01 -3.654377907514572144e-02
-1.934559941291809082e-01 -3.546067178249359131e-01 -1.763650774955749512e-02
-1.937025189399719238e-01 -3.715329468250274658e-01 -2.727753482758998871e-02
-1.938832253217697144e-01 -3.666579127311706543e-01 -5.784303694963455200e-02
-1.937009841203689575e-01 -3.828152716159820557e-01 -2.711510099470615387e-02
-1.937129944562911987e-01 -3.872620165348052979e-01 -4.282737895846366882e-02
-1.938958764076232910e-01 -3.728105723857879639e-01 -4.762578383088111877e-02
-1.936458349227905273e-01 -3.529436290264129639e-01 -5.633211135864257812e-02
-1.931360960006713867e-01 -3.480523526668548584e-01 -1.054763421416282654e-02
-1.926405727863311768e-01 -2.844551801681518555e-01 1.742006838321685791e-02
-1.923344135284423828e-01 -2.447386980056762695e-01 -1.833287626504898071e-02
-1.916408389806747437e-01 -3.022183477878570557e-01 9.620696306228637695e-03
-1.926231086254119873e-01 -2.476493567228317261e-01 3.529045730829238892e-02
-1.922722160816192627e-01 -2.333477437496185303e-01 -5.952566862106323242e-04
-1.921039968729019165e-01 -2.858533263206481934e-01 7.808437943458557129e-02
-1.925373524427413940e-01 -2.757255136966705322e-01 5.898017808794975281e-02
-1.922365278005599976e-01 -2.593097090721130371e-01 -6.083793938159942627e-03
-1.919146776199340820e-01 -2.353564202785491943e-01 5.769940465688705444e-02
-1.911990791559219360e-01 -3.210043907165527344e-01 4.782152920961380005e-02
-1.923669725656509399e-01 -2.742891311645507812e-01 3.082780353724956512e-02
-1.928808391094207764e-01 -2.589519023895263672e-01 2.400588989257812500e-02
-1.930012702941894531e-01 -3.087770938873291016e-01 6.796753406524658203e-02
-1.922218352556228638e-01 -2.334176003932952881e-01 2.615237236022949219e-02
-1.923279017210006714e-01 -2.936646044254302979e-01 5.780281871557235718e-02
-1.925614178180694580e-01 -3.093817234039306641e-01 -2.536842226982116699e-02
-1.925760209560394287e-01 -2.640444040298461914e-01 7.505664229393005371e-02
-1.919297128915786743e-01 -3.282426595687866211e-01 1.834863983094692230e-02
-1.921597123146057129e-01 -2.871121466159820557e-01 1.507816836237907410e-03
-1.922581344842910767e-01 -2.768649458885192871e-01 -1.326428353786468506e-02
-1.920673996210098267e-01 -3.030657470226287842e-01 4.243226349353790283e-02
-1.925684809684753418e-01 -2.480076104402542114e-01 1.316643878817558289e-02
-1.927824765443801880e-01 -2.846689820289611816e-01 4.308901727199554443e-02
-1.922932565212249756e-01 -2.692613005638122559e-01 8.597780019044876099e-03
-1.922162324190139771e-01 -2.646722495555877686e-01 4.435520991683006287e-02
-1.921736747026443481e-01 -2.945722639560699463e-01 2.792833000421524048e-02
-1.925943344831466675e-01 -2.876050174236297607e-01 -3.103218972682952881e-02
-1.925135105848312378e-01 -3.122516274452209473e-01 2.653279528021812439e-02
-1.927763968706130981e-01 -3.171389698982238770e-01 -1.982685178518295288e-03
-1.933340728282928467e-01 -2.978108525276184082e-01 -1.191676780581474304e-02
-1.926053315401077271e-01 -2.643050253391265869e-01 -2.926786243915557861e-02
-1.921655535697937012e-01 -2.542472481727600098e-01 5.859420076012611389e-02
-4.865904152393341064e-02 -1.631609648466110229e-01 1.872940659523010254e-01
-2.800005301833152771e-02 -1.191283464431762695e-01 1.877090930938720703e-01
-8.908897638320922852e-03 -1.865812540054321289e-01 1.869964152574539185e-01
-3.946601599454879761e-02 -1.260830014944076538e-01 1.872770339250564575e-01
-4.081758111715316772e-02 -1.104179918766021729e-01 1.869903504848480225e-01
-2.435385435819625854e-02 -1.527923494577407837e-01 1.874042004346847534e-01
-3.617781028151512146e-02 -1.560478061437606812e-01 1.873057186603546143e-01
1.236528903245925903e-02 -1.397935003042221069e-01 1.874956041574478149e-01
-1.612546667456626892e-02 -1.096597313880920410e-01 1.876756697893142700e-01
6.615474820137023926e-03 -1.837939321994781494e-01 1.871326416730880737e-01
-1.223975047469139099e-02 -1.459483653306961060e-01 1.875970363616943359e-01
-5.699053406715393066e-02 -1.222275048494338989e-01 1.876251995563507080e-01
-5.417906865477561951e-02 -1.803053319454193115e-01 1.871635764837265015e-01
1.411136239767074585e-03 -1.196556687355041504e-01 1.876012384891510010e-01
-3.854613751173019409e-03 -1.703602820634841919e-01 1.868597269058227539e-01
-3.963835537433624268e-02 -1.742628216743469238e-01 1.871945410966873169e-01
-4.757288470864295959e-02 -1.482500582933425903e-01 1.876507699489593506e-01
-2.174375951290130615e-02 -1.970521509647369385e-01 1.869878470897674561e-01
-1.389144547283649445e-02 -1.611775606870651245e-01 1.875399202108383179e-01
1.199230551719665527e-03 -1.545361429452896118e-01 1.875636130571365356e-01
-1.821367628872394562e-02 -1.747691333293914795e-01 1.869051009416580200e-01
-1.402802765369415283e-02 -1.268053501844406128e-01 1.874160766601562500e-01
-6.119915097951889038e-02 -1.455445736646652222e-01 1.875244826078414917e-01
-2.329153940081596375e-02 -1.374415010213851929e-01 1.875022351741790771e-01
-3.527392446994781494e-02 -1.407117098569869995e-01 1.874599158763885498e-01
1.424781978130340576e-02 -1.649678647518157959e-01 1.870581060647964478e-01
-2.858212031424045563e-02 -1.662450134754180908e-01 1.788566112518310547e-01
-2.909828349947929382e-02 -1.831757575273513794e-01 1.865494549274444580e-01
-4.076232016086578369e-02 -1.929105371236801147e-01 1.867168694734573364e-01
-6.206361949443817139e-02 -1.641591787338256836e-01 1.875016987323760986e-01
-4.987400397658348083e-02 -1.345189362764358521e-01 1.865991652011871338e-01
-2.747010439634323120e-03 -1.359104067087173462e-01 1.875424087047576904e-01
-1.939410418272018433e-01 1.118974238634109497e-01 1.717423051595687866e-01
-1.938584446907043457e-01 1.439661681652069092e-01 1.653793305158615112e-01
-1.946344077587127686e-01 8.997538685798645020e-02 1.713278740644454956e-01
-1.939634680747985840e-01 1.428629308938980103e-01 1.827777028083801270e-01
-1.941839903593063354e-01 1.570663005113601685e-01 1.711115986108779907e-01
-1.834052205085754395e-01 1.061738878488540649e-01 1.867802888154983521e-01
-1.923572272062301636e-01 1.154835075139999390e-01 1.860612779855728149e-01
-1.944097429513931274e-01 1.309327781200408936e-01 1.774607896804809570e-01
-1.929440200328826904e-01 1.535657942295074463e-01 1.848437190055847168e-01
-1.921766102313995361e-01 7.370302081108093262e-02 1.853100955486297607e-01
-1.943697482347488403e-01 1.176988109946250916e-01 1.798043102025985718e-01
-1.946513801813125610e-01 1.324840784072875977e-01 1.761708259582519531e-01
-1.929906904697418213e-01 8.676807582378387451e-02 1.860875487327575684e-01
-1.929577440023422241e-01 1.499738544225692749e-01 1.833024024963378906e-01
-1.930117607116699219e-01 1.013760864734649658e-01 1.858906894922256470e-01
-1.943653076887130737e-01 8.557431399822235107e-02 1.627068221569061279e-01
-1.857491582632064819e-01 1.220404505729675293e-01 1.872001886367797852e-01
-1.941175162792205811e-01 6.195123493671417236e-02 1.797796785831451416e-01
-1.945056021213531494e-01 1.037906929850578308e-01 1.762481033802032471e-01
-1.944374591112136841e-01 1.171434372663497925e-01 1.614830940961837769e-01
-1.941426396369934082e-01 9.268862009048461914e-02 1.809755861759185791e-01
-1.943420469760894775e-01 1.381480544805526733e-01 1.791995167732238770e-01
-1.939515173435211182e-01 1.087364926934242249e-01 1.843854933977127075e-01
-1.938273608684539795e-01 1.219468265771865845e-01 1.699149012565612793e-01
-1.933744698762893677e-01 1.250806748867034912e-01 1.842323988676071167e-01
-1.914080977439880371e-01 9.588725864887237549e-02 1.829227656126022339e-01
-1.948311924934387207e-01 1.048229262232780457e-01 1.588493138551712036e-01
-1.942782700061798096e-01 8.153105527162551880e-02 1.768280118703842163e-01
-1.943124085664749146e-01 7.138793915510177612e-02 1.691737473011016846e-01
-1.947306543588638306e-01 9.852467477321624756e-02 1.661604791879653931e-01
-1.944931894540786743e-01 1.301932334899902344e-01 1.603088378906250000e-01
-1.880144625902175903e-01 1.367166042327880859e-01 1.870984435081481934e-01
-1.862858533859252930e-01 1.383725106716156006e-01 1.880775541067123413e-01
-1.722384095191955566e-01 1.798061281442642212e-01 1.885464936494827271e-01
-1.562820822000503540e-01 1.172482147812843323e-01 1.884596496820449829e-01
-1.826451271772384644e-01 1.741217523813247681e-01 1.878794729709625244e-01
-1.849858611822128296e-01 1.881882548332214355e-01 1.878228932619094849e-01
-1.694991290569305420e-01 1.439848095178604126e-01 1.882465481758117676e-01
-1.805953383445739746e-01 1.475529074668884277e-01 1.880559623241424561e-01
-1.205516606569290161e-01 1.554119139909744263e-01 1.882007718086242676e-01
-1.591625809669494629e-01 1.884197592735290527e-01 1.882654130458831787e-01
-1.354187875986099243e-01 1.125609949231147766e-01 1.880980283021926880e-01
-1.567436307668685913e-01 1.506558358669281006e-01 1.885598301887512207e-01
-1.905633211135864258e-01 1.729603111743927002e-01 1.876535117626190186e-01
-1.900175064802169800e-01 1.203733831644058228e-01 1.877495348453521729e-01
-1.374247521162033081e-01 1.770981103181838989e-01 1.880537420511245728e-01
-1.449020206928253174e-01 1.288851052522659302e-01 1.883284449577331543e-01
-1.834949254989624023e-01 1.242965087294578552e-01 1.884023845195770264e-01
-1.865210235118865967e-01 1.544559001922607422e-01 1.875990331172943115e-01
-1.672316938638687134e-01 1.028402000665664673e-01 1.888689994812011719e-01
-1.556468456983566284e-01 1.378170102834701538e-01 1.889182776212692261e-01
-1.332983374595642090e-01 1.430136561393737793e-01 1.883789002895355225e-01
-1.662781983613967896e-01 1.269696205854415894e-01 1.884593069553375244e-01
-1.568591445684432983e-01 1.704353839159011841e-01 1.882132589817047119e-01
-1.911776065826416016e-01 1.476476192474365234e-01 1.874614059925079346e-01
-1.672000735998153687e-01 1.588318645954132080e-01 1.884755492210388184e-01
-1.773028373718261719e-01 1.624758541584014893e-01 1.880698502063751221e-01
-1.172503679990768433e-01 1.287078708410263062e-01 1.881144344806671143e-01
-1.764676868915557861e-01 1.330409497022628784e-01 1.886050552129745483e-01
-1.758845150470733643e-01 1.144880130887031555e-01 1.882519870996475220e-01
-1.868913471698760986e-01 1.058735102415084839e-01 1.876795291900634766e-01
-1.908651888370513916e-01 1.318934261798858643e-01 1.876835823059082031e-01
-1.885137408971786499e-01 1.629681587219238281e-01 1.876948326826095581e-01
-1.428902000188827515e-01 1.609314978122711182e-01 1.882663965225219727e-01
-1.940974891185760498e-01 7.601413875818252563e-02 1.545096188783645630e-01
-1.937813460826873779e-01 1.044398844242095947e-01 1.381917893886566162e-01
-1.942250430583953857e-01 6.065284460783004761e-02 1.509661227464675903e-01
-1.941989660263061523e-01 1.024697199463844299e-01 1.636180132627487183e-01
-1.940944194793701172e-01 1.152056902647018433e-01 1.465993374586105347e-01
-1.940815150737762451e-01 7.323230057954788208e-02 1.804662346839904785e-01
-1.940427124500274658e-01 8.076496422290802002e-02 1.726440489292144775e-01
-1.940367072820663452e-01 9.474046528339385986e-02 1.440579593181610107e-01
-1.936604380607604980e-01 1.123145222663879395e-01 1.718330532312393188e-01
-1.942363679409027100e-01 4.594997689127922058e-02 1.687426418066024780e-01
-1.939630061388015747e-01 8.185477554798126221e-02 1.612806916236877441e-01
-1.945340931415557861e-01 9.318564832210540771e-02 1.581724584102630615e-01
-1.940464228391647339e-01 5.629553645849227905e-02 1.764805018901824951e-01
-1.936444789171218872e-01 1.139827370643615723e-01 1.593804359436035156e-01
-1.941989362239837646e-01 6.747378408908843994e-02 1.729318201541900635e-01
-1.940661370754241943e-01 5.493169650435447693e-02 1.353054791688919067e-01
-1.940214633941650391e-01 8.958750963211059570e-02 1.802871227264404297e-01
-1.941142082214355469e-01 3.916578367352485657e-02 1.562329679727554321e-01
-1.940950006246566772e-01 7.231549173593521118e-02 1.473158001899719238e-01
-1.940906196832656860e-01 8.119641244411468506e-02 1.415096521377563477e-01
-1.940595209598541260e-01 6.015868112444877625e-02 1.658809185028076172e-01
-1.939071565866470337e-01 1.021371483802795410e-01 1.521909981966018677e-01
-1.942053884267807007e-01 7.376030087471008301e-02 1.654699444770812988e-01
-1.940620988607406616e-01 8.562880754470825195e-02 1.506830006837844849e-01
-1.940596103668212891e-01 8.875840902328491211e-02 1.676783859729766846e-01
-1.942515522241592407e-01 6.699816882610321045e-02 1.584344506263732910e-01
-1.945667415857315063e-01 7.267624139785766602e-02 1.335626393556594849e-01
-1.941998302936553955e-01 5.304601415991783142e-02 1.580251455307006836e-01
-1.944224089384078979e-01 4.774523526430130005e-02 1.455521881580352783e-01
-1.945337653160095215e-01 6.475917249917984009e-02 1.410230994224548340e-01
-1.941567659378051758e-01 9.048809111118316650e-02 1.341446042060852051e-01
-1.937919557094573975e-01 9.768921136856079102e-02 1.741725206375122070e-01
-1.938595771789550781e-01 -6.229216605424880981e-02 9.271420538425445557e-02
-1.937758475542068481e-01 -3.931742161512374878e-02 7.530665397644042969e-02
-1.937267333269119263e-01 -7.313868403434753418e-02 8.875776827335357666e-02
-1.939765363931655884e-01 -4.073354229331016541e-02 1.022776961326599121e-01
-1.938869655132293701e-01 -3.173856437206268311e-02 8.421970903873443604e-02
-1.937635540962219238e-01 -6.307922303676605225e-02 1.218400150537490845e-01
-1.937549859285354614e-01 -5.682175606489181519e-02 1.128297224640846252e-01
-1.936943382024765015e-01 -4.648637026548385620e-02 8.211575448513031006e-02
-1.935449242591857910e-01 -3.336419537663459778e-02 1.108459457755088806e-01
-1.936911344528198242e-01 -8.619531989097595215e-02 1.074579879641532898e-01
-1.937142610549926758e-01 -5.684558302164077759e-02 9.931241720914840698e-02
-1.943156272172927856e-01 -4.786735773086547852e-02 9.619870781898498535e-02
-1.939568817615509033e-01 -7.775044441223144531e-02 1.173377335071563721e-01
-1.937330812215805054e-01 -3.085369057953357697e-02 9.744469821453094482e-02
-1.938791573047637939e-01 -6.795971840620040894e-02 1.128283813595771790e-01
-1.938842833042144775e-01 -7.848747819662094116e-02 7.190416753292083740e-02
-1.940789222717285156e-01 -4.945249855518341064e-02 1.214901953935623169e-01
-1.940087080001831055e-01 -9.118691086769104004e-02 9.389715641736984253e-02
-1.938124895095825195e-01 -6.425004452466964722e-02 8.486221730709075928e-02
-1.935602277517318726e-01 -5.705251917243003845e-02 7.883080095052719116e-02
-1.936946660280227661e-01 -7.456671446561813354e-02 1.057830899953842163e-01
-1.937668025493621826e-01 -4.020620882511138916e-02 9.057686477899551392e-02
-1.940695792436599731e-01 -6.298029422760009766e-02 1.050080135464668274e-01
-1.936621069908142090e-01 -5.380789935588836670e-02 8.871705830097198486e-02
-1.938011944293975830e-01 -5.116061866283416748e-02 1.060104966163635254e-01
-1.938963532447814941e-01 -6.889843195676803589e-02 9.774246066808700562e-02
-1.941147297620773315e-01 -6.330723315477371216e-02 6.986278295516967773e-02
-1.939089596271514893e-01 -7.987255603075027466e-02 9.633943438529968262e-02
-1.940692514181137085e-01 -8.369266241788864136e-02 8.331423997879028320e-02
-1.942353248596191406e-01 -7.031824439764022827e-02 7.800985127687454224e-02
-1.939365863800048828e-01 -4.994410276412963867e-02 7.040945440530776978e-02
-1.935351192951202393e-01 -4.427312687039375305e-02 1.135582700371742249e-01
-7.420268654823303223e-02 -8.722426742315292358e-02 1.882718503475189209e-01
-5.208999291062355042e-02 -4.589109122753143311e-02 1.886982321739196777e-01
-3.147173300385475159e-02 -1.091490387916564941e-01 1.885526031255722046e-01
-6.466528773307800293e-02 -5.227248370647430420e-02 1.875164806842803955e-01
-6.716593354940414429e-02 -3.717764839529991150e-02 1.879772394895553589e-01
-4.831431806087493896e-02 -7.844339311122894287e-02 1.890913546085357666e-01
-5.989262461662292480e-02 -8.136943727731704712e-02 1.881993412971496582e-01
-3.824450075626373291e-03 -6.443909555673599243e-02 1.894122809171676636e-01
-3.892243653535842896e-02 -3.687961399555206299e-02 1.888097375631332397e-01
-1.260990649461746216e-02 -1.061071157455444336e-01 1.884084790945053101e-01
-3.526460379362106323e-02 -7.063535600900650024e-02 1.878971159458160400e-01
-8.540548384189605713e-02 -4.879976436495780945e-02 1.884802728891372681e-01
-8.113415539264678955e-02 -1.033037379384040833e-01 1.884513050317764282e-01
-1.796635612845420837e-02 -4.586470499634742737e-02 1.880454570055007935e-01
-2.483762428164482117e-02 -9.389621019363403320e-02 1.879500001668930054e-01
-6.492819637060165405e-02 -9.743648022413253784e-02 1.877209991216659546e-01
-7.255004346370697021e-02 -7.313241809606552124e-02 1.890949308872222900e-01
-4.548713564872741699e-02 -1.180951520800590515e-01 1.879755854606628418e-01
-3.514843434095382690e-02 -8.439786732196807861e-02 1.884014159440994263e-01
-1.794014871120452881e-02 -7.895913720130920410e-02 1.875447481870651245e-01
-4.264197126030921936e-02 -9.638535976409912109e-02 1.875732541084289551e-01
-3.590937331318855286e-02 -5.321627482771873474e-02 1.878302991390228271e-01
-8.797667920589447021e-02 -7.072600722312927246e-02 1.883684694766998291e-01
-4.751237109303474426e-02 -6.322683393955230713e-02 1.883398890495300293e-01
-5.905951559543609619e-02 -6.655208021402359009e-02 1.883298158645629883e-01
-5.348250269889831543e-04 -8.875654637813568115e-02 1.878469437360763550e-01
-5.167691409587860107e-02 -8.677303045988082886e-02 1.439762264490127563e-01
-5.417392775416374207e-02 -1.039954125881195068e-01 1.874210089445114136e-01
-6.693522632122039795e-02 -1.149181798100471497e-01 1.886426955461502075e-01
-9.034517407417297363e-02 -8.796380460262298584e-02 1.892666220664978027e-01
-7.545623928308486938e-02 -6.062041595578193665e-02 1.820059865713119507e-01
-2.224269509315490723e-02 -6.228437274694442749e-02 1.884707063436508179e-01
-1.937085539102554321e-01 -2.759361565113067627e-01 -1.097212824970483780e-02
-1.936419606208801270e-01 -2.523496150970458984e-01 -2.790652588009834290e-02
-1.936127692461013794e-01 -2.872143089771270752e-01 -1.519038248807191849e-02
-1.938002258539199829e-01 -2.537757158279418945e-01 -1.621766015887260437e-03
-1.936803162097930908e-01 -2.446844130754470825e-01 -1.899579539895057678e-02
-1.935563385486602783e-01 -2.767549753189086914e-01 1.882443577051162720e-02
-1.935589015483856201e-01 -2.704803645610809326e-01 9.511305950582027435e-03
-1.935874968767166138e-01 -2.598168551921844482e-01 -2.142741158604621887e-02
-1.933842152357101440e-01 -2.465918809175491333e-01 8.418022654950618744e-03
-1.936106979846954346e-01 -2.992295920848846436e-01 4.638251848518848419e-03
-1.935838609933853149e-01 -2.705748975276947021e-01 -4.099768586456775665e-03
-1.941158324480056763e-01 -2.613953351974487305e-01 -7.132017053663730621e-03
-1.937095820903778076e-01 -2.909865677356719971e-01 1.391881238669157028e-02
-1.935861110687255859e-01 -2.440020740032196045e-01 -5.656292196363210678e-03
-1.937470287084579468e-01 -2.816485464572906494e-01 9.140125475823879242e-03
-1.937257051467895508e-01 -2.919470667839050293e-01 -3.134341910481452942e-02
-1.937799602746963501e-01 -2.628937959671020508e-01 1.799194887280464172e-02
-1.938752084970474243e-01 -3.039911985397338867e-01 -9.344398975372314453e-03
-1.936836987733840942e-01 -2.777572274208068848e-01 -1.868532225489616394e-02
-1.934628635644912720e-01 -2.706983089447021484e-01 -2.516511827707290649e-02
-1.935127228498458862e-01 -2.878625094890594482e-01 1.407285220921039581e-03
-1.936376243829727173e-01 -2.537201344966888428e-01 -1.226747874170541763e-02
-1.938187777996063232e-01 -2.766915559768676758e-01 1.605733763426542282e-03
-1.935397386550903320e-01 -2.672843933105468750e-01 -1.483590528368949890e-02
-1.936212182044982910e-01 -2.647021710872650146e-01 2.682510763406753540e-03
-1.937919706106185913e-01 -2.825669944286346436e-01 -6.187254562973976135e-03
-1.940141916275024414e-01 -2.772471308708190918e-01 -3.389731794595718384e-02
-1.938408017158508301e-01 -2.934763431549072266e-01 -6.846983917057514191e-03
-1.938686370849609375e-01 -2.974624037742614746e-01 -2.045817673206329346e-02
-1.939989626407623291e-01 -2.839131951332092285e-01 -2.532115951180458069e-02
-1.937593519687652588e-01 -2.633080184459686279e-01 -3.297912329435348511e-02
-1.933746337890625000e-01 -2.577563822269439697e-01 9.624850936233997345e-03
-1.939942687749862671e-01 -1.654654145240783691e-01 4.504034668207168579e-02
-1.938994526863098145e-01 -1.421476006507873535e-01 2.885559387505054474e-02
-1.938962638378143311e-01 -1.771706193685531616e-01 4.108595475554466248e-02
-1.941267102956771851e-01 -1.434861868619918823e-01 5.432481318712234497e-02
-1.940061748027801514e-01 -1.343215107917785645e-01 3.718050941824913025e-02
-1.938665658235549927e-01 -1.665255874395370483e-01 7.350745052099227905e-02
-1.939210146665573120e-01 -1.602236032485961914e-01 6.453646719455718994e-02
-1.939367055892944336e-01 -1.494979262351989746e-01 3.518505021929740906e-02
-1.937106549739837646e-01 -1.363057941198348999e-01 6.335037946701049805e-02
-1.938673406839370728e-01 -1.895267069339752197e-01 5.972712859511375427e-02
-1.938802450895309448e-01 -1.602160334587097168e-01 5.157382041215896606e-02
-1.944515407085418701e-01 -1.510464847087860107e-01 4.861567541956901550e-02
-1.940261572599411011e-01 -1.810474246740341187e-01 6.882866472005844116e-02
-1.938980966806411743e-01 -1.337766945362091064e-01 4.992904886603355408e-02
-1.940533816814422607e-01 -1.714988797903060913e-01 6.427213549613952637e-02
-1.939781457185745239e-01 -1.820142269134521484e-01 2.558933757245540619e-02
-1.941214501857757568e-01 -1.526780873537063599e-01 7.284374535083770752e-02
-1.941070556640625000e-01 -1.948052644729614258e-01 4.653793573379516602e-02
-1.939553767442703247e-01 -1.676373630762100220e-01 3.764188289642333984e-02
-1.937852799892425537e-01 -1.603781431913375854e-01 3.170405700802803040e-02
-1.938214302062988281e-01 -1.778054386377334595e-01 5.702048912644386292e-02
-1.939422935247421265e-01 -1.433857083320617676e-01 4.333456605672836304e-02
-1.941626816987991333e-01 -1.664682477712631226e-01 5.690746009349822998e-02
-1.938670426607131958e-01 -1.570136100053787231e-01 4.133232682943344116e-02
-1.939416080713272095e-01 -1.543213427066802979e-01 5.798665434122085571e-02
-1.940809339284896851e-01 -1.724436134099960327e-01 4.951561242341995239e-02
-1.942953169345855713e-01 -1.670239716768264771e-01 2.347137592732906342e-02
-1.941089034080505371e-01 -1.836244761943817139e-01 4.882817342877388000e-02
-1.941903680562973022e-01 -1.877726316452026367e-01 3.606129437685012817e-02
-1.943302154541015625e-01 -1.738786995410919189e-01 3.137084841728210449e-02
-1.940588802099227905e-01 -1.530378609895706177e-01 2.419100701808929443e-02
-1.936925947666168213e-01 -1.473652124404907227e-01 6.487351655960083008e-02
-1.936089694499969482e-01 -3.231590688228607178e-01 -3.496015071868896484e-02
-1.935836225748062134e-01 -2.989040017127990723e-01 -5.270294472575187683e-02
-1.935125738382339478e-01 -3.343755602836608887e-01 -3.942624852061271667e-02
-1.937162727117538452e-01 -3.003781139850616455e-01 -2.552550658583641052e-02
-1.936087608337402344e-01 -2.910392582416534424e-01 -4.339843243360519409e-02
-1.934715807437896729e-01 -3.238313496112823486e-01 -4.193820059299468994e-03
-1.934562027454376221e-01 -3.174073994159698486e-01 -1.370946504175662994e-02
-1.934851855039596558e-01 -3.066195249557495117e-01 -4.592822119593620300e-02
-1.933141499757766724e-01 -2.929587066173553467e-01 -1.498537883162498474e-02
-1.935087740421295166e-01 -3.466951549053192139e-01 -1.892345771193504333e-02
-1.934934705495834351e-01 -3.174859285354614258e-01 -2.788961119949817657e-02
-1.940257996320724487e-01 -3.080203533172607422e-01 -3.102156147360801697e-02
-1.936481446027755737e-01 -3.383889794349670410e-01 -9.195536375045776367e-03
-1.935496032238006592e-01 -2.903400361537933350e-01 -2.948569506406784058e-02
-1.936669349670410156e-01 -3.288199603557586670e-01 -1.402330771088600159e-02
-1.936537772417068481e-01 -3.392162919044494629e-01 -5.628862604498863220e-02
-1.937197148799896240e-01 -3.097177147865295410e-01 -4.878865554928779602e-03
-1.937759220600128174e-01 -3.515019714832305908e-01 -3.338530287146568298e-02
-1.935759484767913818e-01 -3.249031007289886475e-01 -4.295878112316131592e-02
-1.933578550815582275e-01 -3.177171647548675537e-01 -4.974946752190589905e-02
-1.934099644422531128e-01 -3.352652788162231445e-01 -2.201708033680915833e-02
-1.935964971780776978e-01 -3.002728521823883057e-01 -3.619243949651718140e-02
-1.937277466058731079e-01 -3.236936926841735840e-01 -2.190430648624897003e-02
-1.934258937835693359e-01 -3.141815960407257080e-01 -3.899109363555908203e-02
-1.935306489467620850e-01 -3.114901781082153320e-01 -2.075183019042015076e-02
-1.937032788991928101e-01 -3.297791779041290283e-01 -2.982257120311260223e-02
-1.939093321561813354e-01 -3.243235945701599121e-01 -5.885816738009452820e-02
-1.937537491321563721e-01 -3.407477140426635742e-01 -3.077336587011814117e-02
-1.937644481658935547e-01 -3.447482883930206299e-01 -4.481339454650878906e-02
-1.938836127519607544e-01 -3.311078250408172607e-01 -4.996553808450698853e-02
-1.936781555414199829e-01 -3.101350963115692139e-01 -5.800279229879379272e-02
-1.932769268751144409e-01 -3.044350743293762207e-01 -1.349166873842477798e-02
5.587839335203170776e-02 -3.233364224433898926e-01 1.806081235408782959e-01
7.692676782608032227e-02 -2.806265354156494141e-01 1.807060241699218750e-01
9.509387612342834473e-02 -3.463143706321716309e-01 1.804935634136199951e-01
6.523825973272323608e-02 -2.874065041542053223e-01 1.807397305965423584e-01
6.348569691181182861e-02 -2.724999189376831055e-01 1.804694533348083496e-01
7.995069026947021484e-02 -3.137827813625335693e-01 1.805042922496795654e-01
6.814089417457580566e-02 -3.163595199584960938e-01 1.804929971694946289e-01
1.157361492514610291e-01 -3.007709980010986328e-01 1.805917471647262573e-01
8.828466385602951050e-02 -2.712746858596801758e-01 1.809091567993164062e-01
1.094554737210273743e-01 -3.439627587795257568e-01 1.804586350917816162e-01
9.224374592304229736e-02 -3.069055378437042236e-01 1.811393946409225464e-01
4.729383438825607300e-02 -2.838136255741119385e-01 1.808241158723831177e-01
5.046162009239196777e-02 -3.401587307453155518e-01 1.801392436027526855e-01
1.052002608776092529e-01 -2.809078693389892578e-01 1.810814738273620605e-01
9.978990256786346436e-02 -3.306561708450317383e-01 1.802194565534591675e-01
6.486555933952331543e-02 -3.343384265899658203e-01 1.806421130895614624e-01
5.705882608890533447e-02 -3.088049590587615967e-01 1.806717664003372192e-01
8.278887718915939331e-02 -3.563683032989501953e-01 1.807156354188919067e-01
9.037073701620101929e-02 -3.215992748737335205e-01 1.807731539011001587e-01
1.050524786114692688e-01 -3.153107166290283203e-01 1.810135990381240845e-01
8.575304597616195679e-02 -3.349502086639404297e-01 1.803683489561080933e-01
9.010980278253555298e-02 -2.881992757320404053e-01 1.806765645742416382e-01
