-3.025740087032318115e-01 -2.108259946107864380e-01 1.057609990239143372e-01
-2.917466461658477783e-01 -5.053679272532463074e-02 1.410150676965713501e-01
-2.710539996623992920e-01 -1.954109966754913330e-01 7.775200158357620239e-02
-2.866126298904418945e-01 -7.991451025009155273e-02 1.082975268363952637e-01
-2.692311704158782959e-01 1.590493693947792053e-02 1.605256944894790649e-01
-3.104566335678100586e-01 7.467100024223327637e-02 1.500149965286254883e-01
-3.145706355571746826e-01 -1.486201677471399307e-02 1.038458496332168579e-01
-2.110092341899871826e-01 -5.615019053220748901e-02 1.605956256389617920e-01
-2.737649977207183838e-01 6.239999830722808838e-02 1.659960001707077026e-01
-2.503579854965209961e-01 3.439500182867050171e-02 1.675930023193359375e-01
-2.517529726028442383e-01 6.447415798902511597e-02 1.754564344882965088e-01
-2.093368619680404663e-01 1.096885651350021362e-02 1.802556216716766357e-01
-2.817740142345428467e-01 1.108329966664314270e-01 1.687909960746765137e-01
-3.149147629737854004e-01 -6.273872405290603638e-02 6.346896290779113770e-02
-2.291460782289505005e-01 -8.272840082645416260e-02 1.188704818487167358e-01
-2.650196552276611328e-01 1.039732247591018677e-01 1.678727567195892334e-01
-3.251658976078033447e-01 2.025265097618103027e-01 1.657317280769348145e-01
-2.902179956436157227e-01 7.600700110197067261e-02 1.320890039205551147e-01
-2.782174050807952881e-01 1.968768239021301270e-02 1.153152137994766235e-01
-2.602615952491760254e-01 1.669194549322128296e-01 1.899798363447189331e-01
-1.995977610349655151e-01 -1.298651397228240967e-01 9.627361595630645752e-02
-2.365229874849319458e-01 -1.080038547515869141e-01 7.699707150459289551e-02
-1.525875627994537354e-01 -2.661294303834438324e-02 1.767554134130477905e-01
-2.031218856573104858e-01 9.067121148109436035e-02 1.894026398658752441e-01
-9.129399806261062622e-02 -1.965110003948211670e-01 1.393830031156539917e-01
-1.949666142463684082e-01 -1.723598986864089966e-01 6.985075771808624268e-02
-2.518140077590942383e-01 3.695200011134147644e-02 1.225610002875328064e-01
-3.329006433486938477e-01 1.642107367515563965e-01 1.146266162395477295e-01
-3.084574341773986816e-01 4.408942535519599915e-02 7.747241109609603882e-02
-3.242869973182678223e-01 -2.456420063972473145e-01 -7.192599773406982422e-02
-2.847200036048889160e-01 1.894290000200271606e-01 1.571169942617416382e-01
-2.321300208568572998e-01 -1.169870421290397644e-02 1.034678891301155090e-01
-2.817139923572540283e-01 1.100749969482421875e-01 1.202360019087791443e-01
-2.908929884433746338e-01 7.749799638986587524e-02 9.830100089311599731e-02
-2.859975993633270264e-01 -9.176003187894821167e-02 2.305888198316097260e-02
-1.092883422970771790e-01 -6.742566078901290894e-02 1.695089191198348999e-01
-1.134660020470619202e-01 -1.868489980697631836e-01 1.094020009040832520e-01
-1.452277004718780518e-01 4.287488386034965515e-02 1.897931098937988281e-01
-3.276489973068237305e-01 -2.111569941043853760e-01 -6.964500248432159424e-02
-1.409978270530700684e-01 -1.008755415678024292e-01 1.249712258577346802e-01
-2.746239900588989258e-01 -2.388920038938522339e-01 -4.495700076222419739e-02
-2.468409985303878784e-01 2.478500083088874817e-02 9.952399879693984985e-02
-3.153741359710693359e-01 -3.772062435746192932e-02 1.713694073259830475e-02
-2.786029875278472900e-01 1.459490060806274414e-01 1.282369941473007202e-01
-1.301140040159225464e-01 -1.792919933795928955e-01 9.000600129365921021e-02
-1.814402639865875244e-01 5.922254640609025955e-03 1.314084231853485107e-01
-2.816910147666931152e-01 -1.840630024671554565e-01 -3.745900094509124756e-02
-2.935479879379272461e-01 -2.274640053510665894e-01 -7.428400218486785889e-02
-2.269337922334671021e-01 -1.010050028562545776e-01 3.786808252334594727e-02
-2.487900108098983765e-01 7.073332369327545166e-02 1.000157222151756287e-01
-2.979849874973297119e-01 -1.916040033102035522e-01 -6.221099942922592163e-02
-3.528791964054107666e-01 1.344830393791198730e-01 4.352811723947525024e-02
-2.914820015430450439e-01 7.886599749326705933e-02 6.599000096321105957e-02
-1.273152828216552734e-01 -4.925951734185218811e-02 1.320616453886032104e-01
-1.913158595561981201e-01 1.929696202278137207e-01 1.923642754554748535e-01
-1.588453203439712524e-01 1.152598634362220764e-01 1.816266030073165894e-01
-3.094122111797332764e-01 2.425133250653743744e-02 2.391705848276615143e-02
-1.242519840598106384e-01 -1.437045484781265259e-01 8.751881122589111328e-02
-2.237119972705841064e-01 -2.281039953231811523e-01 -3.013500012457370758e-02
-3.149265944957733154e-01 -6.636378169059753418e-02 -2.693679369986057281e-02
-9.914942085742950439e-02 1.387476548552513123e-02 1.757591217756271362e-01
-2.602777779102325439e-01 2.044224143028259277e-01 1.388296633958816528e-01
-2.593950033187866211e-01 4.606999829411506653e-02 6.502500176429748535e-02
-2.816590070724487305e-01 1.093769967555999756e-01 7.556799799203872681e-02
-1.935938894748687744e-01 -9.431324899196624756e-02 4.657028615474700928e-02
-2.790530025959014893e-01 1.406610012054443359e-01 8.757799863815307617e-02
-2.204422652721405029e-01 -7.009673863649368286e-04 6.788352131843566895e-02
-2.518590092658996582e-01 -2.022680044174194336e-01 -5.099200084805488586e-02
-2.834999859333038330e-01 1.796279996633529663e-01 9.727399796247482300e-02
-2.266349941492080688e-01 -1.922750025987625122e-01 -3.981599956750869751e-02
-1.121105700731277466e-01 -9.672388434410095215e-02 9.166590869426727295e-02
-1.017512083053588867e-01 1.072924062609672546e-01 1.904719918966293335e-01
-3.169106841087341309e-01 3.478540852665901184e-02 -9.102413430809974670e-03
-6.852641701698303223e-02 -7.977814227342605591e-02 1.290773302316665649e-01
-4.307914152741432190e-02 -3.538969159126281738e-02 1.674324721097946167e-01
-2.849077582359313965e-01 4.327158629894256592e-02 1.540358457714319229e-02
-3.152371942996978760e-01 1.956458985805511475e-01 6.016858667135238647e-02
-6.573207676410675049e-02 4.783838242292404175e-02 1.833720803260803223e-01
-2.098864912986755371e-01 1.206424012780189514e-01 1.046616584062576294e-01
-2.494681030511856079e-01 -1.764176040887832642e-02 9.421946480870246887e-03
-1.350842416286468506e-01 -1.552175171673297882e-02 9.672865271568298340e-02
-2.464690059423446655e-01 2.667500078678131104e-02 2.537200041115283966e-02
-2.899050116539001465e-01 7.500199973583221436e-02 1.377800013870000839e-02
-3.158842921257019043e-01 -3.854820504784584045e-02 -6.058343872427940369e-02
-2.668280005455017090e-01 5.470800027251243591e-02 2.133099921047687531e-02
-1.887038499116897583e-01 -1.331542432308197021e-02 4.688769951462745667e-02
-2.345512360334396362e-01 -9.804914891719818115e-02 -2.999512106180191040e-02
-1.871889978647232056e-01 -1.689530014991760254e-01 -2.718099951744079590e-02
-3.327020108699798584e-01 1.126599963754415512e-02 -5.614300072193145752e-02
-2.837829887866973877e-01 1.001949980854988098e-01 2.047299966216087341e-02
-2.273123264312744141e-01 -1.849788129329681396e-01 -6.948957592248916626e-02
-2.744575738906860352e-01 -8.408429473638534546e-02 -6.071343272924423218e-02
-1.511983871459960938e-01 6.944559514522552490e-02 1.045333221554756165e-01
-2.780480086803436279e-01 1.264729946851730347e-01 3.297799825668334961e-02
-1.526143550872802734e-01 1.619157940149307251e-01 1.418218016624450684e-01
-1.344483438879251480e-02 -1.073060929775238037e-01 1.237435415387153625e-01
-7.997415959835052490e-02 2.398245595395565033e-02 1.327793896198272705e-01
-1.075360029935836792e-01 -2.343290001153945923e-01 -1.013400033116340637e-02
-1.541600003838539124e-02 -2.699800021946430206e-02 1.546030044555664062e-01
-1.386709958314895630e-01 -1.673970073461532593e-01 -4.193000029772520065e-03
-1.185127627104520798e-02 3.084914386272430420e-02 1.820995807647705078e-01
-3.093253672122955322e-01 -7.702978700399398804e-02 -9.632983803749084473e-02
-1.872790008783340454e-01 -2.175790071487426758e-01 -6.799200177192687988e-02
-3.397870361804962158e-01 8.614348620176315308e-02 -4.827260226011276245e-02
-1.071636751294136047e-01 1.892054378986358643e-01 1.767966896295547485e-01
-5.187383294105529785e-02 1.373883783817291260e-01 1.949255466461181641e-01
-3.108859956264495850e-01 -2.987699955701828003e-02 -8.155400305986404419e-02
-2.857240140438079834e-01 1.955409944057464600e-01 4.172100126743316650e-02
-2.867629826068878174e-01 7.366593927145004272e-04 -4.947630316019058228e-02
3.997847065329551697e-02 -3.974245488643646240e-02 1.796042621135711670e-01
-1.764490902423858643e-01 -1.404564082622528076e-01 -3.016404807567596436e-02
-2.378085106611251831e-01 -5.757837742567062378e-02 -4.104089364409446716e-02
-2.443639934062957764e-01 2.226600050926208496e-02 -1.290399953722953796e-02
1.507399976253509521e-02 -2.725699916481971741e-02 1.603969931602478027e-01
-1.188670024275779724e-01 -1.999199986457824707e-01 -2.155599929392337799e-02
-8.474917709827423096e-02 -7.152097672224044800e-02 6.452599167823791504e-02
-2.838630080223083496e-01 1.001370027661323547e-01 -1.450600009411573410e-02
-3.270624279975891113e-01 3.544655442237854004e-02 -7.971507310867309570e-02
-2.177565246820449829e-01 7.303088903427124023e-03 -7.277943193912506104e-03
-9.611299633979797363e-02 -1.763969957828521729e-01 -7.600000244565308094e-04
-3.363580107688903809e-01 3.250800073146820068e-02 -9.091299772262573242e-02
-2.917929887771606445e-01 8.151800185441970825e-02 -3.244600072503089905e-02
8.630000054836273193e-02 -2.478870004415512085e-01 1.000820025801658630e-01
-1.474159955978393555e-01 -1.806869953870773315e-01 -4.497800022363662720e-02
-3.551810085773468018e-01 8.544100075960159302e-02 -8.424399793148040771e-02
-8.912628889083862305e-02 -1.047112643718719482e-01 3.271228075027465820e-02
-4.802989214658737183e-02 -7.726148702204227448e-03 1.080812364816665649e-01
-2.793030142784118652e-01 1.616300046443939209e-01 8.162000216543674469e-03
-2.779890000820159912e-01 1.352919936180114746e-01 -6.754000205546617508e-03
-1.368567198514938354e-01 7.513184100389480591e-04 3.965111821889877319e-02
-1.679069995880126953e-01 -1.758300065994262695e-01 -6.737200170755386353e-02
-1.099826768040657043e-01 1.171295642852783203e-01 1.120548024773597717e-01
-4.722400009632110596e-02 -2.510550022125244141e-01 -1.062900014221668243e-02
-2.324899584054946899e-01 -1.271326392889022827e-01 -9.619353711605072021e-02
-3.105295598506927490e-01 -1.581732556223869324e-02 -1.060119569301605225e-01
-3.222635388374328613e-01 -5.761020630598068237e-02 -1.373665630817413330e-01
-2.823649942874908447e-01 -9.213999658823013306e-02 -1.226970031857490540e-01
-9.464599937200546265e-02 -1.901350021362304688e-01 -2.266200073063373566e-02
8.285900205373764038e-02 -2.039359956979751587e-01 1.029390022158622742e-01
6.594225019216537476e-02 2.354582957923412323e-02 1.929466128349304199e-01
8.666854351758956909e-02 -4.903057962656021118e-02 1.749459356069564819e-01
-1.781290024518966675e-01 -2.273389995098114014e-01 -1.090390011668205261e-01
2.550412155687808990e-02 8.499315381050109863e-02 1.894418597221374512e-01
-7.755800336599349976e-02 -2.144789993762969971e-01 -2.621899917721748352e-02
1.617003045976161957e-02 -9.644512087106704712e-02 9.891608357429504395e-02
6.312622129917144775e-02 -8.120968192815780640e-02 1.373503506183624268e-01
1.140829995274543762e-01 -2.519820034503936768e-01 9.518600255250930786e-02
-2.060795277357101440e-01 -1.662586033344268799e-01 -1.095470488071441650e-01
-2.453500032424926758e-01 1.807300001382827759e-02 -5.305700004100799561e-02
-1.630141586065292358e-02 5.583894625306129456e-02 1.367924511432647705e-01
-1.699643880128860474e-01 -2.215430885553359985e-02 -1.677901670336723328e-02
-3.020640015602111816e-01 -3.441600129008293152e-02 -1.271899938583374023e-01
-2.915099859237670898e-01 8.199500292539596558e-02 -6.479600071907043457e-02
-3.084355890750885010e-01 -8.855878561735153198e-02 -1.609573066234588623e-01
-5.816100165247917175e-02 -1.863220036029815674e-01 -1.207000017166137695e-02
-2.907620072364807129e-01 2.092410027980804443e-01 -1.096099987626075745e-02
-1.491509974002838135e-01 -1.829279959201812744e-01 -8.500199764966964722e-02
-2.798930108547210693e-01 1.702239960432052612e-01 -2.210099995136260986e-02
-2.182815074920654297e-01 -6.774217821657657623e-03 -5.599961057305335999e-02
-3.987882286310195923e-02 7.001673802733421326e-04 8.271567523479461670e-02
8.310300111770629883e-02 -3.170000016689300537e-02 1.573020070791244507e-01
-2.481999993324279785e-02 -2.514480054378509521e-01 -2.761700004339218140e-02
-2.479359954595565796e-01 -1.538749933242797852e-01 -1.551440060138702393e-01
-1.752530038356781006e-01 -2.024769932031631470e-01 -1.224189996719360352e-01
-3.275940120220184326e-01 3.716199845075607300e-02 -1.281220018863677979e-01
-2.561359405517578125e-01 -1.058693677186965942e-01 -1.417596340179443359e-01
-2.790847718715667725e-01 6.794132292270660400e-03 -1.069428771734237671e-01
3.198230639100074768e-02 -3.414061851799488068e-03 1.249969676136970520e-01
-3.305169939994812012e-01 2.840010821819305420e-02 -1.392402052879333496e-01
1.199709624052047729e-01 -1.711209770292043686e-03 1.876477599143981934e-01
1.093290001153945923e-01 -1.909980028867721558e-01 9.298299998044967651e-02
-1.304848939180374146e-01 -9.145367890596389771e-02 -4.218882322311401367e-02
-1.654623299837112427e-01 -1.045799106359481812e-01 -7.630704343318939209e-02
-1.756249964237213135e-01 -2.302549928426742554e-01 -1.458609998226165771e-01
-3.990599885582923889e-02 -2.144539952278137207e-01 -3.337600082159042358e-02
-2.916870117187500000e-01 7.967399805784225464e-02 -9.105300158262252808e-02
-3.464150130748748779e-01 8.386699855327606201e-02 -1.333390027284622192e-01
-1.063737124204635620e-01 -7.301306817680597305e-03 1.049601659178733826e-02
-2.419021725654602051e-01 -7.054179906845092773e-02 -1.264526695013046265e-01
8.662977814674377441e-02 -9.821915626525878906e-02 1.094578951597213745e-01
-3.076829910278320312e-01 -4.370999988168478012e-03 -1.488920003175735474e-01
1.113319993019104004e-01 -2.188760042190551758e-01 7.027500122785568237e-02
-2.022709995508193970e-01 -1.525499969720840454e-01 -1.377270072698593140e-01
-1.518539935350418091e-01 -2.521789968013763428e-01 -1.473489999771118164e-01
-2.794530093669891357e-01 1.407690048217773438e-01 -6.110100075602531433e-02
-9.752999991178512573e-03 -2.213429957628250122e-01 -2.329000085592269897e-02
3.685628529638051987e-03 4.181864112615585327e-02 1.083020716905593872e-01
7.423993200063705444e-02 8.484871685504913330e-02 1.786578893661499023e-01
1.248594373464584351e-01 -9.036341309547424316e-02 1.359951943159103394e-01
-3.280095458030700684e-01 -1.858564466238021851e-02 -1.775882244110107422e-01
-1.591063477098941803e-02 1.532536149024963379e-01 1.406196504831314087e-01
-3.246073424816131592e-01 7.201404124498367310e-02 -1.335065066814422607e-01
-2.906140089035034180e-01 2.088489979505538940e-01 -4.373399913311004639e-02
-2.897230088710784912e-01 -3.613900020718574524e-02 -1.588380038738250732e-01
-2.754540145397186279e-01 -6.499399989843368530e-02 -1.622280031442642212e-01
-2.519870102405548096e-01 3.603800013661384583e-02 -9.580300003290176392e-02
-2.580659985542297363e-01 -1.048699989914894104e-01 -1.699450016021728516e-01
-2.724890112876892090e-01 6.035400182008743286e-02 -1.031339988112449646e-01
1.295039951801300049e-01 -2.377070039510726929e-01 6.264100223779678345e-02
8.413899689912796021e-02 -3.088000044226646423e-02 1.255110055208206177e-01
-1.022620424628257751e-01 -1.624213159084320068e-01 -7.696779072284698486e-02
-3.515929877758026123e-01 1.304659992456436157e-01 -1.355070024728775024e-01
4.276541247963905334e-02 1.861484497785568237e-01 1.887307763099670410e-01
1.706942319869995117e-01 -5.559397861361503601e-02 1.722756922245025635e-01
1.153080016374588013e-01 -1.895800046622753143e-02 1.472939997911453247e-01
-1.695000976324081421e-01 -1.049775779247283936e-01 -1.080244481563568115e-01
1.191428676247596741e-01 -2.208773791790008545e-02 1.468732059001922607e-01
-1.640000045299530029e-01 -2.045899927616119385e-01 -1.547259986400604248e-01
1.298770010471343994e-01 -1.204129979014396667e-01 1.067019999027252197e-01
-2.245250046253204346e-01 -1.319070011377334595e-01 -1.687339991331100464e-01
1.289249956607818604e-01 -1.846020072698593140e-01 7.456500083208084106e-02
-1.298053469508886337e-02 -9.302107989788055420e-02 8.851856924593448639e-03
-1.887321025133132935e-01 -1.228853780776262283e-02 -8.795475959777832031e-02
-2.788319885730743408e-01 1.195140033960342407e-01 -9.929600358009338379e-02
1.236922144889831543e-01 -1.528536826372146606e-01 7.910752296447753906e-02
-3.397299945354461670e-01 1.076340004801750183e-01 -1.555179953575134277e-01
-2.890931665897369385e-01 -5.893197655677795410e-02 -1.947010010480880737e-01
-3.608320057392120361e-01 1.985960006713867188e-01 -1.307930052280426025e-01
-1.334740072488784790e-01 -2.029660046100616455e-01 -1.415369957685470581e-01
-2.443310022354125977e-01 2.287800051271915436e-02 -1.213179975748062134e-01
1.445972323417663574e-01 -9.833183884620666504e-02 1.155976951122283936e-01
-3.052999973297119141e-01 3.283499926328659058e-02 -1.662870049476623535e-01
-3.151502311229705811e-01 2.054618112742900848e-02 -1.808151602745056152e-01
1.601310074329376221e-01 -1.076599955558776855e-02 1.659390032291412354e-01
-2.976564168930053711e-01 7.019530050456523895e-03 -1.740781664848327637e-01
1.382789909839630127e-01 6.189414858818054199e-02 1.811423599720001221e-01
-2.847720086574554443e-01 9.760899841785430908e-02 -1.273369938135147095e-01
1.050743460655212402e-01 1.419235169887542725e-01 1.864786446094512939e-01
7.079795747995376587e-02 -1.180788688361644745e-02 9.009899199008941650e-02
-2.799580097198486328e-01 4.277999978512525558e-03 -1.720190048217773438e-01
-2.267261743545532227e-01 -7.584630511701107025e-03 -1.362573057413101196e-01
-1.153346896171569824e-01 -1.132348179817199707e-02 -5.118978768587112427e-02
-1.758199930191040039e-01 -1.379750072956085205e-01 -1.581549942493438721e-01
1.901341974735260010e-01 4.105435684323310852e-03 1.800317615270614624e-01
-2.858110070228576660e-01 1.958079934120178223e-01 -8.970800042152404785e-02
7.176791876554489136e-02 -9.975954145193099976e-02 4.526655375957489014e-02
-2.210038900375366211e-01 -9.970366209745407104e-02 -1.796766221523284912e-01
-5.265402421355247498e-02 -9.329917281866073608e-02 -4.603813588619232178e-02
-2.326110005378723145e-01 -7.028900086879730225e-02 -1.759279966354370117e-01
-3.125619888305664062e-01 7.496400177478790283e-02 -1.725589931011199951e-01
-2.493660002946853638e-01 -3.577300161123275757e-02 -1.748320013284683228e-01
-3.510180115699768066e-01 1.851460039615631104e-01 -1.533370018005371094e-01
1.180030032992362976e-01 -1.837700046598911285e-02 1.094970032572746277e-01
2.179173827171325684e-01 -7.714668661355972290e-02 1.544564068317413330e-01
-2.129790037870407104e-01 -9.070900082588195801e-02 -1.764950007200241089e-01
-2.427109926939010620e-01 1.924300007522106171e-02 -1.475919932126998901e-01
-1.288371533155441284e-01 -1.305363886058330536e-02 -7.444821298122406006e-02
-1.333819925785064697e-01 -1.391009986400604248e-01 -1.400980055332183838e-01
-2.806130051612854004e-01 1.729879975318908691e-01 -1.112509965896606445e-01
1.425089985132217407e-01 -1.947290003299713135e-01 3.911099955439567566e-02
1.656270027160644531e-01 -1.055200025439262390e-02 1.402119994163513184e-01
-3.177140057086944580e-01 1.029290035367012024e-01 -1.741539984941482544e-01
-1.395912468433380127e-01 -1.060034707188606262e-01 -1.338810324668884277e-01
1.676229387521743774e-01 1.001512706279754639e-01 1.905407160520553589e-01
9.866199642419815063e-02 -2.588799968361854553e-02 8.391100168228149414e-02
-2.863500118255615234e-01 7.331900298595428467e-02 -1.640480011701583862e-01
1.231274008750915527e-01 4.415198415517807007e-02 1.310289204120635986e-01
-1.992091834545135498e-01 -2.422779798507690430e-04 -1.329693645238876343e-01
7.344098389148712158e-02 1.195785775780677795e-01 1.254358738660812378e-01
8.085799962282180786e-02 -3.310900181531906128e-02 6.195500120520591736e-02
8.066809177398681641e-02 -2.195885963737964630e-02 6.614554673433303833e-02
-2.609838247299194336e-01 -2.415226772427558899e-02 -1.962160766124725342e-01
-2.638269960880279541e-01 4.460500180721282959e-02 -1.675429940223693848e-01
-3.570069968700408936e-01 2.430669963359832764e-01 -1.504720002412796021e-01
-2.385690063238143921e-01 4.331999924033880234e-03 -1.693139970302581787e-01
-2.785190045833587646e-01 1.570509970188140869e-01 -1.319440007209777832e-01
-2.101439982652664185e-01 -5.037499964237213135e-02 -1.773329973220825195e-01
-1.731960028409957886e-01 -1.005650013685226440e-01 -1.737429946660995483e-01
-2.836369872093200684e-01 1.050700023770332336e-01 -1.635800004005432129e-01
2.091093361377716064e-01 -1.690109968185424805e-01 8.034237474203109741e-02
-2.396919429302215576e-01 3.923595882952213287e-03 -1.796288937330245972e-01
-3.036989867687225342e-01 1.253030002117156982e-01 -1.779820024967193604e-01
-2.072221934795379639e-01 -8.038638159632682800e-03 -1.655016541481018066e-01
1.441659629344940186e-01 -9.193849563598632812e-02 5.855905264616012573e-02
-3.228870034217834473e-01 1.729560047388076782e-01 -1.754080057144165039e-01
2.248021364212036133e-01 -1.284855604171752930e-01 9.838293492794036865e-02
-2.127455472946166992e-01 -4.681664332747459412e-02 -1.956896483898162842e-01
1.899289935827255249e-01 -1.781589984893798828e-01 4.745300114154815674e-02
7.683899998664855957e-02 -3.594499826431274414e-02 3.049599938094615936e-02
-2.863210141658782959e-01 1.968809962272644043e-01 -1.393940001726150513e-01
-2.782559990882873535e-01 1.342680007219314575e-01 -1.620279997587203979e-01
1.519685834646224976e-01 7.213051617145538330e-02 1.325918436050415039e-01
-8.204927295446395874e-02 -7.985261268913745880e-03 -7.846114784479141235e-02
-6.201802566647529602e-02 -1.038564294576644897e-01 -1.088908091187477112e-01
2.285066694021224976e-01 5.055385828018188477e-02 1.770657598972320557e-01
-3.397600054740905762e-01 2.296659946441650391e-01 -1.706089973449707031e-01
2.731500566005706787e-01 -2.150123938918113708e-02 1.740237921476364136e-01
1.071810126304626465e-01 -9.771367162466049194e-02 1.772235333919525146e-02
-1.341114044189453125e-01 -3.350596874952316284e-03 -1.213868856430053711e-01
1.589850634336471558e-01 -1.375104486942291260e-02 9.149575233459472656e-02
-1.045980006456375122e-01 -1.250489950180053711e-01 -1.581709980964660645e-01
-8.599316701292991638e-03 -7.324889302253723145e-03 -2.966108545660972595e-02
-7.475599646568298340e-02 -1.286559998989105225e-01 -1.386409997940063477e-01
-3.227129876613616943e-01 2.036249935626983643e-01 -1.765020042657852173e-01
-3.687692433595657349e-02 -1.905746944248676300e-02 -5.875705182552337646e-02
1.761260330677032471e-01 1.770059168338775635e-01 1.864259839057922363e-01
-1.325110048055648804e-01 -1.016620025038719177e-01 -1.721629947423934937e-01
-1.703349947929382324e-01 -4.226399958133697510e-02 -1.743350028991699219e-01
5.281013622879981995e-02 -7.233992218971252441e-03 1.135896705090999603e-02
1.930804550647735596e-01 -1.510365605354309082e-01 4.497301205992698669e-02
-2.227319926023483276e-01 -2.338499948382377625e-02 -2.117819935083389282e-01
-1.610610783100128174e-01 -8.148283511400222778e-02 -1.916835159063339233e-01
-2.831889986991882324e-01 1.733299940824508667e-01 -1.676169931888580322e-01
-3.164840042591094971e-01 2.440640032291412354e-01 -1.643989980220794678e-01
1.125096753239631653e-01 -5.974706262350082397e-03 4.772289097309112549e-02
2.096219956874847412e-01 -1.040299981832504272e-02 1.146889999508857727e-01
1.720129996538162231e-01 -1.790200024843215942e-01 8.407999761402606964e-03
-1.394262015819549561e-01 -1.807034574449062347e-02 -1.514496356248855591e-01
1.149900034070014954e-01 1.527313739061355591e-01 1.180910766124725342e-01
-2.945089936256408691e-01 2.135750055313110352e-01 -1.649730056524276733e-01
1.460459977388381958e-01 -1.379700005054473877e-02 6.331499665975570679e-02
2.195947319269180298e-01 -5.813430529087781906e-03 1.170247271656990051e-01
6.037250533699989319e-02 -1.739649102091789246e-02 -7.761984597891569138e-03
-1.958000063896179199e-01 -2.369200065732002258e-02 -2.064010053873062134e-01
6.924699991941452026e-02 -4.168999940156936646e-02 -1.387500017881393433e-02
-4.685100167989730835e-02 -1.228929981589317322e-01 -1.406569927930831909e-01
-2.201070040464401245e-01 1.792700029909610748e-02 -2.102970033884048462e-01
-1.299500018358230591e-01 -6.007099896669387817e-02 -1.773909926414489746e-01
3.058300912380218506e-01 -6.076542660593986511e-02 1.438869386911392212e-01
3.244430124759674072e-01 -1.978099942207336426e-01 9.419500082731246948e-02
-1.503030061721801758e-01 -2.477400004863739014e-02 -1.781349927186965942e-01
-9.400200098752975464e-02 -9.964799880981445312e-02 -1.713200062513351440e-01
-9.843382239341735840e-02 -9.559682756662368774e-02 -1.742010861635208130e-01
8.010083436965942383e-02 -9.921699017286300659e-02 -4.124868288636207581e-02
1.236900016665458679e-01 -1.715099997818470001e-02 2.971100062131881714e-02
1.592697054147720337e-01 3.131693229079246521e-02 7.703339308500289917e-02
8.192099630832672119e-02 -2.427549958229064941e-01 -1.093899980187416077e-01
2.359107732772827148e-01 1.516032814979553223e-01 1.833847761154174805e-01
2.837937176227569580e-01 -9.258151799440383911e-02 1.060606613755226135e-01
2.579959332942962646e-01 9.357723593711853027e-02 1.720116138458251953e-01
1.668210029602050781e-01 -1.746589988470077515e-01 -1.714400015771389008e-02
-2.089760005474090576e-01 -1.357999979518353939e-03 -2.243199944496154785e-01
2.876310050487518311e-01 -1.872220039367675781e-01 6.116800010204315186e-02
2.054598741233348846e-02 -1.112242415547370911e-01 -1.003680899739265442e-01
-1.557414978742599487e-01 -2.326704561710357666e-02 -1.952059119939804077e-01
-8.739645034074783325e-02 -6.978105753660202026e-02 -1.682875901460647583e-01
6.622000038623809814e-02 -4.417699947953224182e-02 -3.962000086903572083e-02
8.421900123357772827e-02 -2.015109956264495850e-01 -1.017370000481605530e-01
5.839100107550621033e-02 -1.199890002608299255e-01 -8.269000053405761719e-02
2.657540142536163330e-01 -1.792510002851486206e-01 4.021000117063522339e-02
6.323453970253467560e-03 -5.230505391955375671e-02 -9.235769510269165039e-02
1.057080030441284180e-01 -2.392200008034706116e-02 -4.753999877721071243e-03
2.487062066793441772e-01 5.699064210057258606e-02 1.345659196376800537e-01
1.350047290325164795e-01 -1.610065996646881104e-01 -4.925368353724479675e-02
1.153879985213279724e-01 -1.900169998407363892e-01 -8.070900291204452515e-02
1.354559957981109619e-01 -1.834850013256072998e-01 -6.388200074434280396e-02
1.478199958801269531e-01 -2.360479980707168579e-01 -8.034999668598175049e-02
-1.515630036592483521e-01 -2.115499973297119141e-02 -2.050410062074661255e-01
1.901970058679580688e-01 -2.280140072107315063e-01 -4.643699899315834045e-02
-1.036019995808601379e-01 -3.976900130510330200e-02 -1.778320074081420898e-01
1.872610002756118774e-01 -1.572709977626800537e-01 -1.418999955058097839e-02
-4.054952412843704224e-02 -1.406326889991760254e-02 -1.183933168649673462e-01
-6.952100247144699097e-02 -2.308700047433376312e-02 -1.459580063819885254e-01
-1.794099956750869751e-01 1.806100085377693176e-02 -2.119819968938827515e-01
2.645063102245330811e-01 -9.865601360797882080e-02 6.648055464029312134e-02
-1.179631352424621582e-01 -3.052998520433902740e-02 -1.897158175706863403e-01
2.191590070724487305e-01 -2.324550002813339233e-01 -3.164400160312652588e-02
2.544980049133300781e-01 -1.030599977821111679e-02 9.515099972486495972e-02
2.994528114795684814e-01 1.635728776454925537e-02 1.384339183568954468e-01
-1.803700067102909088e-02 -1.124200001358985901e-01 -1.550659984350204468e-01
1.508419960737228394e-01 -1.323099993169307709e-02 1.568399928510189056e-02
-5.841999873518943787e-02 -7.616099715232849121e-02 -1.744659990072250366e-01
1.200629994273185730e-01 -2.421479970216751099e-01 -1.189059987664222717e-01
-3.941199928522109985e-02 -9.497500211000442505e-02 -1.698230057954788208e-01
2.353752255439758301e-01 -6.409050896763801575e-03 7.458630204200744629e-02
1.608249992132186890e-01 -2.067189961671829224e-01 -7.460299879312515259e-02
1.902839988470077515e-01 -1.921499967575073242e-01 -4.621599987149238586e-02
1.007729992270469666e-01 -2.167589962482452393e-01 -1.254100054502487183e-01
2.585907466709613800e-02 -2.233572117984294891e-02 -8.962984383106231689e-02
-1.428339928388595581e-01 2.134699933230876923e-02 -1.992679983377456665e-01
5.992300063371658325e-02 -4.931300133466720581e-02 -7.694000005722045898e-02
-1.031559035181999207e-01 -2.086687646806240082e-02 -1.899782717227935791e-01
1.692180037498474121e-01 -1.849679946899414062e-01 -6.203199923038482666e-02
-2.777438797056674957e-02 -9.108474850654602051e-02 -1.670785248279571533e-01
1.254709959030151367e-01 -1.994500011205673218e-01 -1.032840013504028320e-01
-1.550530046224594116e-01 4.143999889492988586e-03 -2.211419939994812012e-01
1.353528052568435669e-01 -6.818565726280212402e-02 -3.564536944031715393e-02
3.284699022769927979e-01 -4.858212172985076904e-02 1.125391647219657898e-01
1.993120014667510986e-01 -1.342100054025650024e-01 -2.322999946773052216e-02
1.065632924437522888e-01 -2.600274235010147095e-02 -4.329939559102058411e-02
2.053426653146743774e-01 -2.018359489738941193e-02 3.166675195097923279e-02
-5.884600058197975159e-02 -4.019000008702278137e-02 -1.771920025348663330e-01
2.243030071258544922e-01 -1.708630025386810303e-01 -2.863099984824657440e-02
2.271700054407119751e-01 -2.145330011844635010e-01 -4.906500130891799927e-02
5.285088717937469482e-02 -1.153089776635169983e-01 -1.325699090957641602e-01
1.535360068082809448e-01 -1.291299983859062195e-02 -1.106300018727779388e-02
5.609399825334548950e-02 -5.452200025320053101e-02 -1.041020005941390991e-01
5.786300078034400940e-02 -1.168460026383399963e-01 -1.342280060052871704e-01
-8.860999718308448792e-03 -8.638200163841247559e-02 -1.709530055522918701e-01
2.431978136301040649e-01 -9.730975329875946045e-02 9.845217689871788025e-03
1.095290035009384155e-01 -2.283399924635887146e-02 -5.384600162506103516e-02
9.491381049156188965e-02 -1.313035190105438232e-02 -6.095682829618453979e-02
-8.577200025320053101e-02 -1.871100068092346191e-02 -2.005819976329803467e-01
-5.027100071310997009e-02 -2.298065647482872009e-02 -1.760570108890533447e-01
2.919841706752777100e-01 8.665616065263748169e-02 1.264124959707260132e-01
1.972859054803848267e-01 -9.413427859544754028e-02 -2.453680709004402161e-02
1.488624662160873413e-01 -9.814678877592086792e-02 -6.383420526981353760e-02
2.364775836467742920e-01 1.494629532098770142e-01 1.123432666063308716e-01
3.349204063415527344e-01 -8.338163793087005615e-02 7.722643017768859863e-02
2.194468975067138672e-01 -8.899345062673091888e-03 2.790908887982368469e-02
-1.134259998798370361e-01 -1.398999942466616631e-03 -2.189719974994659424e-01
1.111535280942916870e-01 -1.114528179168701172e-01 -1.032473519444465637e-01
-2.708810567855834961e-02 -1.330997049808502197e-02 -1.631512790918350220e-01
2.339359968900680542e-01 -1.855500042438507080e-01 -5.110500007867813110e-02
3.115499950945377350e-02 -9.737399965524673462e-02 -1.610140055418014526e-01
8.218999952077865601e-02 -3.178799897432327271e-02 -9.693700075149536133e-02
5.548200011253356934e-02 -5.619699880480766296e-02 -1.308960020542144775e-01
3.190227150917053223e-01 2.696231007575988770e-03 8.654898405075073242e-02
1.233499962836503983e-02 -7.135500013828277588e-02 -1.733399927616119385e-01
-1.320500019937753677e-02 -3.458699956536293030e-02 -1.768849939107894897e-01
2.598690092563629150e-01 -2.364840060472488403e-01 -6.946299970149993896e-02
-7.760199904441833496e-02 1.291800010949373245e-02 -2.044010013341903687e-01
2.659479975700378418e-01 -1.775680035352706909e-01 -4.025400057435035706e-02
1.835327595472335815e-01 -1.285019796341657639e-02 -2.388881333172321320e-02
8.450980298221111298e-03 -5.488772690296173096e-02 -1.766938567161560059e-01
3.891454637050628662e-02 -2.458169125020503998e-03 -1.307204663753509521e-01
2.533074617385864258e-01 7.704503089189529419e-02 6.158474460244178772e-02
2.518860101699829102e-01 -2.040169984102249146e-01 -7.029200345277786255e-02
9.413599967956542969e-02 -1.162519976496696472e-01 -1.457100063562393188e-01
1.800352334976196289e-01 -1.258830428123474121e-01 -9.090870618820190430e-02
5.604353547096252441e-02 -1.126555539667606354e-02 -1.297892630100250244e-01
2.402884662151336670e-01 -1.873399466276168823e-01 -7.743222266435623169e-02
2.783503234386444092e-01 1.228058896958827972e-02 4.165245965123176575e-02
1.254500001668930054e-01 -1.186230033636093140e-01 -1.327919960021972656e-01
2.638636827468872070e-01 -1.043830364942550659e-01 -2.556606568396091461e-02
2.012904435396194458e-01 -1.969970203936100006e-02 -3.336418420076370239e-02
3.522000089287757874e-02 -4.749000072479248047e-02 -1.696799993515014648e-01
3.176132440567016602e-01 -3.942889347672462463e-02 3.960825875401496887e-02
1.073155775666236877e-01 -9.054703637957572937e-03 -1.024953499436378479e-01
1.645230054855346680e-01 -1.228800043463706970e-02 -6.469400227069854736e-02
1.234140023589134216e-01 -1.851000078022480011e-02 -9.905999898910522461e-02
8.383342623710632324e-02 -9.105028957128524780e-02 -1.635832488536834717e-01
1.617567539215087891e-01 -1.455544307827949524e-02 -7.525007426738739014e-02
3.383855223655700684e-01 -8.677885681390762329e-02 1.685601659119129181e-02
6.540100276470184326e-02 -4.497399926185607910e-02 -1.644040048122406006e-01
2.596704363822937012e-01 -1.703551113605499268e-01 -8.316119015216827393e-02
9.121999889612197876e-02 -1.002359986305236816e-01 -1.742880046367645264e-01
6.612999737262725830e-02 -7.746700197458267212e-02 -1.829610019922256470e-01
2.771050035953521729e-01 -2.242289930582046509e-01 -9.572199732065200806e-02
6.317306309938430786e-02 -3.984884917736053467e-02 -1.695679575204849243e-01
1.055779978632926941e-01 -2.431499958038330078e-02 -1.313759982585906982e-01
1.740466803312301636e-01 -1.030342876911163330e-01 -1.214928105473518372e-01
2.286871820688247681e-01 -1.685777120292186737e-02 -4.144085198640823364e-02
1.369931101799011230e-01 -1.072273105382919312e-01 -1.541952192783355713e-01
1.043860092759132385e-01 -2.655884809792041779e-02 -1.405244469642639160e-01
1.292521357536315918e-01 -1.827976480126380920e-02 -1.182961538434028625e-01
2.943409979343414307e-01 -1.865250021219253540e-01 -7.685799896717071533e-02
1.349650025367736816e-01 -1.120460033416748047e-01 -1.616529971361160278e-01
8.143761754035949707e-02 -1.591993123292922974e-02 -1.635136306285858154e-01
2.892729938030242920e-01 -1.992750018835067749e-01 -1.011070013046264648e-01
3.279482126235961914e-01 -2.220482379198074341e-02 6.370355375111103058e-03
1.718499958515167236e-01 -1.174199953675270081e-02 -1.111589968204498291e-01
1.231009066104888916e-01 -7.330915331840515137e-02 -1.779753118753433228e-01
1.765740066766738892e-01 -1.134150028228759766e-01 -1.582870036363601685e-01
3.209260106086730957e-01 -2.484450042247772217e-01 -1.182399988174438477e-01
1.955621093511581421e-01 -2.489414066076278687e-02 -1.055070906877517700e-01
9.645099937915802002e-02 -4.108199849724769592e-02 -1.871200054883956909e-01
2.641234695911407471e-01 -1.069370955228805542e-01 -9.510323405265808105e-02
2.595289051532745361e-01 3.492505848407745361e-02 -3.602430224418640137e-02
1.517879962921142578e-01 -9.490899741649627686e-02 -1.776349991559982300e-01
1.248211711645126343e-01 -4.675200209021568298e-02 -1.791348606348037720e-01
3.071570098400115967e-01 -2.092020064592361450e-01 -1.229379996657371521e-01
3.270480036735534668e-01 -1.937479972839355469e-01 -1.008580029010772705e-01
3.446575999259948730e-01 -8.541408926248550415e-02 -3.770720958709716797e-02
2.848808169364929199e-01 1.617796719074249268e-03 -4.073297232389450073e-02
3.297462463378906250e-01 -5.515500158071517944e-02 -3.582696244120597839e-02
2.872217595577239990e-01 -8.953126147389411926e-03 -4.570862278342247009e-02
1.392969936132431030e-01 -7.239499688148498535e-02 -1.843010038137435913e-01
2.048839926719665527e-01 -1.143470034003257751e-01 -1.559969931840896606e-01
2.510567605495452881e-01 -1.035085022449493408e-01 -1.192921549081802368e-01
1.220899969339370728e-01 -3.213199973106384277e-02 -1.869940012693405151e-01
3.204536437988281250e-01 -9.128864109516143799e-02 -7.163460552692413330e-02
2.494424581527709961e-01 -4.926178604364395142e-03 -8.245265483856201172e-02
2.288651466369628906e-01 -1.128163412213325500e-01 -1.565200090408325195e-01
2.527770102024078369e-01 -1.169760003685951233e-01 -1.435530036687850952e-01
1.596989333629608154e-01 -2.842662855982780457e-02 -1.716241687536239624e-01
1.420529931783676147e-01 -1.397900003939867020e-02 -1.773550063371658325e-01
2.681714594364166260e-01 -5.104765295982360840e-02 -1.048664525151252747e-01
3.195299208164215088e-01 -1.745479553937911987e-02 -5.606615170836448669e-02
1.822620034217834473e-01 -7.622200250625610352e-02 -1.835300028324127197e-01
1.965646594762802124e-01 -8.603553473949432373e-02 -1.832169145345687866e-01
1.642660051584243774e-01 -4.476600140333175659e-02 -1.870290040969848633e-01
2.121320068836212158e-01 -9.618999809026718140e-02 -1.767919957637786865e-01
2.902648150920867920e-01 1.912630349397659302e-02 -6.644581258296966553e-02
1.915153861045837402e-01 -2.307558991014957428e-02 -1.598454862833023071e-01
2.419741898775100708e-01 -1.997644081711769104e-02 -1.306449025869369507e-01
1.724849939346313477e-01 -1.708200015127658844e-02 -1.832199990749359131e-01
1.984199732542037964e-01 -3.342942893505096436e-02 -1.800739914178848267e-01
2.799380123615264893e-01 -1.124370023608207703e-01 -1.590529978275299072e-01
2.350767403841018677e-01 -2.217417210340499878e-02 -1.513575762510299683e-01
2.106949985027313232e-01 -5.457200109958648682e-02 -1.867319941520690918e-01
2.392500042915344238e-01 -7.713100314140319824e-02 -1.834609955549240112e-01
2.296940088272094727e-01 -5.819705501198768616e-02 -1.825266778469085693e-01
2.751671969890594482e-01 -9.026338905096054077e-02 -1.681090593338012695e-01
2.103949934244155884e-01 -2.648700028657913208e-02 -1.873520016670227051e-01
3.351185321807861328e-01 -1.014286428689956665e-01 -1.367338895797729492e-01
3.460976481437683105e-01 -9.088874608278274536e-02 -1.249558702111244202e-01
3.209739923477172852e-01 -1.137370020151138306e-01 -1.558389961719512939e-01
3.568831980228424072e-01 -6.481767445802688599e-02 -1.084633022546768188e-01
2.326460033655166626e-01 -7.921000011265277863e-03 -1.764339953660964966e-01
2.651128470897674561e-01 -6.406824290752410889e-02 -1.835938394069671631e-01
3.257769346237182617e-01 -3.914704546332359314e-02 -1.273812055587768555e-01
2.505984306335449219e-01 -2.992133796215057373e-02 -1.808212399482727051e-01
3.001649975776672363e-01 -9.128399938344955444e-02 -1.790439933538436890e-01
2.777590155601501465e-01 -1.973739080131053925e-02 -1.622022241353988647e-01
2.775452136993408203e-01 -6.159634888172149658e-02 -1.831538081169128418e-01
2.804675400257110596e-01 -3.263223171234130859e-02 -1.698190569877624512e-01
3.591110110282897949e-01 -1.149450019001960754e-01 -1.528519988059997559e-01
2.953018248081207275e-01 -4.776665568351745605e-02 -1.699343472719192505e-01
2.749300003051757812e-01 -5.213399976491928101e-02 -1.868370026350021362e-01
2.912890017032623291e-01 -2.430366352200508118e-03 -1.532447636127471924e-01
2.901106774806976318e-01 -1.257318630814552307e-02 -1.590864211320877075e-01
