-9.057188034057617188e-02 -1.542537286877632141e-02 -2.083618342876434326e-01
-8.838877081871032715e-02 -2.216182649135589600e-02 -1.953657567501068115e-01
-9.264235198497772217e-02 -2.076081000268459320e-02 -2.007532417774200439e-01
-1.084782555699348450e-01 -2.254001423716545105e-02 -2.061406672000885010e-01
-1.015762314200401306e-01 -1.540125906467437744e-02 -2.100622355937957764e-01
-6.909535825252532959e-02 -1.666144654154777527e-02 -1.863633692264556885e-01
-6.589054316282272339e-02 -2.520849741995334625e-02 -1.719245016574859619e-01
-4.179690033197402954e-02 -3.019115887582302094e-02 -1.793964207172393799e-01
-3.382173180580139160e-02 -3.071475774049758911e-02 -1.767977923154830933e-01
-5.669989436864852905e-02 -2.651666663587093353e-02 -1.704758554697036743e-01
-6.050711125135421753e-02 -2.655246667563915253e-02 -1.773417890071868896e-01
-4.732815176248550415e-02 -2.807303145527839661e-02 -1.335507035255432129e-01
-5.564032495021820068e-02 -2.616263739764690399e-02 -1.550481915473937988e-01
-2.262425981462001801e-02 -3.244227916002273560e-02 -1.783523112535476685e-01
-3.808113932609558105e-02 -2.875672467052936554e-02 -1.438360363245010376e-01
-2.761973999440670013e-02 -3.054519556462764740e-02 -1.500082761049270630e-01
-4.312124848365783691e-02 -2.739605680108070374e-02 -1.621008664369583130e-01
-7.553424686193466187e-02 -2.367942593991756439e-02 -1.653864532709121704e-01
-6.878966093063354492e-02 -2.502700313925743103e-02 -1.500177979469299316e-01
-2.916608378291130066e-02 -2.946808002889156342e-02 -1.636503189802169800e-01
-3.618086129426956177e-02 -2.887074463069438934e-02 -1.553250253200531006e-01
-5.687810853123664856e-02 -3.168448805809020996e-02 -1.811657100915908813e-01
-5.879087746143341064e-02 -2.624567411839962006e-02 -1.419732123613357544e-01
-3.401078656315803528e-02 -2.924431301653385162e-02 -1.708119660615921021e-01
-2.677962929010391235e-02 -3.043944388628005981e-02 -1.725142896175384521e-01
-3.183319792151451111e-02 -3.457199409604072571e-02 -1.809524744749069214e-01
-4.304616153240203857e-02 -2.845756337046623230e-02 -1.737027466297149658e-01
-3.878337889909744263e-02 -2.808171138167381287e-02 -1.688177287578582764e-01
-6.361979991197586060e-02 -2.505178563296794891e-02 -1.622208058834075928e-01
-4.872089996933937073e-02 -2.726218663156032562e-02 -1.717212349176406860e-01
-4.652878269553184509e-02 -2.736867964267730713e-02 -1.545303165912628174e-01
-1.776612177491188049e-02 -3.191899508237838745e-02 -1.687049865722656250e-01
-4.735211282968521118e-02 -3.441644459962844849e-02 -1.819737851619720459e-01
-5.168677121400833130e-02 -2.671467140316963196e-02 -1.648834347724914551e-01
-5.141500383615493774e-02 -2.916252240538597107e-02 -1.778735965490341187e-01
-7.584325224161148071e-02 -2.518634870648384094e-02 -1.764446198940277100e-01
-6.791010499000549316e-02 -2.794266864657402039e-02 -1.810577064752578735e-01
-2.037616632878780365e-02 -3.114869818091392517e-02 -1.579677313566207886e-01
2.403410971164703369e-01 -9.604461491107940674e-03 1.162751764059066772e-01
2.647089958190917969e-01 -1.369037479162216187e-02 8.979852497577667236e-02
2.728176116943359375e-01 -1.661308854818344116e-02 1.020441949367523193e-01
2.485892176628112793e-01 -1.177000254392623901e-02 1.223102584481239319e-01
2.482543289661407471e-01 -1.079320907592773438e-02 1.028677001595497131e-01
2.551957964897155762e-01 -1.395117491483688354e-02 1.711272299289703369e-01
2.470740377902984619e-01 -1.120740920305252075e-02 1.468883007764816284e-01
2.811163663864135742e-01 -1.956070214509963989e-02 9.337314218282699585e-02
2.649635970592498779e-01 -1.601529866456985474e-02 1.637750715017318726e-01
2.790079712867736816e-01 -1.992237567901611328e-02 1.594847738742828369e-01
2.604477405548095703e-01 -1.260679960250854492e-02 1.396415233612060547e-01
2.341301739215850830e-01 -9.191557765007019043e-03 1.281691342592239380e-01
2.358705997467041016e-01 -1.065529137849807739e-02 1.509201973676681519e-01
2.718015015125274658e-01 -1.738940924406051636e-02 1.370729207992553711e-01
2.661649882793426514e-01 -1.573599129915237427e-02 1.496501117944717407e-01
2.537106871604919434e-01 -1.175729930400848389e-02 8.446055650711059570e-02
2.444837391376495361e-01 -1.117387413978576660e-02 1.615604162216186523e-01
2.722532749176025391e-01 -1.719491928815841675e-02 1.235123053193092346e-01
2.795460224151611328e-01 -1.746246218681335449e-02 1.128636896610260010e-01
2.726114988327026367e-01 -1.618632674217224121e-02 7.538247108459472656e-02
2.630068659782409668e-01 -1.401741057634353638e-02 1.149718686938285828e-01
2.630890011787414551e-01 -1.383465528488159180e-02 1.255545467138290405e-01
2.413911223411560059e-01 -1.103917509317398071e-02 1.356360316276550293e-01
2.559520602226257324e-01 -1.206669956445693970e-02 1.155815869569778442e-01
2.562929689884185791e-01 -1.305428892374038696e-02 1.536290049552917480e-01
2.843061685562133789e-01 -2.180384844541549683e-02 1.263896375894546509e-01
2.603296935558319092e-01 -1.309121400117874146e-02 6.358817219734191895e-02
2.531504034996032715e-01 -1.216140389442443848e-02 1.333852112293243408e-01
2.564322650432586670e-01 -1.343371719121932983e-02 1.018917560577392578e-01
2.367181628942489624e-01 -9.949050843715667725e-03 9.820485115051269531e-02
2.446693778038024902e-01 -9.952023625373840332e-03 7.558230310678482056e-02
2.824906110763549805e-01 -2.114409208297729492e-02 1.462774723768234253e-01
1.712135672569274902e-01 -1.215066090226173401e-01 -2.285609394311904907e-02
2.121688276529312134e-01 -1.190801784396171570e-01 -4.985507205128669739e-02
2.232995480298995972e-01 -1.200395375490188599e-01 -3.553499653935432434e-02
1.823778748512268066e-01 -1.206133067607879639e-01 -9.967179968953132629e-03
1.812890470027923584e-01 -1.204301118850708008e-01 -4.018452763557434082e-02
2.009296566247940063e-01 -1.208207905292510986e-01 4.349035397171974182e-02
1.809869557619094849e-01 -1.210638061165809631e-01 1.232639700174331665e-02
2.429155111312866211e-01 -1.180159747600555420e-01 -3.903368115425109863e-02
2.243726849555969238e-01 -1.201355457305908203e-01 4.196810349822044373e-02
2.298893034458160400e-01 -1.202722936868667603e-01 2.065740153193473816e-02
2.104130089282989502e-01 -1.206431016325950623e-01 6.274152547121047974e-03
1.526555716991424561e-01 -1.216956079006195068e-01 -1.345160230994224548e-02
1.634335368871688843e-01 -1.221696063876152039e-01 1.967674121260643005e-02
2.301435470581054688e-01 -1.193159073591232300e-01 2.014480531215667725e-03
2.129515409469604492e-01 -1.203639656305313110e-01 2.491199970245361328e-02
1.928267776966094971e-01 -1.201804429292678833e-01 -5.587175488471984863e-02
1.818141490221023560e-01 -1.211918443441390991e-01 3.368009254336357117e-02
2.198754847049713135e-01 -1.204479709267616272e-01 -1.065702736377716064e-02
2.339839935302734375e-01 -1.190265715122222900e-01 -2.007668837904930115e-02
2.291515320539474487e-01 -1.186165362596511841e-01 -5.937853828072547913e-02
2.022847682237625122e-01 -1.197970733046531677e-01 -1.338459178805351257e-02
2.113144695758819580e-01 -1.196380108594894409e-01 -2.263294905424118042e-02
1.680700480937957764e-01 -1.218328028917312622e-01 -1.475524157285690308e-03
1.921704113483428955e-01 -1.202175319194793701e-01 -2.363527938723564148e-02
1.977660059928894043e-01 -1.204781979322433472e-01 2.161312475800514221e-02
2.476834952831268311e-01 -1.191956326365470886e-01 -8.583664894104003906e-03
2.064654082059860229e-01 -1.189501956105232239e-01 -7.077397406101226807e-02
1.946275830268859863e-01 -1.215716153383255005e-01 2.185486257076263428e-03
1.993653774261474609e-01 -1.212054267525672913e-01 -3.814618289470672607e-02
1.597506701946258545e-01 -1.217506974935531616e-01 -3.975713253021240234e-02
1.732955873012542725e-01 -1.203574389219284058e-01 -6.141543015837669373e-02
2.468361556529998779e-01 -1.192517578601837158e-01 1.597286760807037354e-02
1.077150106430053711e-01 -1.187958493828773499e-01 -4.347388818860054016e-02
1.482724994421005249e-01 -1.169880181550979614e-01 -7.021447271108627319e-02
1.593262851238250732e-01 -1.178915500640869141e-01 -5.662156268954277039e-02
1.184487491846084595e-01 -1.184882745146751404e-01 -2.975926548242568970e-02
1.172626093029975891e-01 -1.176818236708641052e-01 -6.048509106040000916e-02
1.374432444572448730e-01 -1.190930902957916260e-01 2.811048924922943115e-02
1.162714436650276184e-01 -1.188799887895584106e-01 -6.711073219776153564e-03
1.799840033054351807e-01 -1.154785826802253723e-01 -5.914030969142913818e-02
1.621176004409790039e-01 -1.183777377009391785e-01 2.483455091714859009e-02
1.664928793907165527e-01 -1.180658712983131409e-01 -6.979256868362426758e-04
1.472491919994354248e-01 -1.189618706703186035e-01 -1.379498094320297241e-02
8.840018510818481445e-02 -1.183078363537788391e-01 -3.463754057884216309e-02
9.844705462455749512e-02 -1.192358806729316711e-01 1.255236566066741943e-03
1.666104346513748169e-01 -1.172677800059318542e-01 -1.913923397660255432e-02
1.487783491611480713e-01 -1.186674088239669800e-01 6.578259170055389404e-03
1.285767257213592529e-01 -1.178936809301376343e-01 -7.609140127897262573e-02
1.179769486188888550e-01 -1.189261302351951599e-01 1.683552563190460205e-02
1.562282443046569824e-01 -1.181882098317146301e-01 -3.128648549318313599e-02
1.705363988876342773e-01 -1.171880960464477539e-01 -4.083766788244247437e-02
1.652970910072326660e-01 -1.163225546479225159e-01 -7.920014113187789917e-02
1.383153945207595825e-01 -1.182699501514434814e-01 -3.274314105510711670e-02
1.473303139209747314e-01 -1.176798343658447266e-01 -4.436089098453521729e-02
1.039932966232299805e-01 -1.193138360977172852e-01 -2.155259251594543457e-02
1.284210383892059326e-01 -1.182519942522048950e-01 -4.354831948876380920e-02
1.341444104909896851e-01 -1.185464709997177124e-01 1.726500689983367920e-03
1.850894391536712646e-01 -1.164215132594108582e-01 -2.904057130217552185e-02
1.420724093914031982e-01 -1.167541518807411194e-01 -9.078047424554824829e-02
1.306258440017700195e-01 -1.193819865584373474e-01 -1.732956618070602417e-02
1.354116350412368774e-01 -1.186883598566055298e-01 -5.868713930249214172e-02
9.504617005586624146e-02 -1.180748865008354187e-01 -5.996589362621307373e-02
1.087064817547798157e-01 -1.173418760299682617e-01 -8.170415461063385010e-02
1.849246621131896973e-01 -1.167968809604644775e-01 -2.690222114324569702e-03
1.862136572599411011e-01 -1.061132550239562988e-02 8.245238661766052246e-02
2.171912491321563721e-01 -1.105090975761413574e-02 4.303355515003204346e-02
2.239130288362503052e-01 -1.154939830303192139e-02 6.495930999517440796e-02
1.955212503671646118e-01 -1.227404177188873291e-02 9.351660311222076416e-02
1.979179978370666504e-01 -1.211614906787872314e-02 6.234813481569290161e-02
2.038953602313995361e-01 -1.100476086139678955e-02 1.521041989326477051e-01
1.950946003198623657e-01 -1.092167198657989502e-02 1.253052204847335815e-01
2.315334975719451904e-01 -1.067848503589630127e-02 4.863821715116500854e-02
2.150456458330154419e-01 -1.156368851661682129e-02 1.445204317569732666e-01
2.303948402404785156e-01 -1.283437013626098633e-02 1.386913657188415527e-01
2.107950001955032349e-01 -1.015865802764892578e-02 1.151899769902229309e-01
1.814435869455337524e-01 -1.156601309776306152e-02 1.000852882862091064e-01
1.816809624433517456e-01 -1.189921796321868896e-02 1.305869072675704956e-01
2.210704535245895386e-01 -1.190297305583953857e-02 1.113650128245353699e-01
2.156006097793579102e-01 -1.124261319637298584e-02 1.284027695655822754e-01
2.038199901580810547e-01 -1.158659160137176514e-02 3.453710675239562988e-02
1.922607719898223877e-01 -1.050415635108947754e-02 1.418597102165222168e-01
2.227109819650650024e-01 -1.327155530452728271e-02 9.382045269012451172e-02
2.325768917798995972e-01 -1.062622666358947754e-02 7.741659134626388550e-02
2.237257361412048340e-01 -1.021516323089599609e-02 2.102602273225784302e-02
2.114694714546203613e-01 -1.099078357219696045e-02 8.517158031463623047e-02
2.133311927318572998e-01 -1.085720956325531006e-02 9.386443346738815308e-02
1.887444406747817993e-01 -1.230445504188537598e-02 1.108461022377014160e-01
2.047957777976989746e-01 -1.062464714050292969e-02 8.038560301065444946e-02
2.059194594621658325e-01 -1.127238571643829346e-02 1.326517462730407715e-01
2.336317300796508789e-01 -1.184685528278350830e-02 9.857492893934249878e-02
2.120871990919113159e-01 -1.132887601852416992e-02 2.358682453632354736e-03
2.023331522941589355e-01 -1.174694299697875977e-02 1.076806932687759399e-01
2.066665291786193848e-01 -1.277388632297515869e-02 6.067175418138504028e-02
1.847973465919494629e-01 -1.277099549770355225e-02 5.195493996143341064e-02
1.944509446620941162e-01 -1.131361722946166992e-02 1.709122955799102783e-02
2.314982414245605469e-01 -1.162903010845184326e-02 1.235742866992950439e-01
3.127775490283966064e-01 -1.205687969923019409e-01 1.009543985128402710e-01
3.509625494480133057e-01 -1.178400442004203796e-01 7.525648176670074463e-02
3.550488650798797607e-01 -1.161858886480331421e-01 9.191926568746566772e-02
3.231321871280670166e-01 -1.199339628219604492e-01 1.100085377693176270e-01
3.256596922874450684e-01 -1.208692342042922974e-01 8.569241315126419067e-02
3.428743183612823486e-01 -1.130614727735519409e-01 1.517510116100311279e-01
3.265245258808135986e-01 -1.177338510751724243e-01 1.330540180206298828e-01
3.637018501758575439e-01 -1.086112484335899353e-01 8.249805867671966553e-02
3.544712662696838379e-01 -1.108768656849861145e-01 1.485724598169326782e-01
3.618358075618743896e-01 -1.083770915865898132e-01 1.420994251966476440e-01
3.447121977806091309e-01 -1.169234290719032288e-01 1.228301227092742920e-01
3.016325235366821289e-01 -1.190220713615417480e-01 1.172950118780136108e-01
3.101728856563568115e-01 -1.174525395035743713e-01 1.414575129747390747e-01
3.582304716110229492e-01 -1.109485030174255371e-01 1.245171278715133667e-01
3.498109579086303711e-01 -1.137299984693527222e-01 1.358100473880767822e-01
3.356094062328338623e-01 -1.213362812995910645e-01 6.752495467662811279e-02
3.274788558483123779e-01 -1.152057796716690063e-01 1.485503315925598145e-01
3.548171520233154297e-01 -1.149207800626754761e-01 1.129863560199737549e-01
3.616548478603363037e-01 -1.120704412460327148e-01 1.022015586495399475e-01
3.589961528778076172e-01 -1.145607903599739075e-01 6.282688677310943604e-02
3.390687108039855957e-01 -1.180334463715553284e-01 1.067345067858695984e-01
3.478622138500213623e-01 -1.150997728109359741e-01 1.038344353437423706e-01
3.172514736652374268e-01 -1.194130629301071167e-01 1.230827197432518005e-01
3.311327993869781494e-01 -1.183502972126007080e-01 9.940606355667114258e-02
3.377990722656250000e-01 -1.157345026731491089e-01 1.366934329271316528e-01
3.654505014419555664e-01 -1.058254092931747437e-01 1.130497306585311890e-01
3.466843664646148682e-01 -1.191868036985397339e-01 5.347409471869468689e-02
3.344981074333190918e-01 -1.187476143240928650e-01 1.192260682582855225e-01
3.413598835468292236e-01 -1.202427744865417480e-01 8.426450192928314209e-02
3.085349500179290771e-01 -1.203868389129638672e-01 8.392126113176345825e-02
3.198598623275756836e-01 -1.210086196660995483e-01 6.213080137968063354e-02
3.656008839607238770e-01 -1.051092371344566345e-01 1.332687586545944214e-01
2.021351605653762817e-01 -8.645731024444103241e-03 8.317669853568077087e-03
2.280247658491134644e-01 -1.033265702426433563e-02 -2.266503497958183289e-02
2.373026013374328613e-01 -1.208362169563770294e-02 -5.562763661146163940e-03
2.118711918592453003e-01 -8.914435282349586487e-03 1.766535453498363495e-02
2.094202339649200439e-01 -8.324419148266315460e-03 -7.720541208982467651e-03
2.194439917802810669e-01 -9.768201969563961029e-03 7.393792271614074707e-02
2.118251621723175049e-01 -8.907158859074115753e-03 4.475368186831474304e-02
2.472444921731948853e-01 -1.379143353551626205e-02 -1.833393424749374390e-02
2.313035279512405396e-01 -1.059595495462417603e-02 6.587325036525726318e-02
2.437545061111450195e-01 -1.327798888087272644e-02 6.017173826694488525e-02
2.258165776729583740e-01 -1.028312277048826218e-02 3.836711123585700989e-02
1.935047060251235962e-01 -8.175171911716461182e-03 2.221414633095264435e-02
1.990212947130203247e-01 -8.638191036880016327e-03 4.978628829121589661e-02
2.400210350751876831e-01 -1.187756005674600601e-02 3.431792929768562317e-02
2.328832149505615234e-01 -1.155822910368442535e-02 4.995766282081604004e-02
2.167790383100509644e-01 -9.547282941639423370e-03 -2.846991643309593201e-02
2.084736227989196777e-01 -8.722828701138496399e-03 6.262508779764175415e-02
2.390680611133575439e-01 -1.205607783049345016e-02 1.940940693020820618e-02
2.470749169588088989e-01 -1.274211332201957703e-02 5.868868902325630188e-03
2.361788898706436157e-01 -1.225878298282623291e-02 -4.042962566018104553e-02
2.287998795509338379e-01 -1.071590464562177658e-02 9.166333824396133423e-03
2.297633141279220581e-01 -1.020427327603101730e-02 2.063414081931114197e-02
2.043914347887039185e-01 -8.907542563974857330e-03 3.201488032937049866e-02
2.205985337495803833e-01 -9.669077582657337189e-03 8.232397958636283875e-03
2.215370684862136841e-01 -9.686425328254699707e-03 5.361273139715194702e-02
2.514163553714752197e-01 -1.489094924181699753e-02 2.369878813624382019e-02
2.230996787548065186e-01 -1.027403026819229126e-02 -5.734018608927726746e-02
2.173006981611251831e-01 -9.679208509624004364e-03 2.980260923504829407e-02
2.210530787706375122e-01 -1.026769820600748062e-02 -7.245544344186782837e-03
1.969564408063888550e-01 -8.244924247264862061e-03 -1.460110396146774292e-02
2.051455676555633545e-01 -8.391023613512516022e-03 -4.345041140913963318e-02
2.508539855480194092e-01 -1.420296635478734970e-02 4.571563377976417542e-02
-1.204407885670661926e-01 -3.833201481029391289e-03 -2.193785309791564941e-01
-1.085707917809486389e-01 9.878206066787242889e-03 -2.168114334344863892e-01
-9.862928837537765503e-02 -9.063025936484336853e-03 -2.129267454147338867e-01
-1.140654161572456360e-01 7.233115844428539276e-03 -2.185133844614028931e-01
-1.155617088079452515e-01 1.217658538371324539e-02 -2.165588736534118652e-01
-1.056974604725837708e-01 -1.052271109074354172e-04 -2.183148264884948730e-01
-1.122687458992004395e-01 -1.314393011853098869e-03 -2.188711613416671753e-01
-8.531672507524490356e-02 3.941024653613567352e-03 -2.144633084535598755e-01
-1.031195893883705139e-01 1.260252017527818680e-02 -2.141851186752319336e-01
-8.912211656570434570e-02 -7.389196194708347321e-03 -2.120398581027984619e-01
-1.003933548927307129e-01 2.308546798303723335e-03 -2.169152498245239258e-01
-1.244656145572662354e-01 8.709656074643135071e-03 -2.188130468130111694e-01
-1.253910660743713379e-01 -8.723217062652111053e-03 -2.177770435810089111e-01
-9.364756941795349121e-02 9.525214321911334991e-03 -2.138587683439254761e-01
-9.446571022272109985e-02 -5.334076471626758575e-03 -2.152704149484634399e-01
-1.158007234334945679e-01 -6.470295600593090057e-03 -2.180483490228652954e-01
-1.175709292292594910e-01 7.760908920317888260e-04 -2.195516973733901978e-01
-1.061392500996589661e-01 -1.023558992892503738e-02 -2.111941725015640259e-01
-9.931300580501556396e-02 -2.344920067116618156e-03 -2.165772765874862671e-01
-9.080180525779724121e-02 -6.566268857568502426e-04 -2.155569046735763550e-01
-1.032784283161163330e-01 -5.722286179661750793e-03 -2.161905169486999512e-01
-1.000573262572288513e-01 7.865651510655879974e-03 -2.162149846553802490e-01
-1.256670951843261719e-01 1.106214942410588264e-03 -2.203166335821151733e-01
-1.047815009951591492e-01 5.033348686993122101e-03 -2.177475988864898682e-01
-1.102766767144203186e-01 3.597022267058491707e-03 -2.187412530183792114e-01
-8.196067810058593750e-02 -2.759135095402598381e-03 -2.133863419294357300e-01
-1.090812385082244873e-01 -4.405680112540721893e-03 -2.179432213306427002e-01
-1.108939200639724731e-01 -8.575431071221828461e-03 -2.161083817481994629e-01
-1.180293262004852295e-01 -1.059920620173215866e-02 -2.147264033555984497e-01
-1.308924257755279541e-01 -4.588934592902660370e-03 -2.198459804058074951e-01
-1.193329095840454102e-01 5.636214278638362885e-03 -2.199664115905761719e-01
-9.420752525329589844e-02 3.794090123847126961e-03 -2.157289087772369385e-01
7.124240696430206299e-02 -1.170552521944046021e-01 -9.005503356456756592e-02
1.041708737611770630e-01 -1.171271577477455139e-01 -1.120279505848884583e-01
1.133263334631919861e-01 -1.188099756836891174e-01 -1.002659201622009277e-01
8.075770735740661621e-02 -1.177581921219825745e-01 -7.968290150165557861e-02
7.950006425380706787e-02 -1.164203882217407227e-01 -1.032288596034049988e-01
9.556626528501510620e-02 -1.206717863678932190e-01 -2.521853893995285034e-02
8.014948666095733643e-02 -1.189410388469696045e-01 -5.804028362035751343e-02
1.295943260192871094e-01 -1.184634715318679810e-01 -1.046531349420547485e-01
1.133615300059318542e-01 -1.207668110728263855e-01 -3.127118945121765137e-02
1.211614534258842468e-01 -1.219661235809326172e-01 -4.750535637140274048e-02
1.029058471322059631e-01 -1.197848320007324219e-01 -6.385122239589691162e-02
5.802489817142486572e-02 -1.164293512701988220e-01 -8.107409626245498657e-02
6.681104004383087158e-02 -1.185713559389114380e-01 -5.147960782051086426e-02
1.198910474777221680e-01 -1.202040165662765503e-01 -6.714613735675811768e-02
1.062458753585815430e-01 -1.206102669239044189e-01 -4.711944609880447388e-02
8.821837604045867920e-02 -1.164710074663162231e-01 -1.160507276654243469e-01
8.135716617107391357e-02 -1.194509863853454590e-01 -3.763031959533691406e-02
1.124930232763290405e-01 -1.198414266109466553e-01 -7.879452407360076904e-02
1.236479207873344421e-01 -1.195947155356407166e-01 -8.806818723678588867e-02
1.173406243324279785e-01 -1.172929555177688599e-01 -1.200354993343353271e-01
9.766682982444763184e-02 -1.184621229767799377e-01 -8.415697515010833740e-02
1.044426411390304565e-01 -1.189611032605171204e-01 -8.646404743194580078e-02
7.052053511142730713e-02 -1.181435734033584595e-01 -7.071141153573989868e-02
8.907441049814224243e-02 -1.182410567998886108e-01 -8.943044394254684448e-02
9.406079351902008057e-02 -1.197879016399383545e-01 -5.048982426524162292e-02
1.345131695270538330e-01 -1.205699518322944641e-01 -7.756024599075317383e-02
9.805664420127868652e-02 -1.159101724624633789e-01 -1.282321065664291382e-01
9.058223664760589600e-02 -1.192894205451011658e-01 -6.898368149995803833e-02
9.465911239385604858e-02 -1.179376691579818726e-01 -1.022609770298004150e-01
6.302855908870697021e-02 -1.157500147819519043e-01 -1.042461991310119629e-01
7.301576435565948486e-02 -1.150021702051162720e-01 -1.213629692792892456e-01
1.341641098260879517e-01 -1.212870031595230103e-01 -5.653714016079902649e-02
-4.798820242285728455e-02 -2.728783711791038513e-02 -1.658133417367935181e-01
-2.204111590981483459e-02 -3.185778856277465820e-02 -1.769051551818847656e-01
-1.336050592362880707e-02 -3.291039541363716125e-02 -1.733648180961608887e-01
-3.862579911947250366e-02 -2.874326705932617188e-02 -1.636356115341186523e-01
-4.231197759509086609e-02 -2.812077105045318604e-02 -1.732006371021270752e-01
-2.820627950131893158e-02 -3.142204135656356812e-02 -1.210339665412902832e-01
-3.771124407649040222e-02 -2.914108522236347198e-02 -1.443188786506652832e-01
-1.417079940438270569e-03 -3.518701344728469849e-02 -1.753806769847869873e-01
-1.786172762513160706e-02 -3.232419490814208984e-02 -1.296479701995849609e-01
-5.845770239830017090e-03 -3.493842482566833496e-02 -1.362800449132919312e-01
-2.367576584219932556e-02 -3.071785345673561096e-02 -1.516046524047851562e-01
-5.846311151981353760e-02 -2.592624723911285400e-02 -1.575609743595123291e-01
-5.146437138319015503e-02 -2.782503515481948853e-02 -1.389400213956832886e-01
-8.617589250206947327e-03 -3.334597125649452209e-02 -1.538820713758468628e-01
-1.593128591775894165e-02 -3.268185257911682129e-02 -1.427735984325408936e-01
-3.806154429912567139e-02 -3.331337869167327881e-02 -1.784996390342712402e-01
-4.088154435157775879e-02 -2.908454835414886475e-02 -1.300661563873291016e-01
-1.336580701172351837e-02 -3.241522237658500671e-02 -1.639820933341979980e-01
-5.803342908620834351e-03 -3.377228230237960815e-02 -1.671288907527923584e-01
-1.147655770182609558e-02 -3.698581829667091370e-02 -1.792696267366409302e-01
-2.353841066360473633e-02 -3.094217553734779358e-02 -1.681932955980300903e-01
-1.950605213642120361e-02 -3.129761293530464172e-02 -1.609843671321868896e-01
-4.618654027581214905e-02 -2.770037762820720673e-02 -1.529131084680557251e-01
-3.011316433548927307e-02 -2.996488846838474274e-02 -1.656433790922164917e-01
-2.768513746559619904e-02 -3.072369471192359924e-02 -1.417195945978164673e-01
3.823950886726379395e-03 -3.600258380174636841e-02 -1.602514088153839111e-01
-2.816310152411460876e-02 -3.675132617354393005e-02 -1.802234649658203125e-01
-3.267890959978103638e-02 -2.975796721875667572e-02 -1.556483507156372070e-01
-3.221003711223602295e-02 -3.081739321351051331e-02 -1.742291152477264404e-01
-5.780423432588577271e-02 -2.664237096905708313e-02 -1.728536784648895264e-01
-4.944643750786781311e-02 -2.884674444794654846e-02 -1.790842711925506592e-01
1.333661377429962158e-03 -3.569379076361656189e-02 -1.461225897073745728e-01
2.282816469669342041e-01 -1.851822882890701294e-01 -4.666235297918319702e-02
2.338253110647201538e-01 -1.833023428916931152e-01 -4.860877990722656250e-02
2.414569556713104248e-01 -1.930516511201858521e-01 -5.445691198110580444e-02
2.307254672050476074e-01 -1.839248389005661011e-01 -4.748720303177833557e-02
2.290468066930770874e-01 -1.798799782991409302e-01 -4.299651086330413818e-02
2.333186119794845581e-01 -1.834050118923187256e-01 -4.552128538489341736e-02
2.312300950288772583e-01 -1.839226931333541870e-01 -4.946957156062126160e-02
2.568552196025848389e-01 -1.858939081430435181e-01 -5.566770583391189575e-02
2.372356504201889038e-01 -1.812999248504638672e-01 -4.634095728397369385e-02
2.504966855049133301e-01 -1.987057179212570190e-01 -5.498148500919342041e-02
2.357885837554931641e-01 -1.842304915189743042e-01 -5.278296768665313721e-02
2.197184562683105469e-01 -1.817029267549514771e-01 -4.233749955892562866e-02
2.229111343622207642e-01 -1.890167444944381714e-01 -4.467999935150146484e-02
2.448469847440719604e-01 -1.822880506515502930e-01 -5.133266374468803406e-02
2.416084706783294678e-01 -1.870180517435073853e-01 -5.442208796739578247e-02
2.312038540840148926e-01 -1.880127936601638794e-01 -4.844830557703971863e-02
2.276420295238494873e-01 -1.832689493894577026e-01 -4.482783377170562744e-02
2.390182912349700928e-01 -2.101901471614837646e-01 -5.196223035454750061e-02
2.389020323753356934e-01 -1.858924478292465210e-01 -5.369649827480316162e-02
2.470355331897735596e-01 -1.872315704822540283e-01 -5.584065616130828857e-02
2.367519140243530273e-01 -1.873987019062042236e-01 -5.258309841156005859e-02
2.378102391958236694e-01 -1.841392815113067627e-01 -5.155652388930320740e-02
2.230217903852462769e-01 -1.835476756095886230e-01 -4.381875321269035339e-02
2.341948896646499634e-01 -1.841322630643844604e-01 -5.083487927913665771e-02
2.327770888805389404e-01 -1.839560121297836304e-01 -4.913755878806114197e-02
2.680248320102691650e-01 -1.900253891944885254e-01 -5.657965689897537231e-02
2.337324023246765137e-01 -1.862384825944900513e-01 -5.087330192327499390e-02
2.343799918889999390e-01 -1.924862861633300781e-01 -5.149962380528450012e-02
2.297310978174209595e-01 -2.019488960504531860e-01 -4.807296022772789001e-02
2.181826233863830566e-01 -1.854261457920074463e-01 -4.310305789113044739e-02
2.265569269657135010e-01 -1.834203600883483887e-01 -4.551409929990768433e-02
2.465435564517974854e-01 -1.856416314840316772e-01 -5.206741392612457275e-02
1.605723425745964050e-02 -1.028382480144500732e-01 -1.573099792003631592e-01
3.141145408153533936e-02 -9.061258286237716675e-02 -1.672664582729339600e-01
4.329336434602737427e-02 -1.076303273439407349e-01 -1.509295403957366943e-01
2.586165443062782288e-02 -9.380286186933517456e-02 -1.652852445840835571e-01
2.289511263370513916e-02 -8.869020640850067139e-02 -1.689509898424148560e-01
3.544349595904350281e-02 -9.908431768417358398e-02 -1.601963341236114502e-01
2.730181068181991577e-02 -1.006941422820091248e-01 -1.590706706047058105e-01
6.118375808000564575e-02 -9.457439184188842773e-02 -1.628322601318359375e-01
3.952179104089736938e-02 -8.801376819610595703e-02 -1.691520512104034424e-01
5.542740225791931152e-02 -1.058358699083328247e-01 -1.527154445648193359e-01
4.089020937681198120e-02 -9.728488326072692871e-02 -1.617227792739868164e-01
8.422264829277992249e-03 -9.300139546394348145e-02 -1.664204299449920654e-01
9.741455316543579102e-03 -1.074114218354225159e-01 -1.531338393688201904e-01
5.138560384511947632e-02 -8.999857306480407715e-02 -1.669293642044067383e-01
4.889032989740371704e-02 -1.033577769994735718e-01 -1.560502201318740845e-01
2.328007109463214874e-02 -1.053129583597183228e-01 -1.546163111925125122e-01
2.130407840013504028e-02 -9.911540150642395020e-02 -1.608116477727890015e-01
3.363069146871566772e-02 -1.105659678578376770e-01 -1.487788707017898560e-01
4.281652718782424927e-02 -1.008544638752937317e-01 -1.579458713531494141e-01
5.483520776033401489e-02 -9.904606640338897705e-02 -1.590804755687713623e-01
3.831636905670166016e-02 -1.043712943792343140e-01 -1.545469909906387329e-01
4.409898817539215088e-02 -9.234085679054260254e-02 -1.654620319604873657e-01
9.929580613970756531e-03 -9.964707493782043457e-02 -1.614348739385604858e-01
3.667316585779190063e-02 -9.479301422834396362e-02 -1.638253629207611084e-01
3.047554753720760345e-02 -9.710156917572021484e-02 -1.624968796968460083e-01
6.543213874101638794e-02 -1.007100492715835571e-01 -1.572028696537017822e-01
3.124401532113552094e-02 -1.030074954032897949e-01 -1.564230322837829590e-01
2.912212163209915161e-02 -1.074015200138092041e-01 -1.528014987707138062e-01
1.912273839116096497e-02 -1.105856224894523621e-01 -1.500969231128692627e-01
-4.076864570379257202e-04 -1.035949364304542542e-01 -1.572144180536270142e-01
1.751823537051677704e-02 -9.514344483613967896e-02 -1.641665101051330566e-01
4.893355071544647217e-02 -9.536609053611755371e-02 -1.629987657070159912e-01
6.583444774150848389e-02 -4.552486538887023926e-02 -1.009006351232528687e-01
7.957287132740020752e-02 -3.433745354413986206e-02 -1.185411661863327026e-01
8.426343649625778198e-02 -3.218279778957366943e-02 -1.099839583039283752e-01
7.094421982765197754e-02 -4.009745270013809204e-02 -9.532605856657028198e-02
6.951664388179779053e-02 -4.116366803646087646e-02 -1.097684055566787720e-01
7.699432224035263062e-02 -3.691465407609939575e-02 -4.736170545220375061e-02
7.182497531175613403e-02 -4.054006934165954590e-02 -7.286012917757034302e-02
9.149869531393051147e-02 -2.786581777036190033e-02 -1.145681887865066528e-01
8.325996994972229004e-02 -3.222646564245223999e-02 -5.911281704902648926e-02
8.987359702587127686e-02 -3.005888313055038452e-02 -6.853912770748138428e-02
7.855474203824996948e-02 -3.569239750504493713e-02 -8.099445700645446777e-02
5.991826206445693970e-02 -5.152218043804168701e-02 -9.188073873519897461e-02
6.420712172985076904e-02 -4.864308983087539673e-02 -6.797333806753158569e-02
8.694670349359512329e-02 -3.003978356719017029e-02 -8.621277660131454468e-02
8.398463577032089233e-02 -3.243002295494079590e-02 -7.245904207229614258e-02
7.256709784269332886e-02 -3.937845677137374878e-02 -1.231562644243240356e-01
7.028089463710784912e-02 -4.253903031349182129e-02 -5.754424631595611572e-02
8.311747014522552490e-02 -3.301962092518806458e-02 -9.548749029636383057e-02
8.921316266059875488e-02 -2.960687689483165741e-02 -1.029801592230796814e-01
8.574373275041580200e-02 -3.121846914291381836e-02 -1.263294816017150879e-01
8.063122630119323730e-02 -3.445754572749137878e-02 -1.019657999277114868e-01
8.054021745920181274e-02 -3.355402499437332153e-02 -9.203679114580154419e-02
6.653769314289093018e-02 -4.510445147752761841e-02 -8.194255828857421875e-02
7.567595690488815308e-02 -3.700709342956542969e-02 -1.010235249996185303e-01
7.732115685939788818e-02 -3.631448000669479370e-02 -7.088822126388549805e-02
9.338318556547164917e-02 -2.710911445319652557e-02 -9.348379820585250854e-02
7.760252803564071655e-02 -3.549513220787048340e-02 -1.356016844511032104e-01
7.338839769363403320e-02 -3.927573189139366150e-02 -8.710639178752899170e-02
7.432875037193298340e-02 -3.835186362266540527e-02 -1.121210902929306030e-01
6.122803688049316406e-02 -5.052852258086204529e-02 -1.138481721282005310e-01
6.591044366359710693e-02 -4.558075219392776489e-02 -1.285143792629241943e-01
9.351413697004318237e-02 -2.746802568435668945e-02 -7.738713920116424561e-02
4.854803904891014099e-02 -6.363943964242935181e-02 -1.268843263387680054e-01
5.940413102507591248e-02 -5.248986929655075073e-02 -1.494981348514556885e-01
4.345426708459854126e-02 -7.627283781766891479e-02 -1.312684118747711182e-01
5.876783654093742371e-02 -5.339418351650238037e-02 -1.032981351017951965e-01
6.438332796096801758e-02 -4.935469478368759155e-02 -1.385895758867263794e-01
4.855377227067947388e-02 -6.492243707180023193e-02 -4.717484116554260254e-03
5.185219272971153259e-02 -6.075058132410049438e-02 -4.680541902780532837e-02
5.464126914739608765e-02 -5.520202964544296265e-02 -1.424940079450607300e-01
6.211633980274200439e-02 -5.161341652274131775e-02 -4.390738159418106079e-02
3.961097449064254761e-02 -8.976149559020996094e-02 -8.290356397628784180e-02
5.055236071348190308e-02 -6.161339208483695984e-02 -9.960103780031204224e-02
5.428679287433624268e-02 -5.615443363785743713e-02 -1.196247786283493042e-01
4.348302632570266724e-02 -7.775051891803741455e-02 -2.921947836875915527e-02
6.434445828199386597e-02 -5.009163543581962585e-02 -1.129087954759597778e-01
4.638828337192535400e-02 -6.945890188217163086e-02 -5.675178021192550659e-02
4.225694388151168823e-02 -7.997371256351470947e-02 -1.590772867202758789e-01
5.503688752651214600e-02 -5.685235932469367981e-02 -2.275434881448745728e-02
3.770864754915237427e-02 -9.812141954898834229e-02 -1.212081760168075562e-01
4.809528216719627380e-02 -6.485745310783386230e-02 -1.401541829109191895e-01
5.079119652509689331e-02 -6.150256842374801636e-02 -1.494359821081161499e-01
4.472864791750907898e-02 -7.250427454710006714e-02 -1.010436862707138062e-01
5.918801575899124146e-02 -5.355477333068847656e-02 -1.265038549900054932e-01
4.869901016354560852e-02 -6.463606655597686768e-02 -7.352799177169799805e-02
5.332828685641288757e-02 -5.855693668127059937e-02 -1.320519149303436279e-01
5.373403057456016541e-02 -5.855548754334449768e-02 -8.709461241960525513e-02
4.513717442750930786e-02 -6.943479180335998535e-02 -1.158711984753608704e-01
4.705486446619033813e-02 -6.631556898355484009e-02 -1.657272577285766602e-01
4.150801151990890503e-02 -8.270739763975143433e-02 -1.056085899472236633e-01
4.028208553791046143e-02 -8.807674050331115723e-02 -1.429133713245391846e-01
4.591445252299308777e-02 -6.974585354328155518e-02 -1.463140696287155151e-01
5.438985303044319153e-02 -5.674804747104644775e-02 -1.601300984621047974e-01
5.619632825255393982e-02 -5.507195740938186646e-02 -6.729833036661148071e-02
2.875106930732727051e-01 -2.103599347174167633e-02 8.717924356460571289e-02
3.143581151962280273e-01 -3.578758612275123596e-02 5.236769095063209534e-02
3.233143985271453857e-01 -4.270252585411071777e-02 7.015485316514968872e-02
2.966960370540618896e-01 -2.543143928050994873e-02 9.720686078071594238e-02
2.944576740264892578e-01 -2.392572350800037384e-02 6.962053477764129639e-02
3.063603341579437256e-01 -3.046999126672744751e-02 1.568327397108078003e-01
2.943830490112304688e-01 -2.368011139333248138e-02 1.235505342483520508e-01
3.369698524475097656e-01 -5.599993467330932617e-02 5.912483483552932739e-02
3.188725113868713379e-01 -3.850418701767921448e-02 1.464020460844039917e-01
3.310505151748657227e-01 -4.877607524394989014e-02 1.392547488212585449e-01
3.104734718799591064e-01 -3.137946873903274536e-02 1.157467067241668701e-01
2.788890898227691650e-01 -1.704885251820087433e-02 9.982814639806747437e-02
2.841300368309020996e-01 -1.935106515884399414e-02 1.321294903755187988e-01
3.278388679027557373e-01 -4.483081400394439697e-02 1.140758693218231201e-01
3.169110715389251709e-01 -3.844778984785079956e-02 1.302026957273483276e-01
3.004947602748870850e-01 -2.746989205479621887e-02 4.566825926303863525e-02
2.945861220359802246e-01 -2.317629754543304443e-02 1.452435851097106934e-01
3.233279585838317871e-01 -4.213168099522590637e-02 1.000675410032272339e-01
3.319679498672485352e-01 -4.722635447978973389e-02 8.648273348808288574e-02
3.242754340171813965e-01 -4.558683931827545166e-02 2.927081286907196045e-02
3.117305338382720947e-01 -3.578612953424453735e-02 8.848686516284942627e-02
3.144234120845794678e-01 -3.443994373083114624e-02 9.578260779380798340e-02
2.882384657859802246e-01 -2.070935443043708801e-02 1.111835092306137085e-01
3.036782741546630859e-01 -2.875034883618354797e-02 8.433373272418975830e-02
3.051089942455291748e-01 -2.945626527070999146e-02 1.316489279270172119e-01
3.431630134582519531e-01 -5.935209617018699646e-02 9.865518659353256226e-02
3.071032166481018066e-01 -3.330902382731437683e-02 1.379619538784027100e-02
3.012049496173858643e-01 -2.737019956111907959e-02 1.093564406037330627e-01
3.059158027172088623e-01 -3.044990450143814087e-02 6.762047111988067627e-02
2.817939519882202148e-01 -1.847047172486782074e-02 6.382614374160766602e-02
2.891604900360107422e-01 -2.197838947176933289e-02 3.267407044768333435e-02
3.423540592193603516e-01 -5.648959055542945862e-02 1.257493644952774048e-01
3.491071984171867371e-04 -8.178047835826873779e-02 -1.727417856454849243e-01
1.429902389645576477e-02 -6.260621547698974609e-02 -1.764270216226577759e-01
2.538286522030830383e-02 -9.040540456771850586e-02 -1.685109287500381470e-01
8.615843020379543304e-03 -6.678810715675354004e-02 -1.760015785694122314e-01
7.397129200398921967e-03 -5.820531025528907776e-02 -1.768087148666381836e-01
1.732597313821315765e-02 -7.621937245130538940e-02 -1.741948425769805908e-01
9.773047640919685364e-03 -7.907268404960632324e-02 -1.735932379961013794e-01
4.081432893872261047e-02 -6.985050439834594727e-02 -1.753157675266265869e-01
2.138894796371459961e-02 -5.771262943744659424e-02 -1.767701208591461182e-01
3.662592917680740356e-02 -8.816139400005340576e-02 -1.696474999189376831e-01
2.327772974967956543e-02 -7.337666302919387817e-02 -1.747304350137710571e-01
-3.760627470910549164e-03 -6.415449827909469604e-02 -1.760691255331039429e-01
-4.705823026597499847e-03 -8.864251524209976196e-02 -1.699046045541763306e-01
3.334768861532211304e-02 -6.169938296079635620e-02 -1.763544082641601562e-01
2.941723540425300598e-02 -8.363147825002670288e-02 -1.719126552343368530e-01
5.750398151576519012e-03 -8.552692085504531860e-02 -1.710923165082931519e-01
3.900045529007911682e-03 -7.604764401912689209e-02 -1.743150651454925537e-01
1.627229899168014526e-02 -9.502086043357849121e-02 -1.665211319923400879e-01
2.356215193867683411e-02 -7.946947962045669556e-02 -1.728356182575225830e-01
3.354518860578536987e-02 -7.658210396766662598e-02 -1.735512614250183105e-01
1.983249373733997345e-02 -8.518169075250625610e-02 -1.709900051355361938e-01
2.445473894476890564e-02 -6.529752910137176514e-02 -1.759478747844696045e-01
-6.092828698456287384e-03 -7.446232438087463379e-02 -1.744767576456069946e-01
1.800749450922012329e-02 -6.927464902400970459e-02 -1.755135059356689453e-01
1.167350262403488159e-02 -7.298237085342407227e-02 -1.750788390636444092e-01
4.333565384149551392e-02 -7.960622757673263550e-02 -1.724561303853988647e-01
1.346556842327117920e-02 -8.244552463293075562e-02 -1.721367239952087402e-01
1.176883187144994736e-02 -8.927151560783386230e-02 -1.698296219110488892e-01
2.993826754391193390e-03 -9.384716302156448364e-02 -1.680302768945693970e-01
-1.160190906375646591e-02 -8.184187114238739014e-02 -1.724443733692169189e-01
2.170692197978496552e-03 -6.939853727817535400e-02 -1.757079809904098511e-01
2.980443462729454041e-02 -7.023186981678009033e-02 -1.753508001565933228e-01
-2.592236734926700592e-02 -3.163616359233856201e-02 -1.743593961000442505e-01
-8.586298674345016479e-03 -3.773252665996551514e-02 -1.797217726707458496e-01
-1.318371854722499847e-03 -3.737245872616767883e-02 -1.779300868511199951e-01
-1.911868527531623840e-02 -3.291514515876770020e-02 -1.738773137331008911e-01
-2.257669158279895782e-02 -3.353710100054740906e-02 -1.782977730035781860e-01
-1.227886974811553955e-02 -3.362186253070831299e-02 -1.406801342964172363e-01
-1.836632564663887024e-02 -3.217669948935508728e-02 -1.614118069410324097e-01
8.363009430468082428e-03 -3.952863812446594238e-02 -1.787492334842681885e-01
-4.882066510617733002e-03 -3.431672602891921997e-02 -1.522120535373687744e-01
3.889595158398151398e-03 -3.591593354940414429e-02 -1.575482189655303955e-01
-9.329550899565219879e-03 -3.318070620298385620e-02 -1.675737053155899048e-01
-3.284811228513717651e-02 -3.019560687243938446e-02 -1.699616312980651855e-01
-2.781744673848152161e-02 -3.115354850888252258e-02 -1.573420166969299316e-01
2.631283365190029144e-03 -3.520884737372398376e-02 -1.683197915554046631e-01
-3.495828248560428619e-03 -3.446910902857780457e-02 -1.620323359966278076e-01
-2.020199410617351532e-02 -3.994198516011238098e-02 -1.805147230625152588e-01
-2.094851806759834290e-02 -3.222955763339996338e-02 -1.495924144983291626e-01
-1.875947229564189911e-03 -3.515113145112991333e-02 -1.740559488534927368e-01
4.304648377001285553e-03 -3.654927387833595276e-02 -1.745824664831161499e-01
1.405728980898857117e-04 -4.282442480325698853e-02 -1.804073154926300049e-01
-8.526649326086044312e-03 -3.477040305733680725e-02 -1.759646534919738770e-01
-5.615093745291233063e-03 -3.399922326207160950e-02 -1.722114682197570801e-01
-2.425647713243961334e-02 -3.134759888052940369e-02 -1.677316874265670776e-01
-1.287689525634050369e-02 -3.337510675191879272e-02 -1.743195950984954834e-01
-1.145727373659610748e-02 -3.313596546649932861e-02 -1.616110503673553467e-01
1.319953333586454391e-02 -3.783370554447174072e-02 -1.721418946981430054e-01
-1.270174887031316757e-02 -4.308599606156349182e-02 -1.813899576663970947e-01
-1.575009897351264954e-02 -3.261720761656761169e-02 -1.694927066564559937e-01
-1.572539657354354858e-02 -3.592137992382049561e-02 -1.784447431564331055e-01
-3.331010416150093079e-02 -3.193403780460357666e-02 -1.772457510232925415e-01
-2.821721322834491730e-02 -3.560740500688552856e-02 -1.806590408086776733e-01
1.046290341764688492e-02 -3.683773428201675415e-02 -1.640087217092514038e-01
2.556748092174530029e-01 -2.338041663169860840e-01 -6.143851578235626221e-02
2.648940980434417725e-01 -2.247164845466613770e-01 -8.033448457717895508e-02
2.826774716377258301e-01 -2.435023635625839233e-01 -8.805822581052780151e-02
2.584787011146545410e-01 -2.287279814481735229e-01 -6.600718945264816284e-02
2.558956444263458252e-01 -2.139234989881515503e-01 -6.126797571778297424e-02
2.671445608139038086e-01 -2.389768511056900024e-01 -3.998987376689910889e-03
2.459696084260940552e-01 -2.359777092933654785e-01 -4.777298122644424438e-02
2.990043461322784424e-01 -2.326304018497467041e-01 -9.066852927207946777e-02
2.567723095417022705e-01 -2.228849679231643677e-01 -4.266688227653503418e-02
2.879664301872253418e-01 -2.417156398296356201e-01 -4.666704684495925903e-02
2.628298699855804443e-01 -2.403433918952941895e-01 -6.301581859588623047e-02
2.448008656501770020e-01 -2.193050831556320190e-01 -5.563508719205856323e-02
2.403085082769393921e-01 -2.368445992469787598e-01 -3.625721484422683716e-02
2.711791694164276123e-01 -2.224262654781341553e-01 -6.942609697580337524e-02
2.658158540725708008e-01 -2.407344430685043335e-01 -4.964662343263626099e-02
2.745945453643798828e-01 -2.403810620307922363e-01 -7.641569525003433228e-02
2.447157949209213257e-01 -2.320867329835891724e-01 -2.317431196570396423e-02
2.779418528079986572e-01 -2.441224604845046997e-01 -7.001226395368576050e-02
2.860930860042572021e-01 -2.417671829462051392e-01 -7.507055252790451050e-02
2.893328368663787842e-01 -2.395553141832351685e-01 -9.618113934993743896e-02
2.645751833915710449e-01 -2.404841482639312744e-01 -7.065385580062866211e-02
2.675015926361083984e-01 -2.359455227851867676e-01 -7.757185399532318115e-02
2.424637526273727417e-01 -2.354056537151336670e-01 -5.474859476089477539e-02
2.623068690299987793e-01 -2.351692616939544678e-01 -7.208999991416931152e-02
2.547382712364196777e-01 -2.365389913320541382e-01 -5.477648228406906128e-02
3.149413168430328369e-01 -2.438044548034667969e-01 -6.887568533420562744e-02
2.799647748470306396e-01 -2.364430725574493408e-01 -8.794133365154266357e-02
2.567407190799713135e-01 -2.418531626462936401e-01 -5.363971740007400513e-02
2.602971196174621582e-01 -2.412351965904235840e-01 -6.760462373495101929e-02
2.576093077659606934e-01 -2.354225218296051025e-01 -6.152998283505439758e-02
2.663283050060272217e-01 -2.301240563392639160e-01 -6.912045925855636597e-02
3.053069412708282471e-01 -2.380281537771224976e-01 -3.415399789810180664e-02
-9.408517181873321533e-02 1.652081310749053955e-02 -2.023505121469497681e-01
-8.286685496568679810e-02 1.178779173642396927e-02 -2.107549160718917847e-01
-7.736362516880035400e-02 1.005104556679725647e-02 -2.053707391023635864e-01
-8.784294128417968750e-02 1.563085615634918213e-02 -2.012250870466232300e-01
-9.145091474056243896e-02 1.581287197768688202e-02 -2.087879627943038940e-01
-7.461369037628173828e-02 1.212278474122285843e-02 -1.642762124538421631e-01
-8.498525619506835938e-02 1.539921108633279800e-02 -1.869439035654067993e-01
-7.372821122407913208e-02 6.060880608856678009e-03 -2.068481892347335815e-01
-7.242370396852493286e-02 1.147284451872110367e-02 -1.762355715036392212e-01
-6.503707915544509888e-02 8.004388771951198578e-03 -1.766621023416519165e-01
-7.773859053850173950e-02 1.402626559138298035e-02 -1.918995976448059082e-01
-1.018388718366622925e-01 1.663975790143013000e-02 -1.964551359415054321e-01
-9.304734319448471069e-02 1.514449808746576309e-02 -1.808136105537414551e-01
-6.989982724189758301e-02 1.111189741641283035e-02 -1.909786462783813477e-01
-7.240432500839233398e-02 1.192170288413763046e-02 -1.853654682636260986e-01
-9.021817147731781006e-02 1.143352501094341278e-02 -2.126387059688568115e-01
-8.469712734222412109e-02 1.407969277352094650e-02 -1.727368682622909546e-01
-7.277038693428039551e-02 1.162442285567522049e-02 -1.965860128402709961e-01
-7.247576117515563965e-02 9.037327021360397339e-03 -1.998423784971237183e-01
-7.950990647077560425e-02 5.965454038232564926e-03 -2.114553898572921753e-01
-7.823823392391204834e-02 1.302721351385116577e-02 -2.028762996196746826e-01
-7.694995403289794922e-02 1.370877865701913834e-02 -1.977788805961608887e-01
-9.215088188648223877e-02 1.616044156253337860e-02 -1.923512518405914307e-01
-8.335823565721511841e-02 1.486223284155130386e-02 -2.028258442878723145e-01
-7.835252583026885986e-02 1.408422086387872696e-02 -1.842426806688308716e-01
-6.653108447790145874e-02 5.139044485986232758e-03 -1.965613812208175659e-01
-8.729317039251327515e-02 8.621664717793464661e-03 -2.149300128221511841e-01
-8.298330008983612061e-02 1.499333046376705170e-02 -1.956248581409454346e-01
-8.421173691749572754e-02 1.331171113997697830e-02 -2.078000903129577637e-01
-1.020846217870712280e-01 1.600115746259689331e-02 -2.066764235496520996e-01
-9.828217327594757080e-02 1.464305352419614792e-02 -2.132456898689270020e-01
-6.330741196870803833e-02 6.086475215852260590e-03 -1.843959242105484009e-01
2.520008385181427002e-01 -1.784965842962265015e-01 -1.711753010749816895e-02
2.691803574562072754e-01 -1.791552007198333740e-01 -4.270332306623458862e-02
2.825064063072204590e-01 -2.220715582370758057e-01 -3.788089752197265625e-02
2.566428184509277344e-01 -1.754504144191741943e-01 -2.868221327662467957e-02
2.493052184581756592e-01 -1.747226715087890625e-01 -3.088676370680332184e-02
2.559299170970916748e-01 -1.970984935760498047e-01 4.895176365971565247e-02
2.478605359792709351e-01 -1.760407537221908569e-01 -9.478678926825523376e-03
2.923934459686279297e-01 -1.845653802156448364e-01 -4.421904683113098145e-02
2.592611312866210938e-01 -1.793348938226699829e-01 -1.279931515455245972e-02
2.903338372707366943e-01 -2.422598600387573242e-01 -9.712837636470794678e-03
