-0.164659 -0.069872 0.023145
-0.160015 -0.066346 0.026225
-0.135550 -0.065547 0.027838
-0.152659 -0.069439 0.025318
-0.149038 -0.070107 0.024376
-0.143509 -0.061089 0.030482
-0.171525 -0.063155 0.027037
-0.159288 -0.072177 0.020322
-0.152589 -0.073339 0.021323
-0.121596 -0.070251 0.024150
-0.149897 -0.057479 0.030835
-0.149923 -0.064392 0.028173
-0.135136 -0.072064 0.021310
-0.133552 -0.059306 0.031472
-0.165525 -0.059720 0.029655
-0.169092 -0.068935 0.022577
-0.141839 -0.070614 0.024402
-0.136297 -0.068799 0.025824
-0.130486 -0.065257 0.027063
-0.155360 -0.066844 0.026505
-0.138793 -0.067960 0.025610
-0.165971 -0.065717 0.025259
-0.160762 -0.062413 0.028210
-0.158674 -0.056644 0.031572
-0.144746 -0.073805 0.019341
-0.155919 -0.062767 0.028843
-0.124302 -0.064656 0.027962
-0.129646 -0.072091 0.023505
-0.166724 -0.076538 0.013853
-0.156978 -0.076025 0.017574
-0.153327 -0.075776 0.018284
-0.158543 -0.074630 0.019220
-0.171524 -0.078455 0.009600
-0.169083 -0.074748 0.016481
-0.149558 -0.078691 0.012878
-0.163112 -0.077009 0.015182
-0.157202 -0.079821 0.009170
-0.157866 -0.075749 0.017401
-0.179644 -0.075260 0.014208
-0.168366 -0.077143 0.011965
-0.160884 -0.079039 0.012332
-0.136647 -0.078442 0.014861
-0.162963 -0.071945 0.020239
-0.161953 -0.075265 0.017799
-0.146514 -0.078538 0.014098
-0.148062 -0.075817 0.018546
-0.173329 -0.072959 0.018315
-0.175907 -0.074783 0.014773
-0.154672 -0.078086 0.013839
-0.151510 -0.077450 0.015541
-0.146190 -0.075031 0.018457
-0.164690 -0.078333 0.011805
-0.152290 -0.073436 0.021024
-0.173594 -0.076575 0.012394
-0.164417 -0.074743 0.017277
-0.169595 -0.073897 0.018860
-0.157310 -0.078538 0.011767
-0.166384 -0.076516 0.014347
-0.140597 -0.076141 0.017614
-0.142840 -0.079975 0.011005
-0.160073 -0.052375 0.031971
-0.155181 -0.053210 0.032587
-0.147584 -0.046747 0.034063
-0.151245 -0.047712 0.033311
-0.165550 -0.050675 0.033305
-0.160605 -0.048538 0.033516
-0.146440 -0.043056 0.034648
-0.156700 -0.050658 0.033414
-0.154760 -0.047280 0.033946
-0.149950 -0.043422 0.034414
-0.170739 -0.043494 0.034190
-0.163597 -0.054472 0.031943
-0.157780 -0.055888 0.031654
-0.137881 -0.051618 0.032554
-0.154138 -0.038492 0.034814
-0.154558 -0.043983 0.034457
-0.144515 -0.055588 0.031735
-0.143207 -0.040026 0.034857
-0.165495 -0.040505 0.034899
-0.170244 -0.052057 0.032400
-0.150483 -0.051356 0.032909
-0.146027 -0.050048 0.033146
-0.141727 -0.046921 0.033781
-0.159223 -0.045388 0.034019
-0.148082 -0.053549 0.032819
-0.167479 -0.047295 0.033442
-0.164201 -0.044117 0.033898
-0.160084 -0.037967 0.035145
-0.151504 -0.056586 0.031237
-0.157912 -0.041328 0.034591
-0.138895 -0.044790 0.033612
-0.143873 -0.052571 0.032474
-0.008714 -0.043360 0.171469
0.008872 -0.044265 0.159099
0.010134 -0.045078 0.164751
0.004411 -0.044005 0.170372
-0.009236 -0.042143 0.138029
-0.018494 -0.042645 0.170630
0.014483 -0.044194 0.138106
-0.005499 -0.042900 0.157484
0.010896 -0.044017 0.131071
0.004908 -0.043573 0.153357
-0.035574 -0.041966 0.159908
-0.009811 -0.044802 0.164638
0.001837 -0.044542 0.151420
0.017763 -0.047462 0.150847
-0.003586 -0.043545 0.176270
-0.000042 -0.042787 0.160245
0.017383 -0.046942 0.145574
0.014271 -0.045648 0.156276
-0.027253 -0.043054 0.177232
-0.028451 -0.042452 0.167064
0.010972 -0.044345 0.146850
0.014511 -0.044122 0.150592
0.011722 -0.045301 0.169079
0.000546 -0.043242 0.143002
0.008998 -0.045540 0.175450
-0.023350 -0.042169 0.147786
-0.004759 -0.044241 0.167642
-0.019981 -0.042938 0.158837
0.007172 -0.046997 0.161975
-0.010047 -0.043221 0.148743
0.015932 -0.047467 0.160768
0.018899 -0.045460 0.137301
-0.193493 -0.033980 -0.025609
-0.164103 -0.034515 -0.024957
-0.144668 -0.025031 -0.022116
-0.156447 -0.025332 -0.024490
-0.211674 -0.034031 -0.023124
-0.199908 -0.028288 -0.023787
-0.133297 -0.019988 -0.020187
-0.183093 -0.034095 -0.024853
-0.171655 -0.030380 -0.023514
-0.153619 -0.019825 -0.019424
-0.228096 -0.023078 -0.020362
-0.201976 -0.039704 -0.024687
-0.180135 -0.039248 -0.024474
-0.105370 -0.033475 -0.024666
-0.172745 -0.015786 -0.019433
-0.166316 -0.023493 -0.022408
-0.131312 -0.039957 -0.025882
-0.122533 -0.019546 -0.017386
-0.215655 -0.019163 -0.019848
-0.225068 -0.033125 -0.025560
-0.151476 -0.035852 -0.025166
-0.135527 -0.031804 -0.023984
-0.123920 -0.023621 -0.024188
-0.184167 -0.026049 -0.021164
-0.141169 -0.036366 -0.026863
-0.219593 -0.026907 -0.022444
-0.200045 -0.020627 -0.021582
-0.201703 -0.018335 -0.017770
-0.161540 -0.041712 -0.024773
-0.187118 -0.019739 -0.020401
-0.107609 -0.020670 -0.021798
-0.122025 -0.035033 -0.024359
-0.204121 -0.009527 0.008058
-0.185230 -0.010959 0.011316
-0.179730 -0.010012 0.009937
-0.190790 -0.011079 0.014201
-0.209144 -0.009420 -0.003990
-0.207813 -0.010045 0.011612
-0.175798 -0.010051 -0.002087
-0.199472 -0.009782 0.004594
-0.188541 -0.010094 -0.004677
-0.188427 -0.010237 0.006151
-0.222435 -0.009544 0.004535
-0.209378 -0.009963 0.008506
-0.193391 -0.009617 0.002326
-0.154565 -0.010250 0.004896
-0.199863 -0.012326 0.014307
-0.198440 -0.010239 0.009918
-0.167082 -0.010006 0.004341
-0.171913 -0.010725 0.007118
-0.213595 -0.011187 0.013361
-0.219006 -0.009807 0.009762
-0.184600 -0.009594 0.001901
-0.178567 -0.009094 0.004922
-0.174094 -0.011274 0.014406
-0.198505 -0.009473 -0.002625
-0.183079 -0.012121 0.016032
-0.214919 -0.009578 0.000854
-0.197043 -0.010421 0.010766
-0.207610 -0.009600 0.005805
-0.193823 -0.009196 0.008977
-0.204058 -0.009742 0.000208
-0.163593 -0.010624 0.011150
-0.164137 -0.010072 -0.002850
-0.155343 -0.076433 0.015251
-0.144806 -0.075829 0.018562
-0.140665 -0.075249 0.020001
-0.145877 -0.074055 0.020672
-0.160629 -0.078504 0.011708
-0.157967 -0.074406 0.017854
-0.135895 -0.078237 0.015435
-0.151191 -0.076961 0.016774
-0.145170 -0.079924 0.011706
-0.144942 -0.074578 0.019867
-0.168825 -0.074928 0.016102
-0.156804 -0.077558 0.012593
-0.149020 -0.079336 0.013598
-0.122409 -0.078218 0.016406
-0.150464 -0.070859 0.022140
-0.149502 -0.074831 0.019449
-0.133366 -0.078596 0.015071
-0.134640 -0.074407 0.021071
-0.162420 -0.072168 0.019975
-0.165044 -0.074871 0.015532
-0.141666 -0.078174 0.015517
-0.138092 -0.077127 0.017183
-0.132414 -0.074425 0.019863
-0.152882 -0.078137 0.014342
-0.138906 -0.073031 0.021784
-0.162546 -0.076347 0.014365
-0.153583 -0.073862 0.019211
-0.157995 -0.072588 0.021413
-0.144461 -0.079282 0.012362
-0.154687 -0.075985 0.016886
-0.126311 -0.075345 0.019593
-0.129034 -0.079951 0.013010
-0.190345 -0.014246 0.021788
-0.175775 -0.014383 0.021974
-0.171205 -0.012833 0.018240
-0.179694 -0.014627 0.021515
-0.195407 -0.009276 0.009340
-0.193926 -0.013714 0.020299
-0.168730 -0.010119 0.009352
-0.187458 -0.012230 0.017161
-0.179055 -0.009240 0.007042
-0.177540 -0.012115 0.016058
-0.208646 -0.011868 0.015933
-0.195771 -0.015662 0.023172
-0.182526 -0.012690 0.018992
-0.150650 -0.013704 0.019063
-0.186131 -0.017364 0.022631
-0.182530 -0.013137 0.018674
-0.160625 -0.014442 0.020579
-0.163729 -0.012715 0.016908
-0.199879 -0.015558 0.021993
-0.204965 -0.014173 0.021210
-0.174325 -0.011319 0.014925
-0.169223 -0.011264 0.016397
-0.167329 -0.015532 0.022813
-0.185553 -0.009751 0.012439
-0.172392 -0.017944 0.024910
-0.202472 -0.010874 0.012049
-0.188738 -0.013242 0.019144
-0.197020 -0.011237 0.014745
-0.180676 -0.015789 0.025022
-0.190344 -0.010302 0.011414
-0.157699 -0.014272 0.021190
-0.159453 -0.011463 0.014010
-0.180507 -0.075514 0.004112
-0.165411 -0.077584 -0.001869
-0.161437 -0.077118 -0.003412
-0.169090 -0.077214 0.000253
-0.187296 -0.067770 -0.010784
-0.187890 -0.074126 -0.000029
-0.157879 -0.071654 -0.012517
-0.180196 -0.073817 -0.006428
-0.167599 -0.069911 -0.013179
-0.168074 -0.074729 -0.009610
-0.209091 -0.069513 -0.005211
-0.184508 -0.076779 0.003726
-0.172701 -0.076097 -0.003111
-0.139124 -0.079598 -0.003884
-0.178443 -0.076985 0.002829
-0.171444 -0.075013 -0.005084
-0.146876 -0.080129 -0.000750
-0.150188 -0.077447 -0.007505
-0.197145 -0.073820 0.002712
-0.199734 -0.072988 0.001260
-0.162416 -0.075762 -0.008529
-0.155914 -0.075387 -0.009089
-0.155753 -0.079198 0.001244
-0.176677 -0.069858 -0.010644
-0.158884 -0.080328 0.006245
-0.197249 -0.068394 -0.010775
-0.181974 -0.074559 -0.002332
-0.194133 -0.070083 -0.007899
-0.165877 -0.079895 0.005859
-0.182455 -0.070055 -0.011665
-0.144287 -0.080126 -0.002568
-0.146271 -0.075520 -0.009276
-0.205010 -0.015027 -0.015388
-0.174325 -0.015467 -0.016147
-0.165728 -0.013335 -0.011809
-0.175639 -0.011895 -0.010243
-0.214564 -0.020148 -0.020284
-0.212024 -0.013057 -0.012309
-0.148168 -0.017270 -0.014745
-0.195503 -0.016567 -0.015413
-0.178316 -0.021146 -0.020420
-0.174565 -0.010297 -0.008360
-0.228974 -0.013639 -0.012193
-0.206178 -0.018644 -0.020729
-0.189431 -0.018904 -0.019694
-0.118020 -0.018929 -0.017107
-0.190378 -0.007466 -0.004985
-0.186194 -0.012519 -0.011813
-0.144861 -0.019111 -0.021065
-0.145054 -0.008480 -0.006384
-0.220590 -0.009040 -0.006644
-0.224652 -0.015860 -0.016995
-0.163552 -0.018921 -0.019129
-0.154924 -0.015847 -0.015852
-0.143143 -0.013360 -0.012028
-0.193286 -0.017541 -0.017052
-0.158164 -0.013230 -0.011805
-0.219036 -0.015278 -0.015404
-0.200382 -0.010291 -0.008022
-0.209349 -0.008815 -0.004849
-0.177902 -0.017430 -0.021285
-0.200642 -0.013808 -0.013132
-0.126449 -0.012231 -0.010089
-0.131427 -0.020773 -0.020979
-0.193204 -0.009050 0.004251
-0.170479 -0.010179 0.004170
-0.164938 -0.009685 0.005900
-0.175214 -0.009987 0.009925
-0.200380 -0.011931 -0.009884
-0.199912 -0.009336 0.006503
-0.158408 -0.012018 -0.007974
-0.187419 -0.010176 -0.001889
-0.174474 -0.012570 -0.010211
-0.174650 -0.009564 0.000028
-0.216220 -0.010011 -0.002657
-0.196658 -0.009677 -0.000263
-0.180917 -0.010937 -0.005696
-0.137330 -0.010646 -0.001580
-0.186014 -0.010171 0.011619
-0.185775 -0.009594 0.003211
-0.151442 -0.010298 -0.003687
-0.155557 -0.009904 0.002628
-0.205845 -0.009612 0.010031
-0.211358 -0.009504 0.002809
-0.168795 -0.010544 -0.004934
-0.162853 -0.009731 -0.000777
-0.155578 -0.010040 0.009946
-0.187274 -0.012015 -0.009490
-0.166186 -0.009786 0.013260
-0.205992 -0.010649 -0.005499
-0.184541 -0.009760 0.006535
-0.198698 -0.009061 0.000280
-0.179042 -0.008687 0.000787
-0.193664 -0.011340 -0.006384
-0.145052 -0.010276 0.006076
-0.145622 -0.012204 -0.009519
-0.140419 -0.054839 0.031184
-0.134343 -0.055258 0.032063
-0.126085 -0.047794 0.033811
-0.130030 -0.049017 0.032960
-0.146773 -0.052479 0.032890
-0.141122 -0.050034 0.033159
-0.124229 -0.043849 0.034439
-0.136460 -0.052691 0.033002
-0.134405 -0.048951 0.033875
-0.128791 -0.043820 0.034324
-0.152655 -0.044378 0.033797
-0.144656 -0.057345 0.030940
-0.137477 -0.058697 0.030787
-0.112983 -0.054064 0.031883
-0.133635 -0.038835 0.034534
-0.134105 -0.044734 0.034306
-0.121809 -0.058570 0.030902
-0.120745 -0.040280 0.034681
-0.147007 -0.041090 0.034655
-0.152033 -0.054417 0.031707
-0.128949 -0.053348 0.032472
-0.124085 -0.051711 0.032589
-0.118865 -0.048205 0.033443
-0.139324 -0.046578 0.033824
-0.126062 -0.055964 0.032185
-0.148979 -0.048425 0.033010
-0.144919 -0.045289 0.033484
-0.140646 -0.038186 0.034935
-0.129950 -0.059678 0.030113
-0.138183 -0.042180 0.034330
-0.115083 -0.045870 0.033145
-0.120411 -0.054614 0.032118
-0.018782 -0.043550 0.152877
0.000841 -0.044242 0.141971
0.005152 -0.044672 0.148478
-0.002233 -0.044461 0.154847
-0.023748 -0.043014 0.109374
-0.026908 -0.043801 0.149817
0.006321 -0.044967 0.117046
-0.016208 -0.043298 0.133865
-0.002912 -0.044113 0.107983
-0.004941 -0.044120 0.135063
-0.038064 -0.043454 0.131666
-0.020601 -0.043454 0.142954
-0.009867 -0.043184 0.126364
0.016083 -0.045984 0.135635
-0.010811 -0.044251 0.159686
-0.011980 -0.043898 0.140929
0.013493 -0.044794 0.126972
0.010555 -0.045562 0.141537
-0.032281 -0.044168 0.158205
-0.035315 -0.043432 0.143899
0.000507 -0.043734 0.126224
0.007082 -0.043774 0.132042
0.009723 -0.044524 0.154858
-0.015366 -0.043848 0.117941
0.004233 -0.045057 0.161751
-0.031988 -0.043597 0.120191
-0.012875 -0.044592 0.149753
-0.027022 -0.043464 0.135650
-0.004795 -0.043226 0.144554
-0.023482 -0.044006 0.125513
0.016342 -0.046398 0.146967
0.014751 -0.045061 0.117974
-0.021163 -0.055740 0.131129
-0.007052 -0.057403 0.119917
-0.003179 -0.054868 0.128764
-0.007934 -0.054116 0.135688
-0.030678 -0.059420 0.087510
-0.030138 -0.055184 0.125827
-0.004611 -0.057647 0.100107
-0.020067 -0.056846 0.114315
-0.011850 -0.058242 0.085412
-0.011426 -0.054060 0.117406
-0.052284 -0.056525 0.109206
-0.021798 -0.057363 0.115984
-0.016138 -0.059272 0.106687
0.007400 -0.058220 0.119692
-0.013925 -0.052283 0.144531
-0.015463 -0.054805 0.121167
0.001955 -0.058063 0.111355
0.000281 -0.053176 0.125291
-0.034692 -0.052820 0.135642
-0.042079 -0.057029 0.117094
-0.008144 -0.057850 0.108381
-0.001544 -0.055990 0.116591
0.001137 -0.056075 0.132409
-0.019159 -0.057519 0.099932
-0.000603 -0.054765 0.144268
-0.037602 -0.057614 0.099739
-0.014879 -0.053964 0.130300
-0.029594 -0.051666 0.116953
-0.009945 -0.058091 0.120977
-0.027089 -0.054781 0.106015
0.007418 -0.055398 0.131427
0.002833 -0.058407 0.103072
-0.132423 -0.076001 0.016755
-0.121438 -0.075499 0.019708
-0.116708 -0.074349 0.021672
-0.121859 -0.073187 0.022092
-0.138225 -0.078074 0.014021
-0.135317 -0.073887 0.019454
-0.110840 -0.077021 0.017950
-0.127830 -0.076555 0.018472
-0.122090 -0.079421 0.014289
-0.120534 -0.073000 0.022234
-0.146371 -0.074202 0.018223
-0.133901 -0.077595 0.013709
-0.125902 -0.079109 0.015028
-0.095981 -0.077528 0.017971
-0.126467 -0.069484 0.023990
-0.125731 -0.074023 0.021125
-0.108867 -0.078274 0.016177
-0.109571 -0.072535 0.023454
-0.139981 -0.071059 0.021739
-0.142710 -0.074839 0.016566
-0.117386 -0.077829 0.017170
-0.113190 -0.076426 0.018890
-0.107190 -0.073560 0.021316
-0.129683 -0.077278 0.016960
-0.114387 -0.072678 0.022390
-0.140129 -0.075586 0.016614
-0.131428 -0.072807 0.021080
-0.134669 -0.070919 0.023708
-0.120662 -0.079352 0.013362
-0.131562 -0.074967 0.019375
-0.100380 -0.074129 0.021479
-0.103517 -0.079469 0.015105
-0.177037 -0.076798 0.002129
-0.158925 -0.078184 -0.005882
-0.152882 -0.077406 -0.008211
-0.161260 -0.077641 -0.004382
-0.184464 -0.067672 -0.012463
-0.184413 -0.074615 -0.004502
-0.148603 -0.070459 -0.015968
-0.175608 -0.074464 -0.009643
-0.162116 -0.068569 -0.015891
-0.161351 -0.073300 -0.014912
-0.209428 -0.069335 -0.008634
-0.180870 -0.078570 0.002200
-0.167023 -0.077334 -0.004327
-0.124155 -0.080742 -0.006805
-0.172822 -0.076240 -0.002732
-0.164989 -0.075031 -0.009724
-0.135249 -0.081316 -0.002439
-0.138593 -0.075081 -0.013020
-0.195468 -0.072801 -0.003082
-0.198160 -0.073348 -0.001992
-0.154222 -0.076508 -0.010765
-0.146431 -0.075922 -0.012623
-0.145337 -0.079738 -0.003656
-0.172416 -0.069591 -0.013369
-0.150004 -0.081167 0.002048
-0.195980 -0.068329 -0.013517
-0.178326 -0.074762 -0.006586
-0.191392 -0.066515 -0.013010
-0.159028 -0.081799 0.003651
-0.178106 -0.068590 -0.015666
-0.130950 -0.080323 -0.007847
-0.133341 -0.076057 -0.011890
-0.147942 -0.079328 0.006400
-0.134130 -0.080956 0.006236
-0.130211 -0.081111 0.006376
-0.137796 -0.080778 0.008889
-0.152515 -0.078082 -0.005155
-0.152014 -0.079807 0.007547
-0.127451 -0.079960 -0.002902
-0.144882 -0.079843 0.002352
-0.136289 -0.079483 -0.005534
-0.136871 -0.081043 0.002038
-0.166238 -0.078397 0.002288
-0.151630 -0.080082 0.004965
-0.140761 -0.080393 -0.000064
-0.110401 -0.081961 0.002271
-0.144167 -0.080081 0.009522
-0.142378 -0.080081 0.004975
-0.120132 -0.081979 0.002101
-0.123003 -0.081748 0.003713
-0.158004 -0.079296 0.009150
-0.161300 -0.079005 0.006187
-0.133011 -0.080538 -0.000798
-0.128109 -0.080324 0.001641
-0.125254 -0.080897 0.008696
-0.144639 -0.078910 -0.003041
-0.130955 -0.080534 0.011197
-0.158666 -0.078316 -0.001609
-0.145087 -0.080405 0.006832
-0.154264 -0.079905 0.002263
-0.138311 -0.081117 0.005933
-0.149154 -0.079339 -0.000929
-0.116561 -0.081934 0.006206
-0.117712 -0.080930 -0.003860
-0.171045 -0.011518 0.019682
-0.149439 -0.011969 0.017143
-0.144308 -0.011329 0.015515
-0.154943 -0.013013 0.020786
-0.177230 -0.007295 -0.003371
-0.177637 -0.012098 0.018443
-0.139886 -0.008713 -0.000893
-0.167825 -0.010087 0.010194
-0.154058 -0.007895 -0.004096
-0.153962 -0.010327 0.009712
-0.195436 -0.009863 0.009091
-0.176892 -0.012281 0.017645
-0.159717 -0.009110 0.008568
-0.118485 -0.011207 0.012092
-0.164088 -0.016022 0.021367
-0.161607 -0.011421 0.014570
-0.130258 -0.010629 0.010784
-0.135112 -0.011289 0.012948
-0.184966 -0.013764 0.021243
-0.191556 -0.012101 0.017194
-0.148459 -0.008955 0.005209
-0.141724 -0.008921 0.009124
-0.138981 -0.013997 0.021644
-0.164886 -0.007795 0.000977
-0.146407 -0.015622 0.023514
-0.186992 -0.009015 0.002664
-0.166532 -0.011714 0.017373
-0.180355 -0.010040 0.009775
-0.158085 -0.011301 0.020422
-0.172874 -0.008796 0.003465
-0.127125 -0.012553 0.019068
-0.128102 -0.008839 0.001998
-0.148694 -0.029800 0.032413
-0.141372 -0.030913 0.033477
-0.131926 -0.022716 0.029454
-0.138485 -0.024948 0.030607
-0.154998 -0.026593 0.031779
-0.149616 -0.026028 0.031497
-0.132395 -0.018739 0.026491
-0.144398 -0.027165 0.032408
-0.142369 -0.022253 0.029142
-0.136119 -0.021773 0.028480
-0.162867 -0.022160 0.028317
-0.154245 -0.032282 0.033572
-0.145512 -0.033790 0.033707
-0.120436 -0.028763 0.032241
-0.143175 -0.019942 0.026947
-0.139631 -0.021222 0.028986
-0.127592 -0.033783 0.033941
-0.124750 -0.019720 0.026855
-0.155719 -0.020403 0.027763
-0.160840 -0.029438 0.032458
-0.136376 -0.027732 0.032329
-0.131596 -0.026378 0.031836
-0.127475 -0.023645 0.030313
-0.147006 -0.022540 0.029684
-0.133565 -0.031638 0.033409
-0.158222 -0.023653 0.029261
-0.151725 -0.022453 0.029095
-0.151521 -0.017980 0.025392
-0.138616 -0.035087 0.034446
-0.146527 -0.018615 0.026575
-0.120791 -0.022614 0.029002
-0.127546 -0.029235 0.032716
-0.139023 -0.039885 0.033867
-0.133246 -0.041449 0.035149
-0.124104 -0.032617 0.033582
-0.129571 -0.034706 0.033918
-0.144802 -0.037495 0.034773
-0.139337 -0.035710 0.034351
-0.123863 -0.027802 0.032257
-0.135009 -0.037471 0.034900
-0.133667 -0.032806 0.033793
-0.127835 -0.030701 0.032774
-0.151138 -0.030639 0.032501
-0.143995 -0.042026 0.034633
-0.136963 -0.044966 0.034726
-0.114012 -0.038957 0.034272
-0.133363 -0.025750 0.031404
-0.131681 -0.029808 0.033263
-0.120523 -0.044431 0.034918
-0.117901 -0.026999 0.031877
-0.144884 -0.027355 0.032046
-0.150006 -0.039668 0.034302
-0.128456 -0.038408 0.034646
-0.123684 -0.037032 0.034368
-0.119054 -0.033040 0.033590
-0.138115 -0.031832 0.033317
-0.125553 -0.041560 0.035199
-0.147405 -0.033724 0.033219
-0.143110 -0.031444 0.032983
-0.140086 -0.025055 0.031245
-0.129563 -0.045642 0.034922
-0.137160 -0.027161 0.031893
-0.114318 -0.031167 0.032797
-0.120770 -0.040018 0.034751
-0.001575 -0.051211 0.150610
0.022383 -0.050924 0.141009
0.024643 -0.050933 0.145672
0.017548 -0.050019 0.149825
-0.003320 -0.052397 0.119815
-0.012982 -0.050829 0.152854
0.029106 -0.050853 0.119519
0.004122 -0.051660 0.141115
0.022816 -0.052115 0.112304
0.019571 -0.049011 0.136684
-0.038752 -0.051653 0.143822
-0.003851 -0.051861 0.141971
0.010630 -0.052549 0.133136
0.029846 -0.050628 0.132021
0.009439 -0.048410 0.154309
0.012845 -0.050564 0.143518
0.029301 -0.051781 0.126065
0.028544 -0.047902 0.139135
-0.021786 -0.050599 0.157538
-0.027146 -0.051087 0.149090
0.023156 -0.052501 0.129010
0.027857 -0.050704 0.133537
0.025863 -0.049667 0.147925
0.012529 -0.052238 0.122817
0.020833 -0.049056 0.153246
-0.020070 -0.052458 0.132283
0.006694 -0.050755 0.149853
-0.011291 -0.048757 0.143842
0.014966 -0.051898 0.140901
0.000747 -0.051189 0.131693
0.028601 -0.048853 0.141835
0.032912 -0.050990 0.118711
-0.141568 -0.078252 0.007721
-0.122388 -0.080469 0.002081
-0.117646 -0.080334 0.001899
-0.127215 -0.080106 0.005846
-0.148186 -0.072955 -0.010019
-0.149502 -0.078193 0.004532
-0.112011 -0.076682 -0.009562
-0.140202 -0.077938 -0.003255
-0.126460 -0.074950 -0.010104
-0.126631 -0.078919 -0.005325
-0.168235 -0.075175 -0.002360
-0.145295 -0.079359 0.004316
-0.132543 -0.078562 -0.003112
-0.091140 -0.081677 -0.001275
-0.136383 -0.080207 0.008330
-0.131782 -0.078656 -0.000466
-0.102622 -0.081599 -0.000185
-0.105325 -0.080902 -0.001910
-0.157699 -0.077631 0.008165
-0.161033 -0.077490 0.003945
-0.119976 -0.078757 -0.007031
-0.112945 -0.078754 -0.005409
-0.111233 -0.080966 0.006528
-0.137097 -0.074631 -0.008459
-0.116156 -0.081484 0.010668
-0.158239 -0.073928 -0.008230
-0.140913 -0.078629 0.003159
-0.154332 -0.076973 -0.003623
-0.126432 -0.081228 0.007152
-0.144216 -0.075480 -0.007803
-0.097870 -0.082398 0.003214
-0.099952 -0.078186 -0.007870
-0.124009 -0.055683 0.030859
-0.117802 -0.056072 0.031782
-0.109001 -0.048307 0.033620
-0.113364 -0.049745 0.032808
-0.130807 -0.053306 0.032735
-0.124664 -0.050780 0.032930
-0.107252 -0.044514 0.034349
-0.120006 -0.053331 0.032698
-0.117680 -0.049781 0.033680
-0.112009 -0.044402 0.034123
-0.137243 -0.044984 0.033702
-0.128713 -0.058251 0.030663
-0.121005 -0.059619 0.030571
-0.096172 -0.054852 0.031682
-0.116898 -0.039560 0.034345
-0.117519 -0.045468 0.034113
-0.104764 -0.059414 0.030695
-0.103899 -0.041065 0.034679
-0.130950 -0.041915 0.034404
-0.136588 -0.055238 0.031474
-0.112152 -0.054132 0.032282
-0.107137 -0.052361 0.032429
-0.101794 -0.048928 0.033293
-0.122712 -0.047316 0.033601
-0.109306 -0.056708 0.031939
-0.133216 -0.049092 0.032819
-0.128790 -0.045842 0.033322
-0.124257 -0.039253 0.034886
-0.113440 -0.060500 0.029837
-0.121387 -0.042811 0.034089
-0.098173 -0.046487 0.033183
-0.103414 -0.055252 0.031861
-0.029772 -0.059564 0.092884
-0.008444 -0.059924 0.079293
-0.002827 -0.056892 0.087156
-0.012721 -0.056372 0.093618
-0.032372 -0.064063 0.022983
-0.037346 -0.059127 0.087416
0.001264 -0.059938 0.039565
-0.026117 -0.059678 0.073995
-0.011873 -0.061529 0.009492
-0.011690 -0.059182 0.072859
-0.046002 -0.062963 0.068929
-0.031598 -0.067662 0.081334
-0.022153 -0.066742 0.061264
0.024601 -0.060606 0.073038
-0.019446 -0.056573 0.104584
-0.018774 -0.058754 0.081651
0.009468 -0.064057 0.057221
0.011280 -0.056343 0.084412
-0.039185 -0.058430 0.097891
-0.043911 -0.063031 0.078530
-0.007509 -0.060089 0.056416
0.003394 -0.058497 0.070956
0.007306 -0.057637 0.089133
-0.020957 -0.060626 0.049106
0.000451 -0.058720 0.100101
-0.040422 -0.063885 0.048012
-0.022720 -0.056361 0.090031
-0.031525 -0.057904 0.080616
-0.013717 -0.071868 0.079866
-0.032105 -0.060237 0.057922
0.020918 -0.058410 0.091506
0.018857 -0.060710 0.037291
-0.159145 -0.071531 -0.011525
-0.131995 -0.069672 -0.016506
-0.114510 -0.058227 -0.024987
-0.128144 -0.062623 -0.021988
-0.173010 -0.062126 -0.019632
-0.166398 -0.064538 -0.019182
-0.105725 -0.048499 -0.028596
-0.151855 -0.067307 -0.020290
-0.136904 -0.055151 -0.026380
-0.123949 -0.050578 -0.028909
-0.197416 -0.055707 -0.022081
-0.165559 -0.074841 -0.009092
-0.144294 -0.072424 -0.011847
-0.068336 -0.070697 -0.017504
-0.144100 -0.052051 -0.024960
-0.134798 -0.056612 -0.025252
-0.092703 -0.073543 -0.012426
-0.086459 -0.049242 -0.029065
-0.180120 -0.051035 -0.023398
-0.188600 -0.068027 -0.013380
-0.119307 -0.068322 -0.019297
-0.106676 -0.065380 -0.023448
-0.098656 -0.063067 -0.021164
-0.150603 -0.057114 -0.023776
-0.111569 -0.074078 -0.014161
-0.183858 -0.058348 -0.024133
-0.165339 -0.057275 -0.022794
-0.170478 -0.043660 -0.027738
-0.129911 -0.077916 -0.008562
-0.154756 -0.047774 -0.028634
-0.075321 -0.060681 -0.025195
-0.087510 -0.068430 -0.019989
-0.156309 -0.044681 -0.028214
-0.123280 -0.043909 -0.027503
-0.101182 -0.033816 -0.029602
-0.114882 -0.035203 -0.030410
-0.175790 -0.041751 -0.026591
-0.161354 -0.037921 -0.028620
-0.090665 -0.025026 -0.028570
-0.145097 -0.043032 -0.028719
-0.132910 -0.035679 -0.028742
-0.111756 -0.027376 -0.028970
-0.197451 -0.032934 -0.027624
-0.165858 -0.047856 -0.025029
-0.140717 -0.048296 -0.026130
-0.055178 -0.042797 -0.029362
-0.133778 -0.024372 -0.030622
-0.125529 -0.031710 -0.029142
-0.082886 -0.048040 -0.027202
-0.072521 -0.026491 -0.028904
-0.180975 -0.028148 -0.028936
-0.192236 -0.042497 -0.026983
-0.109236 -0.043305 -0.028151
-0.091629 -0.041763 -0.029197
-0.080713 -0.033155 -0.031075
-0.146452 -0.034522 -0.028353
-0.098402 -0.047783 -0.028816
-0.186243 -0.035165 -0.029293
-0.166109 -0.030372 -0.029644
-0.166737 -0.024618 -0.028314
-0.120264 -0.051731 -0.024603
-0.148544 -0.025854 -0.029139
-0.059212 -0.032324 -0.030673
-0.076307 -0.043464 -0.027815
-0.116520 -0.072759 0.021073
-0.107354 -0.072420 0.022046
-0.100503 -0.068893 0.025834
-0.104701 -0.068014 0.025287
-0.123433 -0.073721 0.020529
-0.119280 -0.069428 0.024248
-0.094204 -0.069034 0.024790
-0.111697 -0.072273 0.023115
-0.107411 -0.073580 0.021317
-0.102648 -0.064654 0.028069
-0.131320 -0.066906 0.025144
-0.118419 -0.075213 0.017909
-0.111341 -0.076246 0.018816
-0.080692 -0.073018 0.021534
-0.109091 -0.060896 0.028699
-0.108751 -0.067659 0.025900
-0.094310 -0.075150 0.018633
-0.092729 -0.062828 0.029141
-0.124953 -0.063073 0.027830
-0.128783 -0.072032 0.020694
-0.100691 -0.073693 0.021793
-0.095664 -0.071780 0.023246
-0.089703 -0.068195 0.024664
-0.113535 -0.070404 0.023926
-0.097993 -0.070262 0.023612
-0.125042 -0.069560 0.022847
-0.119026 -0.065655 0.026384
-0.117630 -0.060470 0.029900
-0.103725 -0.076842 0.016380
-0.114622 -0.066306 0.026455
-0.083521 -0.067576 0.025481
-0.088414 -0.075117 0.020422
-0.007976 -0.057047 0.109338
-0.000753 -0.059701 0.105312
0.001548 -0.059536 0.109621
-0.001858 -0.057554 0.113765
-0.013462 -0.059303 0.082966
-0.013256 -0.056224 0.107573
0.001318 -0.060753 0.091567
-0.007345 -0.058733 0.102747
-0.001441 -0.061170 0.077624
-0.003511 -0.056307 0.104056
-0.028589 -0.056320 0.099020
-0.007476 -0.057197 0.101540
-0.004070 -0.060254 0.098412
0.014968 -0.062559 0.104547
-0.005819 -0.054654 0.118702
-0.005930 -0.057431 0.106834
0.008496 -0.061347 0.100487
0.004700 -0.055696 0.107540
-0.017597 -0.052579 0.111477
-0.020565 -0.055657 0.103310
-0.000102 -0.060325 0.099542
0.004136 -0.060199 0.103325
0.005689 -0.060108 0.110961
-0.008134 -0.059816 0.093722
0.004415 -0.057493 0.119856
-0.017886 -0.057852 0.092981
-0.006116 -0.056896 0.109983
-0.012924 -0.048834 0.104629
0.001592 -0.060568 0.104557
-0.012306 -0.055619 0.097937
0.011517 -0.061191 0.111229
0.009624 -0.062822 0.091487
-0.119982 -0.079590 0.009285
-0.105532 -0.079819 0.013545
-0.101649 -0.079489 0.013084
-0.108989 -0.078724 0.015074
-0.124104 -0.081196 0.000996
-0.123564 -0.078904 0.012280
-0.097612 -0.081757 0.003983
-0.115528 -0.080268 0.009201
-0.107027 -0.082253 -0.000201
-0.108043 -0.080317 0.010453
-0.134541 -0.079588 0.008444
-0.122034 -0.080049 0.007872
-0.111603 -0.081363 0.006040
-0.079956 -0.081330 0.008734
-0.114725 -0.077077 0.015542
-0.114213 -0.079121 0.012614
-0.092038 -0.081631 0.008083
-0.095322 -0.080252 0.011907
-0.127719 -0.077747 0.014018
-0.130595 -0.078842 0.011097
-0.104311 -0.081216 0.006512
-0.099938 -0.080470 0.009128
-0.094150 -0.079080 0.014531
-0.116536 -0.081544 0.002978
-0.101728 -0.077600 0.017142
-0.128651 -0.080363 0.005375
-0.115298 -0.079266 0.012398
-0.123156 -0.079572 0.011594
-0.109639 -0.080347 0.008398
-0.120032 -0.080778 0.006209
-0.086549 -0.079767 0.012384
-0.087460 -0.082400 0.002230
-0.029049 -0.068551 0.080165
-0.015623 -0.070481 0.077142
-0.009514 -0.064229 0.079746
-0.016784 -0.065040 0.081426
-0.034337 -0.072255 0.061192
-0.035201 -0.066610 0.079156
-0.001729 -0.066270 0.067983
-0.025633 -0.068263 0.077421
-0.017631 -0.069994 0.055855
-0.014747 -0.063062 0.077860
-0.046357 -0.066580 0.076722
-0.032052 -0.075351 0.075114
-0.023281 -0.075201 0.072055
0.023913 -0.071310 0.075709
-0.022818 -0.061557 0.086570
-0.020340 -0.064671 0.078751
0.004020 -0.076276 0.071620
0.005600 -0.061841 0.081052
-0.038228 -0.062233 0.083335
-0.043004 -0.071333 0.075586
-0.010725 -0.070975 0.071325
-0.003565 -0.067870 0.075898
0.003261 -0.066618 0.078928
-0.024109 -0.067057 0.071849
-0.003934 -0.069670 0.083164
-0.039294 -0.068096 0.070094
-0.028240 -0.063655 0.080828
-0.032088 -0.060270 0.080534
-0.014363 -0.079999 0.073789
-0.029387 -0.064117 0.073258
0.016173 -0.065493 0.081701
0.011795 -0.071533 0.064760
-0.000991 -0.054849 0.123680
0.013003 -0.055578 0.122350
0.015884 -0.055299 0.125720
0.010379 -0.054262 0.128687
-0.007470 -0.057608 0.107366
-0.006366 -0.054473 0.124687
0.018700 -0.058012 0.112727
0.002586 -0.056275 0.119625
0.011051 -0.058276 0.106351
0.009432 -0.055511 0.121019
-0.025369 -0.055021 0.118027
-0.002639 -0.055686 0.117621
0.006177 -0.057301 0.114667
0.028849 -0.056756 0.120123
0.003711 -0.052860 0.131618
0.005291 -0.055040 0.123214
0.022204 -0.057031 0.116981
0.020960 -0.055501 0.123770
-0.012801 -0.053210 0.128264
-0.017305 -0.053818 0.121108
0.013702 -0.056969 0.116392
0.017650 -0.056229 0.119717
0.021361 -0.054495 0.127444
0.002332 -0.057314 0.111706
0.016641 -0.052778 0.132512
-0.013177 -0.056334 0.114129
0.004007 -0.054483 0.125802
-0.008299 -0.054309 0.121507
0.009905 -0.057205 0.118281
-0.002843 -0.056028 0.116703
0.026171 -0.055701 0.125023
0.025237 -0.057940 0.112793
-0.012122 -0.044924 0.126208
0.007153 -0.045257 0.117488
0.011650 -0.045579 0.123916
0.004718 -0.045313 0.129362
-0.018323 -0.045587 0.085961
-0.019834 -0.045035 0.123274
0.011245 -0.046819 0.093754
-0.009171 -0.044694 0.109083
0.001931 -0.046137 0.084945
0.001221 -0.045441 0.110986
-0.031323 -0.045773 0.105860
-0.013881 -0.045132 0.116193
-0.003528 -0.045051 0.101384
0.024203 -0.046789 0.112124
-0.003689 -0.045066 0.133366
-0.006034 -0.045204 0.116309
0.019727 -0.045952 0.103693
0.016699 -0.046317 0.117793
-0.024048 -0.045097 0.130597
-0.027756 -0.044884 0.117146
0.006035 -0.045491 0.102834
0.012577 -0.044884 0.108558
0.016908 -0.044871 0.129937
-0.010158 -0.045844 0.093806
0.010717 -0.045335 0.135664
-0.025838 -0.045898 0.096104
-0.005621 -0.045588 0.124157
-0.019509 -0.045028 0.110544
0.000753 -0.044183 0.118837
-0.017100 -0.045463 0.100896
0.023514 -0.046878 0.123043
0.021483 -0.046539 0.094695
-0.154657 -0.009724 0.016095
-0.131434 -0.010533 0.011966
-0.125901 -0.010198 0.012211
-0.136776 -0.011585 0.017927
-0.162521 -0.007082 -0.009208
-0.163120 -0.010654 0.014918
-0.120480 -0.008460 -0.006001
-0.151695 -0.008927 0.004654
-0.136339 -0.007823 -0.008401
-0.136624 -0.009136 0.004634
-0.182037 -0.008847 0.002925
-0.160838 -0.010427 0.011484
-0.143179 -0.007811 0.001437
-0.100492 -0.010135 0.006810
-0.147041 -0.014263 0.018623
-0.145003 -0.010233 0.009627
-0.111571 -0.009071 0.004335
-0.116134 -0.010123 0.009063
-0.170471 -0.012264 0.018489
-0.177763 -0.010683 0.011981
-0.130538 -0.008007 -0.000745
-0.123414 -0.007831 0.003995
-0.119945 -0.012447 0.018667
-0.149147 -0.007467 -0.005557
-0.127613 -0.013699 0.021027
-0.172068 -0.008088 -0.003438
-0.149261 -0.010592 0.013950
-0.165527 -0.009088 0.004472
-0.140846 -0.008931 0.014868
-0.157349 -0.008308 -0.002182
-0.107781 -0.011409 0.015551
-0.109567 -0.008208 -0.003720
0.023686 -0.086433 0.111657
0.026645 -0.090416 0.110729
0.026772 -0.082780 0.112098
0.026036 -0.084366 0.113249
0.022554 -0.089416 0.096083
0.021996 -0.083488 0.110653
0.025186 -0.078897 0.100394
0.024087 -0.085573 0.109386
0.024153 -0.084421 0.091460
0.024719 -0.077921 0.109758
0.016306 -0.078656 0.106168
0.025363 -0.089673 0.108634
0.025822 -0.092889 0.105261
0.039774 -0.090785 0.110264
0.024914 -0.073002 0.112935
0.022043 -0.077248 0.111576
0.033134 -0.093531 0.107557
0.029222 -0.072214 0.110972
0.020551 -0.068580 0.110140
0.020008 -0.087631 0.106058
0.026544 -0.089699 0.107167
0.027798 -0.086276 0.108071
0.032228 -0.086690 0.112689
0.021040 -0.080870 0.106189
0.031792 -0.089769 0.114934
0.020043 -0.083865 0.101851
0.022172 -0.079712 0.112096
0.021110 -0.061463 0.109172
0.031605 -0.093972 0.109319
0.019333 -0.072214 0.104279
0.035289 -0.082785 0.112343
0.032301 -0.090493 0.100433
-0.128214 -0.077803 0.012424
-0.107601 -0.080138 0.007446
-0.102001 -0.079418 0.008065
-0.112421 -0.079440 0.012042
-0.136033 -0.074074 -0.006717
-0.136724 -0.078330 0.010347
-0.096155 -0.076773 -0.006242
-0.126558 -0.078031 0.001375
-0.111939 -0.075391 -0.006159
-0.111971 -0.078873 0.000398
-0.155497 -0.075922 0.002247
-0.132691 -0.078164 0.007841
-0.118980 -0.078045 0.000076
-0.078085 -0.080903 0.003242
-0.122254 -0.078444 0.013590
-0.118472 -0.078115 0.004574
-0.088496 -0.080764 0.002851
-0.090203 -0.080064 0.004250
-0.146093 -0.076978 0.014328
-0.149186 -0.078016 0.009307
-0.104801 -0.078322 -0.003132
-0.098842 -0.078689 -0.000170
-0.095391 -0.079012 0.012015
-0.124385 -0.075535 -0.005006
-0.101624 -0.080110 0.015668
-0.145360 -0.074239 -0.003728
-0.126359 -0.078568 0.009031
-0.141399 -0.077809 0.001532
-0.113094 -0.079659 0.010470
-0.131492 -0.075855 -0.003162
-0.082985 -0.081043 0.009044
-0.086496 -0.078248 -0.004497
-0.130490 -0.030264 0.032412
-0.123380 -0.031268 0.033558
-0.114050 -0.023044 0.029688
-0.120498 -0.025322 0.030757
-0.136999 -0.027083 0.031990
-0.131260 -0.026472 0.031638
-0.114541 -0.019178 0.026905
-0.126261 -0.027584 0.032507
-0.124320 -0.022871 0.029513
-0.118251 -0.022019 0.028681
-0.144822 -0.022367 0.028608
-0.136229 -0.032611 0.033606
-0.127749 -0.034308 0.033771
-0.103262 -0.029196 0.032298
-0.125004 -0.020042 0.027183
-0.121755 -0.021414 0.029239
-0.110135 -0.034187 0.034013
-0.107359 -0.020127 0.027275
-0.137408 -0.020748 0.028053
-0.142757 -0.029746 0.032530
-0.118524 -0.028178 0.032448
-0.113894 -0.026771 0.031890
-0.109703 -0.024076 0.030551
-0.128872 -0.022961 0.029883
-0.115914 -0.031875 0.033587
-0.140040 -0.024002 0.029489
-0.133686 -0.022814 0.029390
-0.133209 -0.018395 0.025965
-0.120935 -0.035324 0.034354
-0.128351 -0.019003 0.026968
-0.103444 -0.022881 0.029329
-0.109952 -0.029625 0.032790
0.019465 -0.075886 0.112773
0.021681 -0.079211 0.114243
0.024929 -0.071292 0.115015
0.022603 -0.073314 0.114223
0.016418 -0.077279 0.104216
0.017967 -0.073240 0.112627
0.024245 -0.067882 0.107586
0.020542 -0.074433 0.113244
0.021084 -0.072145 0.101946
0.022713 -0.068888 0.113957
0.011437 -0.069671 0.108901
0.017941 -0.079382 0.111503
0.020112 -0.081789 0.111309
0.035138 -0.077483 0.114946
0.022470 -0.065189 0.113714
0.020446 -0.068830 0.113951
0.028248 -0.082306 0.113826
0.028389 -0.063647 0.114574
0.017085 -0.063150 0.111787
0.013630 -0.077899 0.109518
0.022777 -0.077840 0.112725
0.024717 -0.074619 0.113670
0.029295 -0.074081 0.115010
0.018463 -0.070597 0.111461
0.027130 -0.078821 0.115457
0.014674 -0.072942 0.107162
0.018809 -0.070390 0.113526
0.018907 -0.057461 0.111582
0.024482 -0.083774 0.113095
0.017047 -0.065510 0.109086
0.032312 -0.071201 0.115169
0.027911 -0.077863 0.109153
-0.110712 -0.050494 0.032966
-0.105346 -0.051813 0.034196
-0.097389 -0.043078 0.034523
-0.101697 -0.044867 0.034194
-0.116565 -0.048003 0.034480
-0.111196 -0.045787 0.034391
-0.096260 -0.038728 0.034488
-0.107255 -0.048004 0.034479
-0.105414 -0.043832 0.034715
-0.100510 -0.040312 0.034301
-0.122584 -0.040148 0.034298
-0.115347 -0.053066 0.033166
-0.108602 -0.055536 0.033222
-0.086856 -0.049922 0.033510
-0.104654 -0.034901 0.034248
-0.104800 -0.039967 0.034688
-0.093698 -0.055186 0.033350
-0.092551 -0.036198 0.034530
-0.116745 -0.037030 0.034474
-0.121880 -0.050173 0.033693
-0.100864 -0.049064 0.034081
-0.096511 -0.047329 0.033893
-0.091614 -0.043915 0.034423
-0.109755 -0.042064 0.034263
-0.098160 -0.052111 0.034369
-0.119105 -0.043970 0.033824
-0.114999 -0.041342 0.034067
-0.111045 -0.034592 0.034559
-0.101683 -0.056665 0.032896
-0.108826 -0.037554 0.034132
-0.088311 -0.041271 0.033928
-0.093476 -0.050243 0.033943
-0.196150 -0.062809 -0.008302
-0.175927 -0.065102 -0.009270
-0.164646 -0.055401 -0.017460
-0.174547 -0.058499 -0.015470
-0.206890 -0.055827 -0.012563
-0.201090 -0.057595 -0.012832
-0.159286 -0.045514 -0.023207
-0.191540 -0.059519 -0.014281
-0.178060 -0.049353 -0.020984
-0.172350 -0.051395 -0.020909
-0.226854 -0.050368 -0.014562
-0.201962 -0.067902 -0.002119
-0.184808 -0.067912 -0.005179
-0.135344 -0.066830 -0.012771
-0.189872 -0.049969 -0.018140
-0.178283 -0.052530 -0.018620
-0.147019 -0.069787 -0.006258
-0.145915 -0.049494 -0.021473
-0.213948 -0.048125 -0.015774
-0.218259 -0.062611 -0.007220
-0.166602 -0.062538 -0.013941
-0.159179 -0.059493 -0.017316
-0.153150 -0.059240 -0.015006
-0.189823 -0.052398 -0.019156
-0.163082 -0.069348 -0.008994
-0.214490 -0.050201 -0.017525
-0.200496 -0.052148 -0.017436
-0.207292 -0.041133 -0.021731
-0.173924 -0.073085 -0.001416
-0.192779 -0.044169 -0.023855
-0.138486 -0.058164 -0.019612
-0.147549 -0.064683 -0.013602
-0.092377 -0.058143 0.030329
-0.085667 -0.058685 0.031549
-0.077696 -0.051594 0.033144
-0.081664 -0.052698 0.032397
-0.098974 -0.055976 0.032177
-0.093323 -0.053635 0.032538
-0.074858 -0.048289 0.033667
-0.088402 -0.056341 0.032077
-0.085875 -0.053279 0.032981
-0.079903 -0.047497 0.033932
-0.104471 -0.048585 0.033403
-0.096503 -0.061047 0.030197
-0.089052 -0.062043 0.030093
-0.062990 -0.057656 0.031016
-0.085512 -0.043343 0.034340
-0.085627 -0.049096 0.033755
-0.072859 -0.062111 0.029988
-0.071482 -0.044612 0.034523
-0.098991 -0.045761 0.034298
-0.103795 -0.057712 0.031123
-0.080142 -0.057197 0.031826
-0.074919 -0.055308 0.031849
-0.069876 -0.051893 0.032870
-0.090903 -0.050758 0.033156
-0.077154 -0.059392 0.031538
-0.101198 -0.052175 0.032471
-0.096507 -0.049389 0.033089
-0.092669 -0.043215 0.034891
-0.081638 -0.063424 0.029276
-0.090150 -0.046732 0.033771
-0.065264 -0.049999 0.032632
-0.070783 -0.058166 0.031251
-0.114223 -0.035154 0.033110
-0.107880 -0.036450 0.034423
-0.098700 -0.028027 0.031764
-0.104564 -0.030206 0.032404
-0.120591 -0.032521 0.033639
-0.114650 -0.031292 0.033114
-0.098891 -0.023741 0.029739
-0.110170 -0.032673 0.033768
-0.108531 -0.028140 0.031891
-0.102756 -0.026601 0.030750
-0.128081 -0.026643 0.030792
-0.119703 -0.037185 0.034153
-0.112104 -0.039819 0.034373
-0.088747 -0.034248 0.033174
-0.108663 -0.022919 0.029204
-0.106413 -0.025764 0.031370
-0.095150 -0.039329 0.034482
-0.092476 -0.023948 0.029631
-0.120746 -0.024222 0.030071
-0.126201 -0.034651 0.033539
-0.103157 -0.033436 0.033608
-0.098486 -0.032082 0.033122
-0.094105 -0.028813 0.032108
-0.113053 -0.027713 0.031758
-0.100572 -0.036606 0.034468
-0.123459 -0.028974 0.031580
-0.118089 -0.027252 0.031349
-0.116156 -0.022041 0.028890
-0.105033 -0.040394 0.034559
-0.112154 -0.023229 0.029619
-0.088870 -0.027219 0.031113
-0.095213 -0.034984 0.033770
0.033569 -0.090404 0.112200
0.037197 -0.091448 0.109779
0.037999 -0.089592 0.111096
0.036561 -0.089560 0.112667
0.032714 -0.091174 0.099356
0.031032 -0.088572 0.111950
0.039873 -0.087983 0.101671
0.034296 -0.090161 0.109856
0.038186 -0.090374 0.093551
0.036399 -0.084408 0.108865
0.023889 -0.086462 0.109393
0.034357 -0.091592 0.109627
0.035997 -0.093308 0.107377
0.053281 -0.093664 0.107485
0.034643 -0.081642 0.112432
0.033836 -0.086758 0.111187
0.045297 -0.094660 0.107029
0.042888 -0.081908 0.109255
0.028602 -0.080533 0.111035
0.028425 -0.089235 0.109547
0.038792 -0.092419 0.106845
0.041040 -0.090900 0.107601
0.043009 -0.090550 0.111007
0.033882 -0.088934 0.105734
0.041619 -0.091525 0.114008
0.029092 -0.088766 0.104679
0.032139 -0.087098 0.111897
0.031453 -0.073804 0.110030
0.040917 -0.094839 0.108953
0.030961 -0.082917 0.106217
0.047226 -0.090269 0.109933
0.046596 -0.093557 0.099914
0.015712 -0.063526 0.108580
0.021469 -0.065142 0.107434
0.024608 -0.059240 0.107959
0.021250 -0.060525 0.109457
0.011773 -0.063582 0.095906
0.011459 -0.060935 0.108256
0.027574 -0.057984 0.097128
0.017473 -0.061828 0.107164
0.022457 -0.061003 0.089923
0.022824 -0.056709 0.105240
-0.001706 -0.057788 0.105394
0.013291 -0.068484 0.106930
0.018857 -0.068426 0.104901
0.039248 -0.065076 0.106018
0.018046 -0.055344 0.108964
0.019836 -0.057799 0.107838
0.030576 -0.069551 0.104279
0.031465 -0.055413 0.105972
0.007078 -0.055277 0.107955
0.003888 -0.064243 0.106027
0.024830 -0.064448 0.103982
0.027615 -0.061643 0.105222
0.029981 -0.062023 0.107839
0.018184 -0.059207 0.103339
0.027081 -0.065417 0.109468
0.006304 -0.060164 0.100769
0.014679 -0.058194 0.108905
0.011789 -0.052067 0.106016
0.024272 -0.072087 0.106199
0.013638 -0.055863 0.101320
0.034885 -0.060370 0.107695
0.032916 -0.064095 0.098448
-0.140922 -0.073077 -0.002087
-0.118795 -0.075110 -0.005697
-0.109571 -0.069931 -0.011541
-0.120129 -0.071880 -0.008724
-0.150248 -0.065241 -0.012700
-0.147531 -0.070582 -0.007861
-0.102501 -0.062366 -0.018556
-0.137750 -0.070717 -0.011016
-0.122210 -0.062562 -0.017782
-0.117354 -0.066542 -0.015990
-0.171516 -0.066282 -0.010778
-0.147256 -0.075794 0.000461
-0.130180 -0.074473 -0.003648
-0.078509 -0.075164 -0.008578
-0.133305 -0.070126 -0.009920
-0.123628 -0.068921 -0.012280
-0.091231 -0.076658 -0.003732
-0.090918 -0.067495 -0.015460
-0.158660 -0.068167 -0.008069
-0.163637 -0.072842 -0.003938
-0.111525 -0.071537 -0.011557
-0.102998 -0.070427 -0.013033
-0.100474 -0.072509 -0.007704
-0.133560 -0.064832 -0.015171
-0.108322 -0.078022 -0.002907
-0.160250 -0.063426 -0.015173
-0.143286 -0.068536 -0.011430
-0.153428 -0.062307 -0.015806
-0.120503 -0.078712 0.002688
-0.139194 -0.061803 -0.018800
-0.085169 -0.072803 -0.011434
-0.090251 -0.071522 -0.011012
-0.014048 -0.064080 0.081059
-0.002008 -0.064801 0.078590
0.002566 -0.061835 0.080761
-0.004408 -0.061806 0.085487
-0.016581 -0.067127 0.050141
-0.020157 -0.062074 0.080564
0.009630 -0.064539 0.058741
-0.012225 -0.064252 0.076473
-0.001194 -0.067209 0.040078
-0.003159 -0.058074 0.075704
-0.027087 -0.062394 0.074675
-0.015051 -0.067318 0.075495
-0.008769 -0.068532 0.070631
0.032639 -0.067172 0.073571
-0.009206 -0.055507 0.089318
-0.008449 -0.061593 0.080388
0.015593 -0.068327 0.068819
0.016365 -0.055873 0.079738
-0.021895 -0.056268 0.083846
-0.023148 -0.063687 0.076264
0.001572 -0.066877 0.068031
0.008845 -0.065510 0.074151
0.013181 -0.064027 0.081109
-0.010192 -0.065012 0.063967
0.007374 -0.062975 0.088702
-0.022138 -0.064577 0.064017
-0.012420 -0.061177 0.083020
-0.015854 -0.050378 0.080724
-0.001174 -0.071346 0.074333
-0.016023 -0.059906 0.068683
0.025009 -0.063790 0.082788
0.022879 -0.068438 0.055452
0.049203 -0.089996 0.119191
0.053616 -0.091027 0.120784
0.058374 -0.086794 0.123487
0.055738 -0.087066 0.122318
0.044279 -0.090893 0.115467
0.047633 -0.087405 0.120545
0.060551 -0.085978 0.121492
0.051719 -0.089594 0.121150
0.053892 -0.089974 0.117838
0.056438 -0.082998 0.123729
0.040103 -0.084833 0.118549
0.047390 -0.091414 0.116188
0.051009 -0.093946 0.116913
0.070068 -0.090707 0.121098
0.053458 -0.078459 0.122652
0.052569 -0.084663 0.122694
0.062641 -0.093403 0.119399
0.062540 -0.079043 0.124549
0.045555 -0.080241 0.120875
0.042075 -0.090174 0.116386
0.056630 -0.091202 0.120026
0.060385 -0.089994 0.121403
0.064311 -0.086860 0.122564
0.049539 -0.087121 0.119993
0.060357 -0.089522 0.122124
0.044118 -0.087538 0.117916
0.048009 -0.083958 0.121326
0.048917 -0.074577 0.123051
0.056765 -0.094278 0.116697
0.048786 -0.083030 0.121707
0.067339 -0.085967 0.123002
0.063025 -0.092367 0.118992
-0.100620 -0.079530 0.009562
-0.086379 -0.079479 0.014010
-0.082979 -0.079137 0.013666
-0.089885 -0.078107 0.015717
-0.104191 -0.081394 0.000189
-0.104042 -0.078581 0.012805
-0.078866 -0.081685 0.003612
-0.096248 -0.080132 0.009820
-0.087789 -0.082254 -0.001526
-0.089065 -0.080069 0.011013
-0.113927 -0.079657 0.008940
-0.102115 -0.080014 0.008033
-0.092391 -0.081414 0.006283
-0.062061 -0.080979 0.008846
-0.095326 -0.076524 0.016220
-0.094633 -0.078881 0.013459
-0.073802 -0.081447 0.008093
-0.076839 -0.079605 0.012720
-0.107727 -0.077418 0.014618
-0.110168 -0.078624 0.011457
-0.085293 -0.081025 0.006773
-0.081006 -0.080307 0.009350
-0.075288 -0.078514 0.014976
-0.096909 -0.081622 0.002740
-0.082765 -0.077029 0.017773
-0.108611 -0.080398 0.005161
-0.095958 -0.078947 0.012904
-0.103319 -0.079107 0.012673
-0.090490 -0.080344 0.008632
-0.100536 -0.080723 0.006539
-0.068133 -0.079287 0.012668
-0.068926 -0.082271 0.001861
-0.086609 -0.072541 0.021634
-0.077654 -0.072626 0.022856
-0.070183 -0.068581 0.025947
-0.074238 -0.067809 0.025430
-0.093891 -0.072997 0.021764
-0.089445 -0.069380 0.024681
-0.063132 -0.067960 0.025433
-0.081938 -0.072320 0.023520
-0.077896 -0.072975 0.022462
-0.071585 -0.063774 0.028176
-0.100097 -0.066519 0.025706
-0.088708 -0.075122 0.019173
-0.081931 -0.076059 0.019881
-0.048718 -0.072739 0.021942
-0.078968 -0.060309 0.028780
-0.078226 -0.067218 0.026194
-0.063720 -0.074987 0.019239
-0.060824 -0.061902 0.029228
-0.094320 -0.062745 0.028151
-0.097988 -0.071941 0.021564
-0.070450 -0.073470 0.022535
-0.064354 -0.071501 0.023483
-0.058849 -0.067809 0.025030
-0.083889 -0.069418 0.024772
-0.067275 -0.070769 0.023697
-0.095218 -0.068959 0.023934
-0.089615 -0.065615 0.026432
-0.087472 -0.059914 0.029939
-0.074215 -0.076767 0.017596
-0.084661 -0.065552 0.026985
-0.051555 -0.067151 0.025656
-0.057414 -0.074912 0.021123
0.001876 -0.054197 0.127581
0.028623 -0.053804 0.123941
0.031574 -0.054703 0.127740
0.023340 -0.053924 0.130846
-0.003325 -0.055843 0.105070
-0.006142 -0.054402 0.129933
0.035595 -0.055484 0.107358
0.008429 -0.055476 0.120955
0.024477 -0.055615 0.102962
0.022701 -0.055154 0.120675
-0.029728 -0.055530 0.122074
-0.000501 -0.055251 0.121573
0.015485 -0.055365 0.114370
0.041933 -0.053648 0.117473
0.014230 -0.053329 0.134302
0.015225 -0.054554 0.124822
0.038473 -0.054612 0.112985
0.036945 -0.054256 0.123559
-0.014734 -0.053813 0.134145
-0.020161 -0.053988 0.127444
0.028334 -0.055299 0.113313
0.033517 -0.054857 0.117824
0.037037 -0.052778 0.130737
0.011577 -0.056211 0.106975
0.029751 -0.052288 0.134558
-0.016570 -0.056009 0.114365
0.010646 -0.054534 0.129281
-0.008376 -0.055121 0.122945
0.019389 -0.055554 0.121606
0.001809 -0.055877 0.115156
0.040665 -0.053094 0.124544
0.041798 -0.054884 0.107666
0.033485 -0.071580 0.114863
0.036462 -0.072651 0.116266
0.040772 -0.067922 0.115228
0.037533 -0.069764 0.115510
0.029615 -0.071568 0.108468
0.031697 -0.070156 0.114573
0.041959 -0.065324 0.109269
0.035008 -0.070351 0.114999
0.037421 -0.068149 0.105407
0.038603 -0.065863 0.114206
0.023627 -0.068247 0.111403
0.030236 -0.074029 0.114722
0.033917 -0.074319 0.115094
0.051602 -0.071256 0.115507
0.036588 -0.064850 0.114196
0.036212 -0.067419 0.114959
0.043624 -0.074700 0.115826
0.045884 -0.062675 0.114134
0.030195 -0.064566 0.112999
0.025932 -0.072593 0.113194
0.038574 -0.071888 0.114453
0.041188 -0.069634 0.114967
0.044254 -0.069669 0.115608
0.034704 -0.068258 0.112838
0.041242 -0.073048 0.116747
0.027737 -0.069376 0.110267
0.033199 -0.068216 0.114831
0.033496 -0.058996 0.112029
0.036802 -0.076593 0.115819
0.032358 -0.064942 0.110707
0.048042 -0.068183 0.115581
0.044871 -0.071390 0.111595
0.050737 -0.080131 0.121891
0.053973 -0.082255 0.123580
0.060297 -0.073660 0.124052
0.056568 -0.076113 0.123453
0.046025 -0.079505 0.119159
0.049729 -0.076786 0.122426
0.060709 -0.070014 0.121324
0.053287 -0.078270 0.123091
0.054332 -0.075010 0.120254
0.057775 -0.071163 0.123478
0.042299 -0.072467 0.118972
0.047297 -0.082945 0.120567
0.051355 -0.084907 0.121465
0.069187 -0.079757 0.124058
0.055151 -0.067261 0.122098
0.054467 -0.071396 0.122995
0.062665 -0.084996 0.123593
0.064429 -0.066502 0.123057
0.048076 -0.067956 0.121131
0.043085 -0.081767 0.119815
0.056692 -0.080326 0.123155
0.059832 -0.077943 0.123568
0.064772 -0.075218 0.123913
0.051141 -0.073089 0.121962
0.060223 -0.081817 0.124197
0.045389 -0.075798 0.119329
0.049732 -0.073508 0.122006
0.050973 -0.063442 0.120685
0.056258 -0.086384 0.122266
0.050423 -0.069621 0.120531
0.067456 -0.073125 0.123723
0.062446 -0.080545 0.122758
-0.135536 -0.009169 0.011891
-0.110742 -0.010116 0.006768
-0.105045 -0.010013 0.008847
-0.115890 -0.010957 0.014512
-0.144667 -0.008663 -0.012419
-0.145278 -0.010012 0.011024
-0.098603 -0.009596 -0.009524
-0.132294 -0.009114 -0.000093
-0.115999 -0.009307 -0.011099
-0.116125 -0.009157 0.000036
-0.164675 -0.009120 -0.002072
-0.141615 -0.009936 0.005205
-0.123734 -0.008381 -0.004304
-0.079253 -0.010131 0.001869
-0.127450 -0.013106 0.015698
-0.125684 -0.009984 0.004942
-0.090316 -0.009224 -0.001187
-0.094594 -0.009938 0.005118
-0.152240 -0.011290 0.015252
-0.159968 -0.010214 0.006844
-0.109731 -0.008503 -0.005193
-0.102349 -0.008304 -0.000303
-0.097988 -0.011441 0.015131
-0.130155 -0.008922 -0.010029
-0.106163 -0.012334 0.018101
-0.153526 -0.008690 -0.007595
-0.129083 -0.010363 0.010364
-0.147057 -0.009254 -0.000034
-0.120407 -0.008398 0.008438
