-0.109061 -0.032449 0.311736
-0.348672 -0.022291 0.127485
-0.337340 -0.021900 0.126900
-0.081264 -0.032086 0.309528
-0.081047 -0.036599 0.292699
-0.322993 -0.026116 0.107947
-0.070650 -0.036661 0.286542
-0.311604 -0.026356 0.096272
-0.060964 -0.037050 0.278608
-0.074259 -0.041545 0.260306
-0.062607 -0.041385 0.259573
-0.053738 -0.037229 0.267969
-0.309703 -0.031278 0.074805
-0.298638 -0.031385 0.075387
-0.051644 -0.041134 0.252624
-0.288238 -0.030790 0.062658
-0.041587 -0.041908 0.244639
-0.080448 -0.050178 0.207994
-0.057188 -0.046037 0.225452
-0.354207 -0.039063 0.000235
-0.335986 -0.042757 0.008178
-0.343583 -0.028773 0.005795
-0.289459 -0.036221 0.043198
-0.032751 -0.041715 0.234798
-0.326214 -0.028682 0.013035
-0.056473 -0.049987 0.209508
-0.037811 -0.046033 0.222725
-0.307409 -0.046268 0.015259
-0.296805 -0.032707 0.022023
-0.270101 -0.035602 0.038760
-0.306287 -0.023669 0.014845
-0.327124 -0.012241 -0.001621
-0.320859 -0.021128 -0.002008
-0.306097 -0.051588 -0.004858
-0.272252 -0.045459 0.022883
-0.332424 0.009915 -0.000447
-0.275917 -0.032209 0.024517
-0.336945 0.018076 -0.000592
-0.021185 -0.045748 0.209797
-0.343227 0.035375 -0.000590
-0.348833 0.049518 -0.000367
-0.258457 -0.045584 0.026116
-0.314713 -0.007510 -0.000133
-0.308800 -0.031061 -0.007050
-0.272911 -0.060198 0.006661
-0.032742 -0.050121 0.193897
-0.355111 -0.041692 -0.049928
-0.285602 -0.019380 0.014395
-0.330721 0.028677 0.000101
-0.353717 0.068509 -0.000505
-0.319907 0.014501 0.000520
-0.302304 -0.016111 -0.000589
-0.317914 -0.015790 -0.012333
-0.313847 0.006359 0.000553
-0.266054 -0.023454 0.024216
-0.360134 0.086132 -0.000221
-0.366571 0.106167 -0.000056
-0.240357 -0.045313 0.029126
-0.253283 -0.062948 0.010104
-0.310067 -0.040390 -0.023406
-0.240481 -0.057733 0.022062
-0.011015 -0.045769 0.200566
-0.253400 -0.023826 0.026382
-0.318426 0.031474 0.001034
-0.294680 -0.039061 -0.012764
-0.334534 0.059304 0.001018
-0.290627 -0.008139 0.001913
-0.307818 0.022532 0.001765
-0.340416 0.076650 0.000751
-0.286421 -0.022509 -0.003732
-0.228457 -0.044621 0.030456
-0.318755 0.045440 0.001879
-0.346501 0.091865 0.001032
-0.299835 -0.040882 -0.023907
-0.279361 -0.045141 -0.010472
-0.295566 0.014286 0.002564
-0.235899 -0.028133 0.029466
-0.290263 0.005803 0.002660
-0.222313 -0.057069 0.025691
-0.013096 -0.049773 0.187373
-0.323643 0.063152 0.001921
-0.230378 -0.066599 0.012617
-0.256000 -0.016019 0.015322
-0.282360 -0.045899 -0.019064
-0.268991 -0.057647 -0.013989
-0.312839 0.053985 0.002221
-0.340359 0.100445 0.001068
-0.272183 -0.011906 0.002564
-0.297770 -0.030684 -0.027442
-0.263671 -0.057994 -0.013646
-0.212872 -0.044223 0.032017
-0.277199 0.005044 0.003619
-0.294117 0.031674 0.002663
-0.223521 -0.028523 0.029051
-0.300644 0.045149 0.002703
-0.243330 -0.015699 0.018730
-0.048001 -0.059237 0.146848
-0.279089 -0.035763 -0.019197
-0.295812 -0.030857 -0.030737
-0.330251 0.095675 0.000124
-0.282451 0.021883 0.003352
-0.202651 -0.065996 0.022880
-0.312048 0.071620 0.001807
-0.215570 -0.070505 0.010285
-0.318904 0.086622 0.000485
-0.260740 -0.003570 0.004275
-0.002803 -0.049715 0.178637
-0.232198 -0.015573 0.019626
-0.196462 -0.048478 0.032341
-0.212749 -0.027724 0.029379
-0.268309 -0.035062 -0.017557
-0.271108 0.018239 0.004084
-0.010439 -0.043951 0.172693
-0.234137 -0.069738 -0.009502
-0.027770 -0.054808 0.153783
-0.252418 -0.048786 -0.014928
-0.249350 -0.011736 0.003979
-0.187444 -0.060744 0.028857
-0.290913 0.054609 0.001842
-0.260446 0.009395 0.004167
-0.217057 -0.071728 -0.000107
-0.195264 -0.035780 0.032540
-0.203015 -0.027155 0.030823
-0.184708 -0.048608 0.033179
-0.294009 -0.000241 -0.028895
-0.260035 -0.057974 -0.029939
-0.194285 -0.073727 0.012818
-0.181201 -0.068417 0.024183
-0.272891 0.040940 0.001433
-0.280117 0.049746 -0.000200
-0.215686 -0.015346 0.019956
-0.007691 -0.054160 0.158771
-0.237090 -0.012173 0.004353
-0.239025 -0.054939 -0.017652
-0.261883 0.027478 0.001892
0.006815 -0.050117 0.169787
-0.252885 -0.024866 -0.015362
-0.174323 -0.048176 0.033563
-0.166453 -0.059721 0.031283
-0.250700 0.018796 0.001645
-0.204439 -0.015941 0.019617
-0.232851 -0.068261 -0.027018
-0.207871 -0.067402 -0.007028
-0.179198 -0.077227 0.009822
-0.181448 -0.027806 0.031140
-0.239995 0.009845 0.002043
-0.219706 -0.011662 0.007142
-0.255890 -0.011179 -0.021177
-0.228430 -0.003694 0.002093
-0.228121 -0.038802 -0.016195
-0.253232 -0.020749 -0.027363
-0.164699 -0.036155 0.033247
-0.153920 -0.067873 0.026392
-0.161270 -0.076677 0.015656
-0.154737 -0.047635 0.033576
0.013122 -0.047096 0.160322
-0.218841 -0.049929 -0.019246
-0.200818 -0.011272 0.009978
-0.150706 -0.076067 0.017621
-0.183410 -0.015161 0.020373
-0.177812 -0.075854 -0.007933
-0.207994 -0.007355 -0.000185
-0.189445 -0.011380 0.010336
-0.135531 -0.048084 0.034057
0.017462 -0.047642 0.149252
-0.004620 -0.058880 0.123177
-0.129934 -0.075517 0.019100
-0.174389 -0.072010 -0.013096
-0.147488 -0.081465 0.002720
-0.163041 -0.015563 0.019788
-0.141904 -0.027056 0.030568
-0.134567 -0.035321 0.032752
0.026928 -0.050423 0.144704
-0.148038 -0.083855 -0.005014
-0.116672 -0.047928 0.033922
-0.033325 -0.061100 0.089085
-0.164870 -0.073671 -0.017834
-0.186040 -0.059117 -0.027091
-0.111272 -0.071169 0.023971
-0.005266 -0.063595 0.106204
-0.120247 -0.080217 0.010426
-0.036653 -0.069284 0.078216
0.016575 -0.058354 0.122116
0.023821 -0.047417 0.132513
-0.143440 -0.014721 0.019607
0.021157 -0.087325 0.110378
-0.133927 -0.090877 -0.008670
-0.121941 -0.026860 0.030191
0.019028 -0.076726 0.112899
-0.105491 -0.043119 0.033541
-0.183360 -0.067541 -0.040608
-0.092254 -0.050853 0.033335
-0.106233 -0.031038 0.031123
0.033788 -0.090448 0.108641
0.017201 -0.066408 0.106921
-0.145175 -0.080226 -0.023410
-0.016608 -0.067913 0.079241
0.052189 -0.089236 0.120331
-0.099562 -0.079304 0.010746
-0.087539 -0.070099 0.024211
0.038040 -0.054345 0.123681
0.036050 -0.072723 0.113509
0.052725 -0.078448 0.123083
-0.124253 -0.014570 0.018733
-0.015738 -0.102462 0.059284
0.050888 -0.096290 0.111423
0.064241 -0.088182 0.121786
0.030170 -0.062846 0.108698
0.046373 -0.069015 0.117640
-0.071925 -0.069486 0.028479
-0.077678 -0.042410 0.033716
-0.000103 -0.097572 0.065468
-0.079204 -0.078628 0.012036
-0.083256 -0.030347 0.030863
0.073183 -0.077176 0.123966
-0.126582 -0.066484 -0.020904
-0.105203 -0.015125 0.018403
-0.116421 -0.075202 -0.017995
-0.089540 -0.022532 0.026725
-0.059366 -0.076970 0.023370
0.013014 -0.103752 0.064522
0.067010 -0.067641 0.120106
0.080544 -0.094484 0.117416
-0.064024 -0.042194 0.033776
-0.007646 -0.095715 0.049774
-0.047509 -0.076589 0.028158
0.072239 -0.098631 0.107442
0.084535 -0.076768 0.123957
-0.100231 -0.078282 -0.015185
-0.078583 -0.068185 0.004685
0.091409 -0.087026 0.121994
0.058087 -0.061293 0.108985
-0.050501 -0.049765 0.032569
-0.154355 -0.067279 -0.055174
0.078773 -0.067011 0.119914
0.047904 -0.051469 0.103999
-0.071912 -0.022631 0.027234
0.009904 -0.105735 0.048261
-0.055912 -0.030349 0.031128
0.092357 -0.097556 0.109314
-0.059837 -0.064186 0.009277
0.056793 -0.054534 0.098645
-0.032350 -0.049840 0.032666
-0.100111 -0.060162 -0.024736
-0.108070 -0.071338 -0.036689
-0.081282 -0.011654 0.008570
0.084847 -0.060403 0.109758
-0.048731 -0.022574 0.027605
-0.077284 -0.077174 -0.020960
0.099215 -0.066532 0.114676
0.095498 -0.094848 0.098510
0.053950 -0.052253 0.087314
-0.094217 -0.062701 -0.029315
-0.049046 -0.070618 0.000846
-0.032885 -0.030154 0.030074
0.081625 -0.086149 0.088962
-0.032044 -0.076139 0.006021
-0.010049 -0.052404 0.032310
0.064837 -0.059002 0.084666
0.085638 -0.075738 0.088990
-0.058659 -0.010815 0.010280
-0.044582 -0.014055 0.018701
0.094772 -0.085157 0.088797
-0.082848 -0.053949 -0.029877
0.093312 -0.067497 0.095069
-0.008003 -0.086751 0.009887
-0.011078 -0.032822 0.031438
-0.024462 -0.076100 0.000482
-0.057835 -0.069895 -0.023856
0.006609 -0.051840 0.032560
-0.054907 -0.073011 -0.024885
0.002397 -0.040307 0.033027
0.071761 -0.058773 0.075643
0.098801 -0.074738 0.087661
-0.003921 -0.070973 0.011283
0.063368 -0.052437 0.068172
0.019884 -0.052241 0.032364
-0.068512 -0.066767 -0.042257
0.072786 -0.063429 0.064083
-0.082187 -0.070823 -0.055832
0.016422 -0.040778 0.031970
-0.031408 -0.010528 0.009601
-0.000685 -0.021032 0.026766
-0.045354 -0.068065 -0.029508
-0.001936 -0.071408 0.001157
-0.071916 -0.063939 -0.052882
0.011321 -0.090251 -0.002482
0.036364 -0.052256 0.032343
-0.052374 -0.073760 -0.044427
0.028123 -0.032719 0.031303
-0.018673 -0.073959 -0.025332
0.077602 -0.067834 0.048395
-0.029730 -0.070755 -0.033652
0.020735 -0.021853 0.025842
0.068292 -0.053947 0.046388
-0.027214 -0.069271 -0.033360
0.039575 -0.033053 0.031970
0.072305 -0.072116 0.037727
-0.054766 -0.076088 -0.060556
-0.048849 -0.061608 -0.049612
0.083317 -0.056952 0.050806
0.057000 -0.052006 0.031696
0.029737 -0.080401 -0.002255
-0.006582 -0.063150 -0.021489
-0.005312 -0.076617 -0.029600
0.007960 -0.077170 -0.021829
0.037933 -0.021463 0.026089
0.067698 -0.081361 0.017243
0.025137 -0.013800 0.016562
0.018029 -0.073320 -0.016497
0.083151 -0.072268 0.030820
0.065250 -0.036747 0.032797
0.070230 -0.047751 0.031632
0.092279 -0.067807 0.036339
0.089794 -0.057057 0.038613
0.078806 -0.054531 0.031168
0.034077 -0.073354 -0.016385
0.089848 -0.079425 0.021513
0.036799 -0.082619 -0.020123
0.068277 -0.025184 0.028047
0.082315 -0.035596 0.032006
0.102350 -0.067510 0.032508
0.057772 -0.017516 0.021623
0.098025 -0.057611 0.031781
-0.078751 -0.072794 -0.109391
0.038734 -0.010715 0.007915
0.098602 -0.046941 0.032506
0.007925 -0.053334 -0.038118
0.047715 -0.068869 -0.016659
0.113239 -0.067680 0.031617
0.060967 -0.082104 -0.015326
0.098175 -0.080089 0.010997
0.051498 -0.011107 0.007878
0.077741 -0.017700 0.021888
0.097502 -0.028411 0.030567
0.117581 -0.053530 0.032171
0.119056 -0.074680 0.023803
0.050463 -0.078025 -0.029009
-0.040688 -0.058777 -0.090924
0.058913 -0.078213 -0.025478
0.032325 -0.055237 -0.034153
0.118279 -0.043373 0.032987
0.060306 -0.064592 -0.020461
0.068181 -0.011026 0.007477
0.113112 -0.031667 0.031839
0.095536 -0.088137 -0.008229
0.073505 -0.086318 -0.024137
0.027260 -0.067088 -0.050609
0.130189 -0.070873 0.023913
0.117908 -0.079170 0.010675
0.086151 -0.078699 -0.013359
0.044588 -0.076081 -0.043633
0.098222 -0.017429 0.022017
0.136353 -0.063380 0.029181
0.130545 -0.042359 0.032857
0.137627 -0.053315 0.032248
0.108498 -0.020906 0.025010
0.125389 -0.031864 0.031499
0.133096 -0.082266 0.012122
0.148145 -0.052456 0.033014
0.088355 -0.010880 0.007727
0.119203 -0.020974 0.025591
0.149438 -0.070498 0.024417
-0.014699 -0.074536 -0.100042
0.146257 -0.078246 0.013517
0.116178 -0.082404 -0.010531
0.144169 -0.031459 0.031605
0.162822 -0.062780 0.029445
0.130912 -0.020848 0.025930
0.112673 -0.068747 -0.011867
0.130904 -0.073350 -0.002871
0.160686 -0.041743 0.033092
0.167747 -0.052045 0.032704
0.087945 -0.064427 -0.031980
0.108146 -0.010909 0.007510
0.058364 -0.069796 -0.057755
0.155528 -0.031659 0.031562
0.087298 -0.070337 -0.036759
0.165713 -0.076849 0.015927
0.180550 -0.065408 0.028390
0.149994 -0.020431 0.026145
0.178722 -0.048083 0.033007
0.161500 -0.082058 0.000978
0.189243 -0.058147 0.031574
0.181383 -0.076319 0.017093
0.178919 -0.037476 0.033299
0.126249 -0.074449 -0.022476
0.127725 -0.010764 0.007718
0.152192 -0.069530 -0.002427
0.161301 -0.075174 0.000966
0.189714 -0.047448 0.032840
0.174198 -0.027386 0.030140
0.133994 -0.057867 -0.015403
0.200747 -0.058227 0.031051
0.140278 -0.010555 0.006267
0.205725 -0.068338 0.026667
0.185350 -0.027414 0.030322
0.096704 -0.060987 -0.049907
0.189087 -0.080558 0.008139
0.197029 -0.037582 0.033502
0.158123 -0.013676 0.015657
0.163718 -0.073701 -0.009524
0.180315 -0.071575 0.003905
0.045017 -0.096045 -0.109567
0.208268 -0.051301 0.032707
0.214187 -0.060587 0.030643
0.150690 -0.010955 0.006719
0.174182 -0.071978 -0.005778
0.201402 -0.079299 0.009776
0.178706 -0.016662 0.022266
0.169080 -0.013738 0.015537
0.068716 -0.090512 -0.095684
0.219072 -0.070535 0.024042
0.105926 -0.035883 -0.045312
0.218657 -0.040794 0.033311
0.002655 -0.078904 -0.144556
0.202479 -0.023852 0.028686
0.228702 -0.050560 0.033417
0.229973 -0.070661 0.023883
0.219332 -0.079065 0.011907
0.188769 -0.069580 -0.006523
0.235134 -0.060107 0.030838
0.160240 -0.062159 -0.024701
0.188092 -0.012996 0.015436
0.086008 -0.094046 -0.099465
0.213634 -0.023510 0.028212
0.240622 -0.069878 0.024130
0.229327 -0.033582 0.031864
0.206597 -0.070154 -0.001811
0.239707 -0.043618 0.033374
0.248832 -0.063105 0.029576
0.208043 -0.017033 0.021331
0.163896 -0.007155 -0.006619
0.237948 -0.077239 0.014094
0.193322 -0.061232 -0.010807
0.224106 -0.023126 0.028723
0.097535 -0.088706 -0.095104
0.213293 -0.075064 -0.003736
0.257852 -0.069641 0.024632
0.219311 -0.016562 0.021565
0.180709 -0.060433 -0.027139
0.249274 -0.076934 0.014536
0.259913 -0.053156 0.031779
0.249506 -0.033286 0.032177
0.097663 -0.092989 -0.108321
0.259611 -0.077198 0.015793
0.229312 -0.016169 0.021624
0.191021 -0.059070 -0.027067
0.245271 -0.022742 0.027723
0.210929 -0.063188 -0.015901
0.231278 -0.067837 -0.002907
0.224148 -0.070627 -0.010768
0.252994 -0.081525 0.001646
0.212176 -0.054428 -0.015865
0.279095 -0.065685 0.026964
0.242595 -0.069778 -0.001357
0.093261 -0.090330 -0.121710
0.240033 -0.016156 0.021016
0.270220 -0.036173 0.032601
0.279976 -0.054797 0.031403
0.206076 -0.055948 -0.023138
0.218109 -0.010312 0.005848
0.271384 -0.080623 0.006818
0.228444 -0.010308 0.005760
0.290086 -0.045246 0.031727
0.236874 -0.059276 -0.015220
0.279410 -0.025988 0.029602
0.299542 -0.051773 0.030179
0.239102 -0.010313 0.005627
0.288615 -0.078748 0.008194
0.304064 -0.066999 0.022949
0.270429 -0.016203 0.020420
0.308632 -0.057412 0.028140
0.267143 -0.068579 -0.006862
0.249059 -0.009721 0.004394
0.299048 -0.032103 0.030006
0.314377 -0.105566 0.004958
0.308815 -0.074664 0.012885
0.298049 -0.022373 0.026135
0.287192 -0.015668 0.019382
0.319071 -0.070554 0.015572
0.238312 -0.044048 -0.030461
0.258442 -0.064789 -0.027051
0.269982 -0.010140 0.003994
0.321308 -0.037490 0.027105
0.316827 -0.096676 -0.002831
0.230852 -0.067778 -0.052397
0.329445 -0.063775 0.019279
0.328179 -0.047790 0.025404
0.324177 -0.081881 0.005374
0.317140 -0.025449 0.022833
0.321827 -0.103332 -0.012088
0.305677 -0.015097 0.015546
0.339286 -0.048016 0.022729
0.289554 -0.009053 0.002508
0.329065 -0.024037 0.017657
0.347543 -0.060405 0.014413
0.323831 -0.080318 -0.013580
0.296785 -0.054893 -0.021795
0.338829 -0.071767 -0.000719
0.006386 -0.070759 -0.249649
0.309123 -0.011317 0.001261
0.028103 -0.070708 -0.235944
0.349543 -0.034974 0.011649
0.358616 -0.065245 -0.001395
0.359251 -0.041174 0.010525
0.324074 -0.014333 -0.004209
0.368811 -0.047697 0.006910
0.341329 -0.021076 -0.002261
0.350391 -0.028657 -0.003941
0.081285 -0.065013 -0.255524
0.069974 -0.052519 -0.278333
