0.199021 -0.079471 0.099832
0.195470 -0.082263 0.024659
0.201450 0.015886 0.145897
0.224900 0.012526 0.115102
0.227994 0.011666 0.133774
0.219947 0.013174 0.151028
0.188123 0.016348 0.055213
0.182456 0.015716 0.139255
0.223451 0.013185 0.063456
0.201095 0.017150 0.100429
0.220562 0.011931 0.051574
0.217645 0.011946 0.101762
0.150218 0.014710 0.097636
0.195822 0.016175 0.124456
0.213585 0.015060 0.087375
0.229322 0.008938 0.110246
0.207600 0.013906 0.162993
0.208955 0.015888 0.116254
0.234757 0.009788 0.081991
0.229588 0.008115 0.122115
0.172438 0.015313 0.156560
0.160949 0.016414 0.123044
0.221535 0.013945 0.086114
0.229654 0.011082 0.094885
0.229539 0.010922 0.151646
0.204621 0.014757 0.072205
0.228330 0.011138 0.165574
0.172378 0.015926 0.068312
0.209125 0.014163 0.139535
0.180552 0.013434 0.106644
0.223847 0.013315 0.127921
0.189753 0.014823 0.086138
0.234366 0.007801 0.138101
0.230182 0.009550 0.064130
-0.154047 0.222432 -0.073251
-0.148827 0.187650 -0.055778
-0.152903 0.212578 -0.068182
-0.151808 0.213123 -0.048049
-0.152100 0.199975 -0.086323
-0.150998 0.205103 -0.060124
-0.156347 0.227692 -0.083309
-0.152887 0.215834 -0.072473
-0.155493 0.219757 -0.088812
-0.150783 0.197081 -0.065415
-0.153167 0.218002 -0.080721
-0.151502 0.208906 -0.072262
-0.149207 0.189139 -0.079909
-0.152207 0.207616 -0.063978
-0.153980 0.226417 -0.045658
-0.153650 0.220724 -0.064997
-0.151627 0.198061 -0.075543
-0.156042 0.228747 -0.065266
-0.155181 0.235659 -0.056122
-0.149538 0.194746 -0.059971
-0.151524 0.213714 -0.058454
-0.152850 0.207197 -0.079438
-0.151316 0.206910 -0.053012
-0.155054 0.229133 -0.072663
-0.150529 0.200319 -0.046242
-0.152996 0.211471 -0.085655
-0.154073 0.224405 -0.058726
-0.156846 0.240576 -0.065237
-0.149037 0.185225 -0.069252
-0.156796 0.236646 -0.077842
-0.154605 0.220879 -0.051763
-0.150892 0.203088 -0.071592
-0.175125 0.311387 -0.052272
-0.166845 0.280823 -0.030053
-0.172298 0.300944 -0.044999
-0.171802 0.301781 -0.022868
-0.169879 0.291010 -0.063755
-0.170207 0.294689 -0.034839
-0.177070 0.314263 -0.061165
-0.172718 0.305184 -0.048702
-0.174711 0.306983 -0.067474
-0.168469 0.285603 -0.040451
-0.172039 0.305757 -0.057379
-0.170861 0.300509 -0.050038
-0.166524 0.282422 -0.056982
-0.171199 0.298011 -0.039875
-0.174966 0.311087 -0.018879
-0.173868 0.307252 -0.040217
-0.169580 0.289465 -0.052038
-0.176235 0.313025 -0.042254
-0.176867 0.319256 -0.029880
-0.167888 0.286891 -0.033872
-0.171547 0.303665 -0.033178
-0.171322 0.296113 -0.056766
-0.171019 0.297301 -0.028332
-0.176142 0.316032 -0.048723
-0.169970 0.292164 -0.020532
-0.172001 0.300925 -0.062705
-0.175570 0.313709 -0.033716
-0.178318 0.322885 -0.040298
-0.165972 0.278971 -0.046182
-0.177874 0.320747 -0.054601
-0.174904 0.308226 -0.027545
-0.168889 0.292904 -0.046392
0.050975 -0.012306 -0.028299
0.106733 -0.012658 -0.099870
0.121585 -0.009809 -0.061320
0.100412 -0.011323 -0.030138
0.042711 -0.013404 -0.184081
0.027576 -0.009802 -0.056203
0.125307 -0.009577 -0.170846
0.057093 -0.011872 -0.118232
0.094097 -0.011238 -0.188693
0.093108 -0.010091 -0.123774
0.008276 -0.010542 -0.123177
0.050674 -0.015537 -0.075482
0.075082 -0.016664 -0.142096
0.174629 -0.013742 -0.108720
0.075858 -0.010187 -0.009070
0.070345 -0.009680 -0.092551
0.153320 -0.015991 -0.148283
0.144134 -0.010137 -0.087565
0.019989 -0.010508 -0.019474
0.012336 -0.013649 -0.088061
0.109838 -0.012812 -0.148658
0.130100 -0.011820 -0.122938
0.137497 -0.012737 -0.037425
0.064338 -0.009253 -0.164894
0.125468 -0.015892 -0.000704
0.020162 -0.011252 -0.163603
0.069819 -0.010280 -0.051248
0.032940 -0.010957 -0.105930
0.096079 -0.021299 -0.076400
0.037774 -0.009111 -0.141842
0.169763 -0.012591 -0.051312
0.163576 -0.014206 -0.178929
-0.158767 0.250487 -0.066984
-0.151657 0.217668 -0.047090
-0.156770 0.239346 -0.060784
-0.155805 0.239954 -0.040648
-0.155320 0.228383 -0.078162
-0.154578 0.232628 -0.051889
-0.161084 0.254039 -0.075503
-0.157027 0.243439 -0.064266
-0.159310 0.246339 -0.080270
-0.153574 0.223488 -0.056600
-0.156912 0.244165 -0.072672
-0.155427 0.237820 -0.065258
-0.151987 0.219189 -0.071781
-0.155954 0.236176 -0.055914
-0.158647 0.251623 -0.038202
-0.157857 0.246819 -0.056836
-0.154537 0.227150 -0.066923
-0.160579 0.254038 -0.057289
-0.160173 0.261611 -0.047850
-0.152630 0.223745 -0.051015
-0.155730 0.241757 -0.049881
-0.156171 0.234364 -0.071231
-0.155047 0.235211 -0.045389
-0.159888 0.255780 -0.064290
-0.153893 0.229549 -0.038943
-0.156811 0.238944 -0.077549
-0.158852 0.252339 -0.050570
-0.162128 0.266624 -0.056837
-0.151502 0.215163 -0.061545
-0.161611 0.262640 -0.069455
-0.158990 0.247492 -0.044313
-0.154046 0.230796 -0.062342
0.028552 -0.381805 -0.202252
0.058950 -0.383290 -0.201484
0.068032 -0.379889 -0.200781
0.054991 -0.380412 -0.199165
0.009004 -0.381553 -0.203753
0.021541 -0.379501 -0.198927
0.078334 -0.379466 -0.205218
0.036825 -0.381207 -0.200656
0.051491 -0.380621 -0.204128
0.057816 -0.380889 -0.202492
-0.037372 -0.380129 -0.200895
0.014440 -0.385668 -0.200634
0.044186 -0.384286 -0.201706
0.112136 -0.382124 -0.200465
0.037483 -0.380690 -0.201949
0.048695 -0.379110 -0.200553
0.089153 -0.385663 -0.200721
0.091298 -0.381150 -0.201194
-0.001275 -0.380006 -0.201565
-0.017391 -0.380443 -0.200540
0.064671 -0.380604 -0.202796
0.074135 -0.380322 -0.201954
0.079693 -0.379328 -0.198811
0.039257 -0.379606 -0.201605
0.068619 -0.384270 -0.199545
-0.004859 -0.380287 -0.203338
0.029490 -0.379523 -0.199494
0.007802 -0.380543 -0.202853
0.051394 -0.386467 -0.201225
0.031088 -0.379735 -0.203890
0.100902 -0.381273 -0.199826
0.093573 -0.381460 -0.203525
-0.144307 -0.073725 -0.171493
-0.086136 -0.069043 -0.205113
-0.041202 -0.030899 -0.200099
-0.077308 -0.054897 -0.178591
-0.156639 -0.075395 -0.199499
-0.154346 -0.059307 -0.193087
0.008227 -0.023852 -0.196895
-0.131988 -0.064031 -0.204430
-0.092421 -0.053358 -0.196849
-0.072404 -0.003611 -0.202787
-0.167903 -0.037495 -0.197997
-0.146474 -0.089044 -0.195521
-0.119918 -0.080682 -0.201421
0.117839 -0.068324 -0.192788
-0.104305 -0.006253 -0.159326
-0.105976 -0.030661 -0.198612
0.025155 -0.078111 -0.197641
0.044497 0.006845 -0.200358
-0.157360 -0.004029 -0.178506
-0.171334 -0.081296 -0.192188
-0.054997 -0.071999 -0.204856
-0.026126 -0.061620 -0.204562
0.013048 -0.053614 -0.191969
-0.126826 -0.042016 -0.203880
-0.026942 -0.074605 -0.158069
-0.160759 -0.056522 -0.198840
-0.137605 -0.043777 -0.187005
-0.139361 0.020215 -0.198241
-0.085822 -0.088938 -0.199151
-0.139539 -0.015415 -0.199981
0.088331 -0.040821 -0.180610
0.059378 -0.065219 -0.196582
-0.146615 0.086222 -0.137252
-0.147023 0.049592 -0.110513
-0.147155 0.072786 -0.125893
-0.146457 0.072707 -0.100175
-0.147656 0.060659 -0.150595
-0.146556 0.064153 -0.115504
-0.146734 0.087234 -0.146438
-0.146439 0.078682 -0.131385
-0.147317 0.079976 -0.156491
-0.146688 0.054783 -0.122135
-0.145313 0.077893 -0.141875
-0.146386 0.071700 -0.133788
-0.146318 0.051097 -0.142298
-0.146706 0.070259 -0.120052
-0.146856 0.085468 -0.097414
-0.146729 0.080023 -0.120599
-0.148163 0.060182 -0.137921
-0.147527 0.089760 -0.121668
-0.145855 0.095698 -0.109502
-0.146548 0.056207 -0.114518
-0.146346 0.076584 -0.111726
-0.147275 0.068501 -0.142049
-0.147337 0.067774 -0.106913
-0.145809 0.091704 -0.130591
-0.147225 0.061492 -0.099194
-0.145821 0.071534 -0.150422
-0.146402 0.085939 -0.113566
-0.146029 0.100664 -0.121540
-0.147854 0.047708 -0.130261
-0.146390 0.098084 -0.138425
-0.147693 0.080087 -0.105078
-0.145871 0.063676 -0.129010
-0.146485 0.164746 -0.097945
-0.143393 0.130801 -0.077840
-0.146024 0.153135 -0.090894
-0.145088 0.153611 -0.070580
-0.145471 0.141642 -0.108866
-0.144564 0.145524 -0.082170
-0.147811 0.167593 -0.105878
-0.145652 0.157837 -0.094545
-0.147373 0.160648 -0.112130
-0.144268 0.137085 -0.086862
-0.145566 0.158026 -0.103165
-0.144938 0.151743 -0.096238
-0.143448 0.132496 -0.102395
-0.145461 0.150536 -0.085825
-0.146593 0.165548 -0.068814
-0.146075 0.160248 -0.087230
-0.145443 0.140703 -0.097743
-0.147792 0.168530 -0.087039
-0.146822 0.175050 -0.078174
-0.143781 0.136892 -0.080631
-0.145028 0.156081 -0.079371
-0.145770 0.148293 -0.102021
-0.145147 0.148535 -0.075541
-0.146746 0.169992 -0.094050
-0.144684 0.142664 -0.069578
-0.145445 0.152411 -0.108694
-0.146386 0.165310 -0.081069
-0.147873 0.179692 -0.087178
-0.143884 0.128908 -0.092098
-0.147841 0.176601 -0.099974
-0.147210 0.160972 -0.074299
-0.144134 0.144919 -0.092331
-0.132189 -0.071904 -0.123710
-0.054021 -0.065443 -0.187806
-0.012393 -0.044072 -0.172066
-0.052176 -0.062838 -0.134178
-0.144390 -0.075339 -0.192124
-0.149363 -0.064255 -0.161009
0.033570 -0.041702 -0.188998
-0.122962 -0.066455 -0.187696
-0.066248 -0.058765 -0.186904
-0.053619 -0.021521 -0.192190
-0.165626 -0.050986 -0.183512
-0.129956 -0.077259 -0.170168
-0.100790 -0.074530 -0.188722
0.134174 -0.067590 -0.174416
-0.086576 -0.029336 -0.105300
-0.091205 -0.043605 -0.176522
0.057322 -0.071310 -0.184390
0.062786 -0.018519 -0.180609
-0.154651 -0.029963 -0.132214
-0.166536 -0.075898 -0.168809
-0.028495 -0.071634 -0.195352
0.003566 -0.066659 -0.188469
0.034976 -0.063793 -0.154954
-0.109088 -0.052534 -0.196185
0.004464 -0.069730 -0.102199
-0.154834 -0.063469 -0.188497
-0.116350 -0.054034 -0.153288
-0.138032 -0.008757 -0.179133
-0.063005 -0.079012 -0.171139
-0.131447 -0.030745 -0.187796
0.108550 -0.052946 -0.142259
0.088945 -0.065914 -0.187874
-0.182224 0.332046 -0.046547
-0.172937 0.303593 -0.025534
-0.178961 0.322745 -0.039668
-0.178459 0.323526 -0.017601
-0.176501 0.313155 -0.058895
-0.176653 0.317055 -0.029808
-0.184210 0.335796 -0.056547
-0.179490 0.326277 -0.043766
-0.181748 0.328204 -0.062832
-0.174778 0.308319 -0.036197
-0.179140 0.327583 -0.052424
-0.177314 0.321997 -0.044725
-0.172658 0.304649 -0.052056
-0.177765 0.319110 -0.035243
-0.182099 0.333377 -0.013421
-0.180925 0.329404 -0.034960
-0.175899 0.311475 -0.047258
-0.183407 0.334808 -0.037800
-0.184200 0.341637 -0.024491
-0.174269 0.309164 -0.029758
-0.178075 0.324594 -0.029134
-0.177879 0.318281 -0.051956
-0.177459 0.318910 -0.023337
-0.183482 0.337345 -0.044222
-0.176186 0.313767 -0.015073
-0.178711 0.322434 -0.057810
-0.182865 0.335142 -0.028546
-0.186029 0.344761 -0.035545
-0.171931 0.302235 -0.041203
-0.185503 0.342357 -0.049982
-0.181503 0.329695 -0.022409
-0.175233 0.314535 -0.042068
-0.239982 0.313222 -0.043360
-0.235568 0.268000 -0.071952
-0.238865 0.326197 -0.078967
-0.240001 0.328536 -0.029569
-0.239040 0.293459 -0.135840
-0.240723 0.317696 -0.066682
-0.241575 0.348302 -0.131095
-0.239208 0.314433 -0.088813
-0.240172 0.336572 -0.142230
-0.238860 0.334385 -0.112799
-0.243607 0.338532 -0.095479
-0.235564 0.259132 -0.045563
-0.234292 0.250431 -0.103152
-0.234015 0.296397 -0.080646
-0.244820 0.350157 -0.026816
-0.242831 0.347685 -0.069979
-0.234243 0.272584 -0.121296
-0.241200 0.350681 -0.083668
-0.245902 0.359458 -0.051889
-0.239969 0.281552 -0.092057
-0.235069 0.300273 -0.103390
-0.238552 0.321323 -0.105230
-0.237477 0.301468 -0.055913
-0.241921 0.347623 -0.101864
-0.237696 0.286251 -0.029320
-0.242703 0.330540 -0.125071
-0.241971 0.337669 -0.058918
-0.245388 0.359333 -0.093829
-0.233151 0.231044 -0.078101
-0.244260 0.358527 -0.116535
-0.240865 0.339648 -0.046946
-0.238084 0.309551 -0.121609
-0.145010 0.141103 -0.111636
-0.143474 0.106564 -0.089389
-0.145037 0.128650 -0.103094
-0.144164 0.129047 -0.081660
-0.144825 0.117352 -0.122190
-0.143824 0.120798 -0.094101
-0.145843 0.142961 -0.118938
-0.144471 0.134104 -0.106951
-0.145829 0.136210 -0.126195
-0.143794 0.111922 -0.098560
-0.144229 0.133563 -0.115920
-0.144105 0.128006 -0.109434
-0.143254 0.108363 -0.115558
-0.144489 0.126610 -0.097832
-0.145151 0.140913 -0.079892
-0.144735 0.135557 -0.098973
-0.145088 0.116634 -0.110712
-0.146158 0.144193 -0.098980
-0.144829 0.150336 -0.089594
-0.143455 0.112790 -0.092138
-0.144151 0.132214 -0.090672
-0.144967 0.123995 -0.115035
-0.144561 0.124168 -0.087112
-0.144807 0.145887 -0.106328
-0.144298 0.118371 -0.080831
-0.144203 0.128051 -0.121995
-0.144766 0.140956 -0.092781
-0.145521 0.155060 -0.098832
-0.144036 0.104792 -0.105195
-0.145582 0.152357 -0.112587
-0.145892 0.136326 -0.085642
-0.143387 0.120544 -0.104397
-0.164331 0.272130 -0.066120
-0.157125 0.240971 -0.045649
-0.162125 0.261802 -0.059460
-0.161053 0.262550 -0.039617
-0.160765 0.251573 -0.076931
-0.160043 0.255532 -0.050833
-0.166618 0.275388 -0.074248
-0.162487 0.265806 -0.063117
-0.164913 0.268150 -0.079444
-0.158960 0.246697 -0.055138
-0.162162 0.266728 -0.071618
-0.160874 0.260827 -0.064469
-0.157501 0.242698 -0.070725
-0.161224 0.258894 -0.054461
-0.163656 0.272813 -0.036482
-0.163181 0.268473 -0.055449
-0.160086 0.250104 -0.065368
-0.165668 0.274970 -0.056207
-0.165437 0.281594 -0.046271
-0.157947 0.247140 -0.049618
-0.161052 0.264283 -0.048450
-0.161707 0.256830 -0.070052
-0.160511 0.257986 -0.044251
-0.165298 0.277049 -0.062880
-0.159338 0.252485 -0.037379
-0.162323 0.261424 -0.075976
-0.164233 0.274085 -0.049296
-0.167363 0.285890 -0.055145
-0.156805 0.239109 -0.060395
-0.167027 0.282767 -0.068264
-0.164038 0.269357 -0.043102
-0.159431 0.253659 -0.060922
0.114446 -0.052943 0.131788
0.203051 -0.058356 0.095153
0.208352 -0.053857 0.108337
0.193785 -0.053815 0.128628
0.074226 -0.057771 0.044134
0.071664 -0.055344 0.115725
0.217847 -0.052000 0.043720
0.132688 -0.054857 0.082116
0.181444 -0.055267 0.038779
0.190057 -0.053599 0.082056
-0.050284 -0.056964 0.076818
0.099899 -0.056547 0.097388
0.159776 -0.052979 0.069100
0.223717 -0.051064 0.085523
0.164842 -0.055394 0.139190
0.166210 -0.053941 0.095877
0.225927 -0.053412 0.063959
0.223024 -0.047117 0.100006
0.029626 -0.058542 0.131628
-0.013430 -0.055681 0.103397
0.196879 -0.054651 0.064705
0.212770 -0.051847 0.074922
0.222474 -0.052896 0.125676
0.150639 -0.053294 0.047866
0.213205 -0.052740 0.141468
0.017845 -0.058579 0.061913
0.146012 -0.055138 0.117130
0.054047 -0.060765 0.084850
0.169820 -0.052567 0.111490
0.108385 -0.059713 0.065296
0.228025 -0.047225 0.111808
0.226727 -0.049050 0.054930
-0.230513 0.131988 -0.027241
-0.229014 0.073462 -0.074998
-0.227203 0.186395 -0.083880
-0.229577 0.180603 -0.010835
-0.231467 0.103378 -0.160473
-0.234402 0.158359 -0.068945
-0.226479 0.238003 -0.152628
-0.232151 0.146986 -0.100990
-0.233067 0.202946 -0.162288
-0.229377 0.213876 -0.130460
-0.234283 0.214474 -0.096493
-0.224348 0.048189 -0.039086
-0.223789 0.038296 -0.125225
-0.210282 0.112118 -0.090638
-0.235723 0.249517 -0.010452
-0.233791 0.244051 -0.070671
-0.215758 0.074161 -0.140038
-0.221142 0.254351 -0.094125
-0.234063 0.275511 -0.050685
-0.233442 0.086074 -0.108445
-0.222646 0.120316 -0.124145
-0.227686 0.169269 -0.119944
-0.221948 0.137769 -0.057133
-0.234782 0.226352 -0.112048
-0.217453 0.093470 -0.010838
-0.235996 0.184989 -0.143709
-0.234123 0.203347 -0.052196
-0.234124 0.288135 -0.107586
-0.214715 0.013721 -0.084271
-0.235036 0.268426 -0.141426
-0.219570 0.214819 -0.034583
-0.219445 0.149822 -0.145041
-0.171519 -0.058658 -0.207281
-0.173998 -0.077670 -0.209483
-0.171860 -0.042127 -0.208466
-0.171250 -0.042397 -0.207756
-0.176964 -0.060774 -0.210639
-0.172919 -0.047915 -0.208392
-0.170079 -0.011742 -0.212050
-0.171765 -0.051875 -0.208988
-0.171158 -0.033348 -0.212935
-0.170772 -0.037853 -0.209530
-0.180838 -0.028155 -0.208080
-0.176359 -0.074804 -0.207537
-0.174866 -0.084806 -0.209931
-0.173686 -0.060717 -0.208170
-0.171057 -0.005386 -0.207087
-0.169929 -0.017331 -0.208991
-0.174814 -0.072745 -0.208304
-0.170364 0.009269 -0.207690
-0.173950 0.015011 -0.207857
-0.180235 -0.068589 -0.208285
-0.172292 -0.058653 -0.209062
-0.173010 -0.048371 -0.209547
-0.172066 -0.049303 -0.207020
-0.170546 -0.025437 -0.208625
-0.174898 -0.067092 -0.207297
-0.177360 -0.040591 -0.211149
-0.172675 -0.034298 -0.208880
-0.168174 0.037000 -0.208529
-0.176687 -0.095229 -0.207814
-0.172736 -0.001456 -0.211306
-0.172592 -0.025714 -0.207253
-0.173644 -0.053883 -0.210644
-0.065878 -0.012779 -0.095843
-0.008602 -0.013490 -0.145621
0.003430 -0.013226 -0.120629
-0.018460 -0.013209 -0.094647
-0.074043 -0.013228 -0.172031
-0.083440 -0.010966 -0.117320
0.024944 -0.012687 -0.166386
-0.058380 -0.012705 -0.151581
-0.026220 -0.012593 -0.167498
-0.028830 -0.015208 -0.152318
-0.100914 -0.013975 -0.154063
-0.067480 -0.016759 -0.133804
-0.042773 -0.014943 -0.161830
0.108537 -0.014284 -0.147115
-0.047416 -0.016280 -0.069179
-0.045631 -0.013423 -0.139050
0.055072 -0.015530 -0.158561
0.043190 -0.015080 -0.135934
-0.090520 -0.013998 -0.087798
-0.092728 -0.015543 -0.135982
0.000662 -0.012830 -0.162482
0.016404 -0.013483 -0.148790
0.028797 -0.012448 -0.104770
-0.051918 -0.011612 -0.167451
0.015176 -0.013855 -0.070381
-0.088875 -0.011130 -0.166835
-0.047309 -0.014208 -0.113461
-0.081073 -0.015663 -0.148856
-0.024744 -0.019590 -0.133685
-0.072913 -0.013609 -0.158357
0.081976 -0.016007 -0.111255
0.077252 -0.013045 -0.169694
-0.169065 -0.025960 -0.199641
-0.171088 -0.048055 -0.202668
-0.169533 0.000028 -0.201180
-0.168686 -0.001493 -0.201265
-0.174587 -0.028273 -0.206382
-0.171496 -0.008580 -0.200603
-0.169130 0.049472 -0.205929
-0.169211 -0.016251 -0.202168
-0.168253 0.014675 -0.206809
-0.168357 0.009588 -0.202628
-0.179960 0.023945 -0.200165
-0.172904 -0.046445 -0.200853
-0.171339 -0.053846 -0.204567
-0.172627 -0.029570 -0.201601
-0.169867 0.059298 -0.200633
-0.168561 0.041424 -0.201283
-0.171723 -0.040854 -0.202454
-0.168848 0.084377 -0.200443
-0.174125 0.093630 -0.200443
-0.179121 -0.037644 -0.201647
-0.169149 -0.025148 -0.202167
-0.170620 -0.009410 -0.203243
-0.169865 -0.012296 -0.199311
-0.169202 0.029045 -0.202643
-0.172452 -0.036350 -0.201552
-0.175995 0.003430 -0.205601
-0.171241 0.012442 -0.201325
-0.166637 0.127711 -0.200069
-0.173671 -0.063356 -0.200680
-0.172670 0.066725 -0.205104
-0.171264 0.028689 -0.200426
-0.171681 -0.016977 -0.205177
-0.171439 0.299972 -0.065317
-0.163615 0.269590 -0.044629
-0.168886 0.289862 -0.058832
-0.168185 0.290711 -0.037653
-0.166839 0.279795 -0.077096
-0.166856 0.283766 -0.049451
-0.173521 0.303180 -0.074343
-0.169282 0.293884 -0.062548
-0.171367 0.296001 -0.080257
-0.165372 0.274708 -0.054620
-0.168729 0.294830 -0.071117
-0.167447 0.289188 -0.063627
-0.163510 0.271215 -0.070444
-0.167788 0.286824 -0.054098
-0.171169 0.300205 -0.033865
-0.170266 0.296296 -0.054495
-0.166375 0.278265 -0.065692
-0.172639 0.302298 -0.056045
-0.172989 0.308585 -0.044514
-0.164560 0.275578 -0.048601
-0.168046 0.292428 -0.047740
-0.168124 0.284924 -0.070125
-0.167515 0.286077 -0.042910
-0.172471 0.304874 -0.062616
-0.166400 0.280932 -0.035392
-0.168810 0.289779 -0.075905
-0.171680 0.302251 -0.048119
-0.174614 0.312228 -0.054464
-0.162874 0.267663 -0.059868
-0.174145 0.309875 -0.068085
-0.171226 0.297233 -0.042150
-0.165713 0.281814 -0.060637
-0.190350 0.353770 -0.051098
-0.179740 0.326042 -0.031888
-0.186574 0.345053 -0.045560
-0.186281 0.346184 -0.022312
-0.183203 0.335757 -0.066694
-0.184031 0.340129 -0.035069
-0.192456 0.358639 -0.064885
-0.187027 0.348270 -0.050064
-0.189369 0.350731 -0.071411
-0.181944 0.331308 -0.043649
-0.186849 0.350680 -0.059115
-0.184283 0.344049 -0.050102
-0.179040 0.326841 -0.058434
-0.185308 0.340711 -0.041723
-0.190884 0.356034 -0.017242
-0.189334 0.352262 -0.040727
-0.182701 0.333308 -0.054841
-0.191593 0.356923 -0.044730
-0.193202 0.364240 -0.029077
-0.181612 0.331790 -0.036235
-0.185472 0.345964 -0.036101
-0.185132 0.340750 -0.059651
-0.185059 0.341102 -0.028864
-0.192052 0.359596 -0.051407
-0.183671 0.335800 -0.019517
-0.186117 0.345353 -0.065736
-0.191685 0.357895 -0.033946
-0.195015 0.366428 -0.042462
-0.178380 0.324895 -0.047438
-0.194309 0.364662 -0.057613
-0.189642 0.351997 -0.028018
-0.182343 0.336594 -0.049532
-0.155210 0.035161 -0.145178
-0.155677 0.006292 -0.147610
-0.155627 0.034066 -0.154851
-0.154784 0.033756 -0.128687
-0.158365 0.016923 -0.174708
-0.155482 0.026024 -0.147509
-0.156086 0.049962 -0.171797
-0.155568 0.032398 -0.161289
-0.156633 0.038418 -0.177653
-0.155655 0.026307 -0.160221
-0.166507 0.039397 -0.165407
-0.156819 0.018957 -0.149053
-0.155768 0.001420 -0.165993
-0.157981 0.022846 -0.154312
-0.155591 0.049491 -0.122518
-0.154858 0.046769 -0.154058
-0.157611 0.012948 -0.168761
-0.156985 0.056365 -0.155831
-0.158136 0.061321 -0.141262
-0.160727 0.012294 -0.155095
-0.154629 0.026992 -0.152949
-0.156084 0.030265 -0.168267
-0.156282 0.023240 -0.138727
-0.154691 0.048573 -0.162354
-0.157274 0.014463 -0.125247
-0.157911 0.032459 -0.172571
-0.155272 0.042035 -0.145731
-0.154856 0.070302 -0.160418
-0.157940 -0.007555 -0.155039
-0.155713 0.061495 -0.168123
-0.157654 0.042384 -0.136142
-0.156269 0.023103 -0.165872
-0.238455 0.196667 -0.031781
-0.235607 0.144787 -0.084549
-0.230894 0.250350 -0.093081
-0.236020 0.244399 -0.011735
-0.235935 0.171331 -0.170922
-0.238543 0.222402 -0.077637
-0.226932 0.290306 -0.168665
-0.236863 0.213325 -0.112064
-0.235362 0.262070 -0.174021
-0.231291 0.275100 -0.145596
-0.237949 0.270011 -0.107236
-0.231837 0.113145 -0.043988
-0.229679 0.104161 -0.136416
-0.211448 0.179668 -0.106129
-0.240877 0.297092 -0.006283
-0.238159 0.296414 -0.080182
-0.220216 0.139935 -0.156049
-0.220263 0.297096 -0.107948
-0.237994 0.313535 -0.049989
-0.237730 0.153558 -0.119888
-0.228808 0.189334 -0.140310
-0.230179 0.234205 -0.130870
-0.227034 0.205297 -0.066262
-0.239026 0.279610 -0.123800
-0.224418 0.162916 -0.010567
-0.239013 0.247490 -0.154420
-0.240064 0.264159 -0.057413
-0.237606 0.321924 -0.117148
-0.220901 0.078376 -0.097644
-0.236050 0.313091 -0.155839
-0.219631 0.273271 -0.040346
-0.219824 0.217027 -0.158772
-0.144983 0.118182 -0.133841
-0.144372 0.083145 -0.109057
-0.145219 0.105171 -0.123648
-0.144596 0.105479 -0.100473
-0.145294 0.093862 -0.144497
-0.144360 0.096975 -0.113884
-0.145465 0.119484 -0.141112
-0.144700 0.110926 -0.128206
-0.145748 0.112523 -0.149585
-0.144327 0.087951 -0.119176
-0.144078 0.110106 -0.137762
-0.144474 0.104968 -0.130897
-0.143820 0.085016 -0.137618
-0.144888 0.103331 -0.118051
-0.145431 0.117533 -0.098053
-0.144986 0.112137 -0.119063
-0.145661 0.093520 -0.132727
-0.146245 0.121112 -0.119671
-0.144822 0.126959 -0.108880
-0.144153 0.089578 -0.111910
-0.144537 0.109120 -0.110211
-0.145157 0.100677 -0.137110
-0.145151 0.100890 -0.106438
-0.144600 0.123028 -0.127346
-0.145054 0.095020 -0.099422
-0.144089 0.104321 -0.144386
-0.144964 0.117968 -0.112585
-0.145161 0.131852 -0.119253
-0.144953 0.082042 -0.126726
-0.145311 0.129297 -0.134315
-0.146119 0.112648 -0.104731
-0.143797 0.096983 -0.125150
-0.073751 -0.007994 -0.039848
-0.008728 -0.009522 -0.086228
0.005250 -0.012078 -0.061801
-0.021684 -0.009563 -0.035944
-0.086708 -0.008949 -0.150746
-0.096500 -0.009895 -0.053863
0.016788 -0.009837 -0.140560
-0.062151 -0.009174 -0.108135
-0.024692 -0.005895 -0.143871
-0.030246 -0.014122 -0.108704
-0.129734 -0.011110 -0.109088
-0.080546 -0.009114 -0.076050
-0.043685 -0.009265 -0.125230
0.068670 -0.010234 -0.101659
-0.054035 -0.011424 -0.015943
-0.048231 -0.007986 -0.087284
0.041376 -0.008831 -0.123938
0.033227 -0.011141 -0.083460
-0.109103 -0.009935 -0.025351
-0.120171 -0.009220 -0.071847
-0.008277 -0.009211 -0.124402
0.012286 -0.008693 -0.110415
0.020350 -0.009882 -0.037629
-0.059425 -0.009616 -0.142123
0.003556 -0.011517 -0.009128
-0.109654 -0.008852 -0.137531
-0.053040 -0.010880 -0.057277
-0.098269 -0.012742 -0.099597
-0.032881 -0.010518 -0.072494
-0.082707 -0.007431 -0.120542
0.056774 -0.013009 -0.059662
0.055642 -0.010801 -0.147397
-0.197918 0.368196 -0.045005
-0.189653 0.350044 -0.044801
-0.196326 0.365431 -0.048815
-0.198020 0.367775 -0.020326
-0.194788 0.360968 -0.087983
-0.198281 0.365952 -0.039187
-0.201685 0.374459 -0.086736
-0.196792 0.367224 -0.060487
-0.197855 0.367549 -0.097531
-0.194322 0.359774 -0.061126
-0.210348 0.374725 -0.066847
-0.192687 0.361196 -0.048807
-0.187789 0.348556 -0.068827
-0.192118 0.357305 -0.054014
-0.204207 0.375158 -0.009870
-0.201717 0.373671 -0.047506
-0.189694 0.350885 -0.073931
-0.200330 0.371775 -0.055731
-0.209852 0.379865 -0.026949
-0.197506 0.360513 -0.051412
-0.192768 0.362153 -0.057220
-0.194116 0.361849 -0.073532
-0.193406 0.359101 -0.030714
-0.202656 0.374150 -0.068100
-0.192797 0.354542 -0.014568
-0.200340 0.368851 -0.083417
-0.202981 0.374974 -0.036921
-0.211411 0.381872 -0.055493
-0.186555 0.343551 -0.054382
-0.207569 0.379180 -0.074382
-0.197174 0.365763 -0.031553
-0.191854 0.358235 -0.074139
0.238826 -0.020338 0.088967
0.239049 -0.044717 0.100224
0.239734 -0.024044 0.086297
0.239589 -0.024985 0.128058
0.239412 -0.035798 0.026657
0.240262 -0.031797 0.100440
0.238421 -0.015312 0.034476
0.240070 -0.023169 0.073602
0.239536 -0.020876 0.014701
0.239696 -0.034655 0.069056
0.240660 -0.019947 0.060460
0.239571 -0.033374 0.088702
0.240015 -0.046391 0.058768
0.240058 -0.031570 0.087823
0.238057 -0.015873 0.134376
0.238866 -0.016944 0.096745
0.238520 -0.039050 0.045009
0.237900 -0.013484 0.084810
0.238015 -0.009016 0.111873
0.239195 -0.042162 0.082608
0.240055 -0.027900 0.083353
0.238673 -0.026920 0.050497
0.239189 -0.032851 0.113835
0.238114 -0.009537 0.066372
0.238822 -0.036541 0.130065
0.240536 -0.024816 0.035540
0.238675 -0.016745 0.104393
0.237551 -0.007219 0.081897
0.237457 -0.048914 0.080108
0.237975 -0.009396 0.049774
0.238362 -0.020225 0.115610
0.239989 -0.034552 0.058835
-0.148161 0.180775 -0.111487
-0.144546 0.145239 -0.090216
-0.147537 0.168957 -0.103955
-0.146693 0.169499 -0.082773
-0.146704 0.156787 -0.122667
-0.145997 0.160914 -0.094776
-0.149621 0.184000 -0.119498
-0.147228 0.173736 -0.107811
-0.149050 0.176706 -0.126217
-0.145561 0.152225 -0.099699
-0.146853 0.174141 -0.116707
-0.146347 0.167127 -0.109445
-0.144530 0.147103 -0.116024
-0.146970 0.165793 -0.098703
-0.148379 0.182078 -0.081039
-0.147730 0.176371 -0.099961
-0.146812 0.155798 -0.111092
-0.149635 0.184949 -0.100156
-0.148716 0.191500 -0.090905
-0.145041 0.151863 -0.093212
-0.146545 0.171890 -0.091943
-0.147217 0.163860 -0.115540
-0.146603 0.163954 -0.087988
-0.148543 0.186450 -0.107374
-0.146137 0.157895 -0.081743
-0.146910 0.168097 -0.122433
-0.148163 0.181372 -0.093733
-0.149845 0.196104 -0.099873
-0.144955 0.143641 -0.105303
-0.149785 0.193174 -0.113507
-0.148950 0.177177 -0.086784
-0.145545 0.160309 -0.105479
0.231723 0.006121 0.107517
0.237872 -0.011182 0.098832
0.231727 0.007287 0.093120
0.231725 0.007542 0.128987
0.235452 -0.003222 0.033098
0.233241 0.004181 0.103621
0.225186 0.013349 0.037530
0.232516 0.006555 0.079766
0.229403 0.007649 0.020970
0.232910 0.003965 0.071120
0.229466 0.012822 0.070489
0.236886 -0.005012 0.104202
0.239581 -0.014710 0.070319
0.234498 -0.002879 0.088958
0.226967 0.012291 0.136703
0.226212 0.014860 0.098015
0.236717 -0.010455 0.052543
0.226464 0.011288 0.086820
0.223579 0.016397 0.116937
0.236229 -0.005321 0.084327
0.235186 -0.000576 0.075131
0.232182 0.002976 0.060910
0.235054 -0.002253 0.117113
0.224826 0.015261 0.069640
0.235422 -0.007098 0.133803
0.232190 0.009357 0.044255
0.226864 0.012133 0.108792
0.220282 0.017539 0.083128
0.238750 -0.018264 0.091098
0.222216 0.015778 0.055773
0.229399 0.005991 0.115218
0.234653 -0.001053 0.053482
-0.148093 0.074849 -0.159567
-0.148851 0.034232 -0.136921
-0.148735 0.060937 -0.150826
-0.147947 0.060808 -0.125446
-0.149602 0.047341 -0.173974
-0.148075 0.051351 -0.140793
-0.148289 0.077378 -0.170097
-0.148042 0.066368 -0.156534
-0.148906 0.069553 -0.178439
-0.148459 0.042063 -0.148289
-0.146827 0.066997 -0.166592
-0.148056 0.058303 -0.157541
-0.148263 0.036068 -0.166699
-0.148487 0.057561 -0.145422
-0.148333 0.076434 -0.123182
-0.148284 0.069920 -0.146705
-0.150050 0.046317 -0.162905
-0.148965 0.081025 -0.146673
-0.147228 0.087474 -0.135184
-0.148073 0.042105 -0.140319
-0.147597 0.063924 -0.137687
-0.148921 0.055855 -0.166842
-0.148890 0.055195 -0.132021
-0.147204 0.081586 -0.155842
-0.148876 0.047547 -0.124601
-0.147554 0.059259 -0.174649
-0.147874 0.074709 -0.138560
-0.147508 0.093062 -0.147983
-0.149995 0.031666 -0.154750
-0.147816 0.090199 -0.163207
-0.149212 0.069508 -0.129981
-0.147593 0.050650 -0.154818
-0.177365 0.319436 -0.071667
-0.169206 0.291771 -0.049979
-0.174444 0.309008 -0.064437
-0.173924 0.309922 -0.043815
-0.172450 0.300528 -0.081623
-0.172385 0.303413 -0.054869
-0.178958 0.321213 -0.079162
-0.174930 0.313351 -0.067643
-0.176639 0.314643 -0.085034
-0.170466 0.294588 -0.059606
-0.174334 0.313254 -0.075851
-0.173510 0.309680 -0.069504
-0.169153 0.293268 -0.075473
-0.173621 0.307405 -0.059482
-0.176909 0.317871 -0.040005
-0.175857 0.314712 -0.059737
-0.171820 0.299329 -0.070499
-0.177981 0.319879 -0.061507
-0.178650 0.325961 -0.049827
-0.170318 0.296813 -0.053513
-0.173834 0.312078 -0.052980
-0.173426 0.304696 -0.074957
-0.173243 0.306305 -0.048742
-0.178101 0.323144 -0.067449
-0.172229 0.301706 -0.041519
-0.174287 0.309286 -0.080597
-0.177532 0.321311 -0.053604
-0.180061 0.329517 -0.059679
-0.168493 0.290219 -0.065456
-0.179658 0.327346 -0.072972
-0.176872 0.315754 -0.047970
-0.171005 0.302107 -0.065197
-0.197307 0.041402 -0.146793
-0.181898 0.029583 -0.172425
-0.169891 0.081836 -0.175178
-0.176723 0.071379 -0.148041
-0.204399 0.037340 -0.184472
-0.208837 0.063726 -0.160886
-0.166638 0.121340 -0.187270
-0.190013 0.056977 -0.175515
-0.174706 0.082636 -0.186602
-0.170602 0.106348 -0.181450
-0.229141 0.103225 -0.170021
-0.205669 0.012980 -0.159389
-0.186669 0.012021 -0.180241
-0.166720 0.036010 -0.179283
-0.187152 0.133867 -0.141832
-0.184036 0.122374 -0.171610
-0.165659 0.022953 -0.185404
-0.168891 0.149977 -0.179372
-0.216718 0.149444 -0.155862
-0.226581 0.029457 -0.169267
-0.169613 0.043142 -0.181486
-0.169714 0.068679 -0.183798
-0.165866 0.058554 -0.164925
-0.187929 0.101062 -0.180873
-0.173158 0.028870 -0.143257
-0.215063 0.076881 -0.180085
-0.197749 0.095323 -0.159252
-0.197719 0.175384 -0.174663
-0.176942 -0.000047 -0.172772
-0.198334 0.139019 -0.184728
-0.168925 0.106190 -0.158289
-0.163800 0.055266 -0.188666
-0.155820 0.233820 -0.093571
-0.150312 0.199595 -0.075395
-0.154525 0.223813 -0.088284
-0.153701 0.224406 -0.067531
-0.153291 0.211735 -0.106274
-0.152637 0.216423 -0.079641
-0.157965 0.238608 -0.103425
-0.154530 0.227306 -0.092280
-0.156888 0.230828 -0.109063
-0.152228 0.208249 -0.085289
-0.154343 0.229095 -0.100553
-0.153021 0.220595 -0.092185
-0.150407 0.201253 -0.099904
-0.153935 0.219222 -0.083927
-0.156140 0.237064 -0.064920
-0.155410 0.231607 -0.084697
-0.152956 0.210030 -0.095660
-0.157871 0.239291 -0.085435
-0.157250 0.246173 -0.075545
-0.151021 0.206668 -0.079347
-0.153329 0.225368 -0.078185
-0.154189 0.218657 -0.099600
-0.153049 0.218541 -0.072837
-0.156883 0.240149 -0.092538
-0.152334 0.212246 -0.065690
-0.154350 0.222995 -0.105627
-0.156080 0.235854 -0.078385
-0.158853 0.250849 -0.084962
-0.150353 0.197278 -0.089401
-0.158545 0.247224 -0.097872
-0.156608 0.231955 -0.071545
-0.152428 0.214670 -0.091132
0.058344 -0.381066 -0.203173
0.088353 -0.382519 -0.201831
0.096817 -0.379791 -0.201360
0.084789 -0.380247 -0.199631
0.037991 -0.381503 -0.205012
0.051197 -0.379517 -0.199901
0.106276 -0.379102 -0.206489
0.066799 -0.381076 -0.201457
0.080914 -0.380927 -0.205850
0.086808 -0.379944 -0.202961
-0.011167 -0.379842 -0.201516
0.045251 -0.384247 -0.201703
0.073574 -0.383583 -0.203095
0.140963 -0.382301 -0.201506
0.067985 -0.379976 -0.202763
0.077557 -0.379020 -0.200901
0.117571 -0.384663 -0.201887
0.119152 -0.381580 -0.202365
0.027885 -0.379586 -0.202037
0.010924 -0.379485 -0.201317
0.093389 -0.380903 -0.203632
0.102701 -0.380096 -0.202521
0.108821 -0.379377 -0.199848
0.068578 -0.379873 -0.202388
0.097497 -0.383362 -0.199774
0.024326 -0.379538 -0.203655
0.059696 -0.379198 -0.200150
0.037114 -0.379599 -0.203474
0.081373 -0.384306 -0.202520
0.060840 -0.379447 -0.204362
0.128963 -0.381779 -0.200619
0.122081 -0.381570 -0.205165
0.128662 0.016766 0.076197
0.182606 0.013513 0.017859
0.189673 0.014055 0.052392
0.180801 0.014575 0.074800
0.100247 0.011979 -0.082288
0.094768 0.014696 0.057475
0.182070 0.015394 -0.069490
0.135366 0.015054 -0.005440
0.166090 0.014501 -0.085937
0.168801 0.012249 -0.000893
0.031429 0.010588 -0.013959
0.121968 0.015018 0.030121
0.152722 0.014507 -0.030441
0.203223 0.011023 0.011826
0.159944 0.013529 0.088854
0.149433 0.015300 0.018375
0.203404 0.014802 -0.035453
0.197224 0.014348 0.033115
0.070214 0.011206 0.080585
0.051549 0.012995 0.026778
0.176287 0.014813 -0.028980
0.191871 0.015513 -0.010022
0.196533 0.015571 0.074792
0.138817 0.013877 -0.058570
0.191942 0.014304 0.094212
0.063049 0.012562 -0.056997
0.149193 0.014885 0.059224
0.090082 0.011746 0.001340
0.165398 0.017494 0.043058
0.107810 0.012719 -0.030986
0.205557 0.012901 0.055121
0.201846 0.013282 -0.057907
0.066968 -0.079147 0.073174
0.168329 -0.084289 0.042847
0.179404 -0.076947 0.059489
0.160047 -0.078112 0.072585
0.025003 -0.086069 0.004347
0.026153 -0.080389 0.062576
0.197641 -0.080407 0.010108
0.089068 -0.080813 0.035827
0.143277 -0.085028 0.000829
0.153609 -0.075776 0.038244
-0.108545 -0.081067 0.035020
0.060133 -0.081722 0.038049
0.122611 -0.082489 0.023067
0.208414 -0.080260 0.040594
0.126899 -0.075068 0.083242
0.125768 -0.078814 0.046676
0.206439 -0.086199 0.022507
0.201196 -0.072536 0.054860
-0.023480 -0.079575 0.077640
-0.061648 -0.082618 0.048918
0.171282 -0.083706 0.021923
0.189577 -0.077097 0.033403
0.204379 -0.078607 0.068324
0.106337 -0.081358 0.006268
0.189055 -0.077647 0.080844
-0.030801 -0.082630 0.022281
0.096142 -0.078294 0.067239
0.006434 -0.078164 0.040695
0.145022 -0.080372 0.051578
0.059757 -0.084854 0.025473
0.213472 -0.075484 0.059978
0.214905 -0.081921 0.016507
0.211952 -0.038272 0.053711
0.236847 -0.040265 -0.028014
0.244855 -0.017831 -0.014466
0.242588 -0.021667 0.058318
0.199831 -0.044226 -0.191279
0.183297 -0.027130 0.000412
0.231742 -0.001643 -0.173000
0.216390 -0.026616 -0.067966
0.230558 -0.020002 -0.214409
0.241016 -0.002540 -0.095904
0.121120 -0.015304 -0.089750
0.210578 -0.052767 0.010009
0.222178 -0.055531 -0.085105
0.230635 -0.034776 -0.046742
0.234859 -0.005077 0.076047
0.230791 -0.002335 -0.021594
0.235344 -0.047268 -0.136684
0.236993 0.001405 -0.034079
0.165830 -0.008981 0.045289
0.147995 -0.048527 -0.044918
0.234764 -0.039836 -0.112430
0.241595 -0.019282 -0.092206
0.241939 -0.036512 0.023926
0.229558 -0.008658 -0.108721
0.236307 -0.051870 0.077609
0.167290 -0.023104 -0.145358
0.228018 -0.015460 0.014725
0.192862 -0.005488 -0.057437
0.224799 -0.054007 -0.006901
0.203053 -0.005840 -0.130071
0.237890 -0.002951 0.032131
0.232693 -0.026171 -0.154813
-0.145075 0.139797 -0.139896
-0.143522 0.104823 -0.116556
-0.145045 0.126878 -0.130659
-0.144241 0.127339 -0.108791
-0.144747 0.115571 -0.150234
-0.143834 0.118908 -0.121287
-0.145834 0.141493 -0.147174
-0.144543 0.132508 -0.134754
-0.145788 0.134608 -0.154715
-0.143651 0.109811 -0.126031
-0.144176 0.131873 -0.144023
-0.144161 0.126585 -0.137514
-0.143014 0.106832 -0.143592
-0.144653 0.125062 -0.125267
-0.145357 0.139085 -0.106876
-0.144839 0.133842 -0.126450
-0.144999 0.115192 -0.138869
-0.146345 0.142546 -0.126657
-0.145218 0.148428 -0.116837
-0.143384 0.111138 -0.119177
-0.144226 0.130735 -0.117776
-0.144913 0.122137 -0.143097
-0.144670 0.122768 -0.114226
-0.144932 0.144513 -0.134078
-0.144430 0.116942 -0.107993
-0.144100 0.126300 -0.150172
-0.145030 0.139591 -0.119985
-0.145733 0.153126 -0.126579
-0.143984 0.103589 -0.133076
-0.145667 0.150844 -0.140731
-0.146109 0.134756 -0.112738
-0.143302 0.118844 -0.131897
-0.239527 0.316126 -0.115998
-0.233626 0.261728 -0.144991
-0.230403 0.339391 -0.148324
-0.235558 0.338716 -0.105374
-0.237354 0.303214 -0.181933
-0.240448 0.329322 -0.136364
-0.227970 0.355479 -0.179280
-0.235571 0.322744 -0.155302
-0.231341 0.346428 -0.185155
-0.229470 0.344043 -0.170790
-0.241058 0.345438 -0.159173
-0.235876 0.231487 -0.119552
-0.229758 0.233275 -0.168017
-0.218980 0.304483 -0.154042
-0.240368 0.354531 -0.103284
-0.237441 0.357550 -0.143334
-0.223904 0.268888 -0.176556
-0.225436 0.360431 -0.153405
-0.243133 0.362393 -0.123313
-0.239426 0.288142 -0.158589
-0.227831 0.310584 -0.167200
-0.227843 0.333163 -0.164374
-0.226975 0.320706 -0.131331
-0.236334 0.353904 -0.165585
-0.230656 0.295497 -0.107884
-0.240869 0.340400 -0.178237
-0.237169 0.348547 -0.128638
-0.240027 0.365862 -0.159598
-0.228838 0.182224 -0.152044
-0.238510 0.364304 -0.170596
-0.223167 0.347545 -0.123878
-0.226496 0.321174 -0.177353
-0.145071 0.109505 -0.153006
-0.145100 0.072599 -0.128164
-0.145592 0.095494 -0.142909
-0.145151 0.095796 -0.119365
-0.145530 0.083943 -0.163294
-0.144908 0.086903 -0.132598
-0.145393 0.110715 -0.160065
-0.144899 0.101711 -0.146972
-0.145674 0.103437 -0.168187
-0.144842 0.077720 -0.138061
-0.144013 0.100808 -0.156551
-0.144666 0.095232 -0.150061
-0.144274 0.074769 -0.156579
-0.145126 0.093879 -0.136819
-0.145984 0.108739 -0.117038
-0.145316 0.102909 -0.138153
-0.146086 0.083539 -0.151664
-0.146359 0.112562 -0.138462
-0.144991 0.118852 -0.127528
-0.144691 0.079504 -0.130192
-0.144951 0.099900 -0.128785
-0.145346 0.090808 -0.156363
-0.145686 0.091382 -0.125433
-0.144652 0.114387 -0.145994
-0.145740 0.085259 -0.118476
-0.144200 0.094887 -0.163728
-0.145222 0.109178 -0.131326
-0.145107 0.123883 -0.138275
-0.145634 0.071129 -0.145878
-0.145200 0.121263 -0.153111
-0.146530 0.103672 -0.123388
-0.144109 0.087109 -0.143741
-0.153113 0.216109 -0.106472
-0.147863 0.181365 -0.086106
-0.151756 0.204611 -0.099915
-0.151100 0.205285 -0.078862
-0.150420 0.193008 -0.117510
-0.149926 0.196950 -0.090401
-0.154800 0.219556 -0.114817
-0.151756 0.209029 -0.103305
-0.153735 0.211938 -0.120514
-0.149311 0.188301 -0.095732
-0.151254 0.209745 -0.111786
-0.150529 0.202843 -0.104429
-0.147758 0.183387 -0.111199
-0.151395 0.201394 -0.094699
-0.153443 0.217625 -0.076412
-0.152503 0.212093 -0.095822
-0.150306 0.191741 -0.106486
-0.154919 0.219895 -0.096421
-0.154370 0.227044 -0.086559
-0.148478 0.188144 -0.089141
-0.150820 0.207268 -0.088337
-0.151233 0.199445 -0.110882
-0.150597 0.200164 -0.084051
-0.153903 0.221557 -0.103191
-0.149960 0.194075 -0.077266
-0.151277 0.203993 -0.117271
-0.153391 0.217372 -0.089537
-0.155747 0.231945 -0.095875
-0.147925 0.179543 -0.100953
-0.155382 0.228353 -0.108924
-0.153943 0.212960 -0.082571
-0.149492 0.195917 -0.101193
-0.159232 -0.000779 -0.149140
-0.156734 -0.010353 -0.154443
-0.155920 0.001908 -0.156467
-0.156679 0.001466 -0.143069
-0.162702 -0.009572 -0.169485
-0.159934 -0.002750 -0.152307
-0.154825 0.015410 -0.169523
-0.157927 -0.000184 -0.160146
-0.157996 0.003814 -0.172347
-0.156660 0.004462 -0.164417
-0.170932 0.005476 -0.162848
-0.161012 -0.007740 -0.152515
-0.158153 -0.015706 -0.163739
-0.152298 -0.005022 -0.158714
-0.159728 0.014239 -0.138061
-0.157376 0.013617 -0.157727
-0.155392 -0.009076 -0.164167
-0.153981 0.022568 -0.159737
-0.161011 0.027855 -0.149590
-0.166795 -0.009304 -0.156539
-0.157348 -0.004501 -0.159810
-0.155245 -0.000474 -0.165385
-0.156383 -0.005428 -0.146970
-0.157766 0.010312 -0.161797
-0.158363 -0.009633 -0.136405
-0.161749 0.000078 -0.168143
-0.158099 0.008897 -0.152030
-0.158393 0.040923 -0.164014
-0.158613 -0.020990 -0.156286
-0.159785 0.023977 -0.167015
-0.155237 0.006156 -0.146466
-0.154953 -0.004592 -0.167472
-0.148959 0.063720 -0.146416
-0.150153 0.030122 -0.143628
-0.149410 0.058036 -0.153428
-0.148995 0.058171 -0.124985
-0.151567 0.040962 -0.174646
-0.148708 0.048332 -0.143123
-0.149213 0.076695 -0.171734
-0.149270 0.057395 -0.159216
-0.149794 0.065312 -0.176267
-0.149984 0.048957 -0.160221
-0.150169 0.064669 -0.165053
-0.149356 0.046177 -0.148449
-0.149523 0.027894 -0.167751
-0.149673 0.048441 -0.150506
-0.149395 0.076315 -0.120352
-0.148532 0.072298 -0.150566
-0.151683 0.037775 -0.168692
-0.150571 0.081753 -0.152294
-0.147904 0.090056 -0.137476
-0.149859 0.034774 -0.150032
-0.148876 0.052020 -0.150116
-0.149631 0.052468 -0.168435
-0.150610 0.047366 -0.134612
-0.147813 0.077643 -0.161528
-0.151232 0.039732 -0.122133
-0.149013 0.056068 -0.174725
-0.149173 0.069313 -0.141142
-0.147800 0.095637 -0.158163
-0.152218 0.022228 -0.154616
-0.148707 0.089210 -0.167499
-0.150619 0.068055 -0.130443
-0.149326 0.044752 -0.164607
-0.185381 0.343198 -0.078525
-0.175398 0.314319 -0.056447
-0.181837 0.333448 -0.071649
-0.181441 0.334193 -0.048182
-0.179246 0.323884 -0.093724
-0.179494 0.327950 -0.061108
-0.187653 0.346869 -0.090785
-0.182446 0.337042 -0.076440
-0.184438 0.339129 -0.098143
-0.177095 0.318564 -0.068399
-0.182376 0.338311 -0.085632
-0.180454 0.332829 -0.076550
-0.175090 0.315391 -0.085199
-0.180180 0.329926 -0.067552
-0.185201 0.343176 -0.043022
-0.184040 0.340094 -0.066675
-0.178466 0.322040 -0.081337
-0.186181 0.345137 -0.070062
-0.187777 0.351673 -0.055487
-0.176812 0.319684 -0.061857
-0.180873 0.335012 -0.060995
-0.180531 0.328707 -0.085221
-0.180326 0.329653 -0.053995
-0.186657 0.348333 -0.077437
-0.178994 0.324552 -0.045288
-0.181755 0.333597 -0.091804
-0.186049 0.346273 -0.059869
-0.189113 0.354969 -0.068044
-0.174320 0.312589 -0.073518
-0.188718 0.353001 -0.083604
-0.184632 0.340510 -0.053788
-0.177618 0.325064 -0.075631
-0.168935 -0.023985 -0.204421
-0.167891 -0.026313 -0.207330
-0.165810 -0.001270 -0.207008
-0.165067 -0.003460 -0.207549
-0.181007 -0.019154 -0.208222
-0.173938 -0.007099 -0.205511
-0.164210 0.036771 -0.208757
-0.168317 -0.013573 -0.206695
-0.167774 0.002992 -0.209820
-0.163238 0.015203 -0.207471
-0.199127 0.016655 -0.205174
-0.176521 -0.029428 -0.205503
-0.169900 -0.033298 -0.208416
-0.165130 -0.020365 -0.206985
-0.167647 0.055475 -0.204210
-0.167205 0.030090 -0.207229
-0.166456 -0.027780 -0.205731
-0.165765 0.082256 -0.205976
-0.185269 0.080248 -0.205609
-0.191315 -0.025826 -0.204729
-0.165566 -0.020073 -0.207777
-0.166238 -0.008439 -0.206708
-0.164075 -0.006663 -0.204842
-0.169174 0.013809 -0.206643
-0.168678 -0.024884 -0.204406
-0.185425 -0.000413 -0.207249
-0.175058 0.010232 -0.207797
-0.167464 0.122740 -0.205876
-0.168875 -0.039648 -0.206942
-0.176139 0.050615 -0.208114
-0.166754 0.018549 -0.205072
-0.165141 -0.012189 -0.207350
-0.146841 0.164637 -0.133085
-0.143592 0.130362 -0.110037
-0.146150 0.152321 -0.124372
-0.145305 0.152936 -0.102814
-0.145524 0.141100 -0.143522
-0.144611 0.144608 -0.114910
-0.148044 0.166792 -0.140561
-0.145892 0.157557 -0.128342
-0.147517 0.159743 -0.147575
-0.144129 0.135639 -0.119684
-0.145675 0.157258 -0.137496
-0.145347 0.151812 -0.130752
-0.143346 0.132343 -0.136876
-0.145751 0.150083 -0.118986
-0.146836 0.164376 -0.100693
-0.146265 0.159217 -0.120136
-0.145576 0.140417 -0.131911
-0.148159 0.167380 -0.120558
-0.147304 0.173453 -0.110740
-0.143809 0.136511 -0.113086
-0.145311 0.155799 -0.111753
-0.145947 0.147405 -0.136210
-0.145421 0.148114 -0.107995
-0.147038 0.169469 -0.127810
-0.144980 0.142426 -0.101654
-0.145527 0.151703 -0.143291
-0.146787 0.164826 -0.113825
-0.148185 0.178038 -0.120241
-0.143896 0.129325 -0.126240
-0.148102 0.175566 -0.134297
-0.147541 0.160234 -0.106748
-0.144132 0.144234 -0.125567
-0.169933 0.293740 -0.092997
-0.162029 0.263487 -0.071784
-0.167420 0.283548 -0.086182
-0.166586 0.284443 -0.065678
-0.165604 0.273644 -0.104517
-0.165354 0.277618 -0.076838
-0.172113 0.297077 -0.102096
-0.167884 0.287457 -0.089657
-0.169991 0.289489 -0.107822
-0.163810 0.268482 -0.081960
-0.167545 0.288540 -0.098425
-0.166026 0.282878 -0.090909
-0.162058 0.265042 -0.097550
-0.166508 0.280673 -0.081234
-0.169661 0.294165 -0.062049
-0.168789 0.290175 -0.081766
-0.164901 0.272131 -0.092692
-0.171359 0.296152 -0.083410
-0.171574 0.303183 -0.072330
-0.163131 0.269435 -0.075938
-0.166503 0.285745 -0.075071
-0.166685 0.278525 -0.097411
-0.166020 0.280069 -0.070630
-0.171084 0.298653 -0.089907
-0.164638 0.274545 -0.063164
-0.167428 0.283291 -0.103403
-0.170309 0.296164 -0.075577
-0.173394 0.307330 -0.082006
-0.161368 0.261777 -0.087312
-0.172789 0.304124 -0.095653
-0.169859 0.290960 -0.069410
-0.164473 0.275402 -0.087825
-0.163607 0.267719 -0.104638
-0.155503 0.235657 -0.082666
-0.161021 0.257347 -0.097385
-0.160108 0.258237 -0.076225
-0.159106 0.246570 -0.116264
-0.158868 0.250864 -0.087658
-0.165875 0.271618 -0.113748
-0.161478 0.261183 -0.101181
-0.163846 0.263595 -0.119554
-0.157392 0.241764 -0.093143
-0.161178 0.262464 -0.110118
-0.159542 0.255831 -0.102424
-0.155545 0.237141 -0.109480
-0.160261 0.253743 -0.092129
-0.163308 0.268945 -0.072804
-0.162457 0.264422 -0.092952
-0.158607 0.245157 -0.104081
-0.165303 0.271085 -0.094476
-0.165383 0.278054 -0.083250
-0.156492 0.242018 -0.086780
-0.160059 0.259587 -0.085745
-0.160247 0.252343 -0.109130
-0.159522 0.253321 -0.081151
-0.164851 0.273238 -0.101233
-0.158199 0.247543 -0.073851
-0.160935 0.256774 -0.115380
-0.164019 0.270166 -0.086512
-0.167352 0.282499 -0.093071
-0.154979 0.233657 -0.098601
-0.166713 0.279163 -0.107274
-0.163618 0.265118 -0.079990
-0.158041 0.248814 -0.098845
0.231637 0.006092 0.083869
0.237450 -0.011835 0.072411
0.231480 0.007538 0.067464
0.231475 0.007833 0.107064
0.235155 -0.003604 -0.001781
0.232869 0.004439 0.078311
0.224581 0.013626 0.003709
0.232307 0.006701 0.051651
0.228901 0.007879 -0.015207
0.232552 0.004227 0.041558
0.229054 0.013231 0.041486
0.236922 -0.005711 0.079851
0.239412 -0.015851 0.040863
0.234447 -0.003189 0.061399
0.226664 0.012302 0.115569
0.225732 0.015232 0.072922
0.236438 -0.011468 0.019704
0.226053 0.011568 0.059879
0.223027 0.016469 0.093541
0.236105 -0.005895 0.055767
0.235040 -0.001156 0.045273
0.231664 0.002857 0.030254
0.234771 -0.002720 0.093513
0.224176 0.015587 0.039927
0.235104 -0.007559 0.111964
0.231924 0.009947 0.011549
0.226701 0.012269 0.084517
0.219634 0.017726 0.055678
0.238337 -0.019344 0.064359
0.221727 0.015948 0.024603
0.229150 0.005834 0.091704
0.234342 -0.001352 0.020837
0.180831 -0.058710 0.099679
0.230170 -0.059590 0.020064
0.238178 -0.047943 0.039694
0.229870 -0.052045 0.096742
0.169610 -0.062071 -0.123447
0.148781 -0.058116 0.058714
0.230296 -0.037687 -0.105423
0.193816 -0.056631 -0.005118
0.222903 -0.049618 -0.147355
0.233811 -0.035494 -0.024103
0.072360 -0.054208 -0.026036
0.175534 -0.061587 0.048902
0.200839 -0.063586 -0.024551
0.222042 -0.049055 0.003321
0.220679 -0.039925 0.115983
0.217286 -0.041432 0.029210
0.229481 -0.052856 -0.069892
0.235520 -0.023194 0.024856
0.130196 -0.046668 0.095532
0.097311 -0.062776 0.024475
0.223628 -0.058055 -0.047656
0.235399 -0.047262 -0.028207
0.233968 -0.054852 0.073154
0.218252 -0.047512 -0.059385
0.224372 -0.060818 0.115798
0.127642 -0.057508 -0.075978
0.211264 -0.051440 0.063271
0.167859 -0.036626 0.004287
0.199821 -0.067114 0.046630
0.183205 -0.045400 -0.062216
0.231727 -0.033089 0.067678
0.230036 -0.048316 -0.090307
-0.156980 -0.030457 -0.184421
-0.122701 -0.029443 -0.193851
-0.093410 -0.010212 -0.193810
-0.114783 -0.018641 -0.189806
-0.168229 -0.028715 -0.189138
-0.159718 -0.023174 -0.189998
-0.052547 -0.003143 -0.189666
-0.149679 -0.026439 -0.192614
-0.127675 -0.020529 -0.188969
-0.115782 0.007232 -0.193575
-0.175769 -0.012030 -0.191886
-0.161747 -0.041385 -0.187683
-0.143281 -0.032647 -0.189135
0.059116 -0.025353 -0.190798
-0.140936 0.005716 -0.188823
-0.131682 -0.011724 -0.191629
-0.030793 -0.029140 -0.188280
-0.012018 0.011329 -0.194832
-0.166070 0.007778 -0.190976
-0.173784 -0.031133 -0.186826
-0.098663 -0.027498 -0.193268
-0.071911 -0.024480 -0.193921
-0.047134 -0.014931 -0.191902
-0.147247 -0.017031 -0.190973
-0.083025 -0.030554 -0.186636
-0.165815 -0.019850 -0.190633
-0.156985 -0.015173 -0.189352
-0.159917 0.020976 -0.192324
-0.125529 -0.038413 -0.190258
-0.152847 -0.001608 -0.194390
0.024609 -0.019618 -0.192292
-0.002786 -0.027892 -0.190961
0.225602 -0.048831 0.083155
0.232817 -0.050655 0.050623
0.236375 -0.043495 0.056808
0.235406 -0.045097 0.092905
0.217214 -0.053874 -0.034908
0.210833 -0.048666 0.071281
0.235975 -0.043751 -0.028191
0.228588 -0.047003 0.030519
0.234970 -0.047056 -0.051956
0.234871 -0.044145 0.021566
0.174993 -0.048126 0.022573
0.221039 -0.050726 0.059356
0.224478 -0.054370 0.017649
0.232408 -0.047462 0.037481
0.232509 -0.044214 0.109272
0.233761 -0.043020 0.053160
0.230045 -0.050848 -0.009560
0.237926 -0.038501 0.049146
0.201106 -0.046086 0.091286
0.186440 -0.053043 0.046018
0.232386 -0.049408 0.016905
0.233877 -0.043998 0.008926
0.234101 -0.048179 0.081103
0.232779 -0.043297 0.009126
0.231677 -0.050261 0.100360
0.202102 -0.049072 -0.014128
