-0.233777 -0.353722 0.213240
-0.205593 -0.382235 0.217385
-0.225151 -0.314385 0.213688
-0.219130 -0.294159 0.211851
-0.169932 -0.371900 0.210242
-0.212075 -0.264379 0.206690
-0.120625 -0.370868 0.208072
-0.204816 -0.227665 0.205187
-0.099176 -0.380035 0.213324
-0.201532 -0.198907 0.212514
-0.073722 -0.379140 0.210895
-0.193640 -0.159645 0.212189
-0.050061 -0.368724 0.209030
-0.187088 -0.138132 0.205240
-0.184618 -0.111035 0.212027
-0.021983 -0.368916 0.207013
-0.182230 -0.092281 0.212232
-0.002762 -0.376644 0.212460
-0.176575 -0.073063 0.211887
0.014872 -0.368846 0.207967
-0.175494 -0.041897 0.213116
0.039644 -0.368929 0.208874
-0.167642 -0.002334 0.212993
0.076434 -0.378925 0.211228
-0.164885 -0.018565 0.191679
0.103119 -0.378029 0.213508
-0.213930 -0.144467 0.080141
-0.217819 -0.101757 0.092712
-0.157768 0.021076 0.191714
-0.164295 -0.018818 0.167183
-0.189938 -0.122532 0.096691
-0.128963 -0.006849 0.185909
-0.157645 0.048847 0.188046
-0.170006 0.055451 0.178874
0.137472 -0.371572 0.210450
-0.137760 -0.062153 0.135049
-0.145965 0.061861 0.184431
-0.110967 -0.015061 0.174755
-0.150086 0.082105 0.187912
-0.151318 0.047614 0.167235
-0.115205 -0.003064 0.171288
-0.160797 0.140933 0.200778
-0.147585 0.066951 0.174738
-0.150016 0.102850 0.188117
-0.089551 -0.001855 0.185380
-0.155384 0.034773 0.148539
-0.149259 0.124226 0.188752
-0.148058 0.160530 0.202550
-0.119554 0.114871 0.200755
-0.115841 -0.016103 0.143699
-0.149501 0.143425 0.189129
-0.059794 -0.002246 0.188096
-0.141930 -0.062345 0.099212
-0.200854 0.226479 0.180963
-0.143728 0.117554 0.167330
-0.153670 0.059072 0.132938
-0.121413 -0.065551 0.100016
-0.156734 0.195713 0.189960
-0.147103 0.074802 0.143525
-0.039754 -0.002493 0.188446
-0.150422 0.056116 0.130810
-0.156347 0.031058 0.114150
-0.144978 0.094572 0.148209
-0.173165 0.162821 0.154227
-0.119881 -0.018350 0.112064
-0.062081 0.050776 0.185443
-0.165806 0.238113 0.189869
-0.172911 0.224388 0.176283
-0.041225 -0.010064 0.167064
-0.145066 0.148504 0.158833
-0.164577 0.259981 0.190272
-0.145085 0.115327 0.139421
-0.155751 0.031751 0.093986
-0.171835 0.282735 0.191188
-0.147466 0.072498 0.114070
-0.151067 0.078471 0.114177
-0.152143 0.216075 0.172797
-0.123699 -0.018064 0.089125
-0.149777 0.197145 0.165624
-0.147342 0.177755 0.158444
-0.186829 0.324193 0.191718
-0.146072 0.093053 0.119915
0.005323 -0.006724 0.187037
-0.194369 0.350774 0.192124
-0.148748 0.061042 0.097183
0.231956 -0.349110 0.186723
-0.173952 0.308899 0.184855
-0.144739 0.113892 0.120742
-0.198708 0.372159 0.192460
-0.105194 -0.030723 0.084565
-0.045941 -0.010191 0.137363
-0.155163 0.031823 0.073019
-0.144982 0.133860 0.125356
-0.164119 0.272543 0.171210
-0.158748 0.251155 0.164466
-0.127111 -0.018538 0.066289
-0.144756 0.152948 0.130151
0.011121 -0.057841 0.148748
0.229306 -0.319394 0.186202
-0.147647 0.175067 0.134596
-0.153038 0.147532 0.118326
-0.152600 0.221370 0.150125
-0.180738 0.332215 0.170970
-0.228722 -0.372721 -0.195295
-0.048482 -0.009756 0.115604
-0.144792 0.111221 0.096246
-0.202461 0.379830 0.170509
-0.166604 0.284599 0.155534
-0.146003 0.091260 0.084810
-0.148573 0.062257 0.066772
-0.161986 0.261941 0.143509
-0.146557 0.163980 0.110530
-0.175331 0.314678 0.154915
0.235061 -0.288403 0.184093
-0.149037 0.192542 0.118744
-0.131878 -0.019430 0.036094
-0.229566 -0.342835 -0.195920
-0.155137 0.032008 0.040982
0.062863 -0.003138 0.185988
-0.203150 0.370543 0.152025
-0.196335 -0.382514 -0.194573
0.026257 0.047572 0.178711
-0.009472 0.040659 0.148678
-0.145106 0.141371 0.091588
-0.188395 0.353059 0.151418
0.231773 -0.259682 0.185505
-0.146980 0.083532 0.062987
-0.139904 0.156146 0.100524
-0.170122 0.295952 0.138356
-0.165578 0.233789 0.114363
-0.156966 0.241026 0.122741
-0.182291 0.332809 0.141932
-0.141432 0.103559 0.071461
-0.051838 -0.009372 0.084376
0.017518 -0.005394 0.136564
-0.153744 0.223609 0.110292
-0.144984 0.120768 0.070636
0.081868 0.007815 0.186404
-0.176264 0.314901 0.131120
-0.156151 0.049528 0.028261
0.054101 0.029805 0.176487
-0.147697 0.183001 0.094187
-0.217294 0.247340 0.068992
-0.208771 0.369903 0.128373
-0.183435 0.226075 0.084601
-0.221732 -0.310139 -0.198338
-0.147752 0.071330 0.041102
-0.162384 0.263721 0.114081
0.234737 -0.228580 0.182549
-0.151055 0.203264 0.093088
-0.170072 0.296268 0.119140
0.075681 -0.002539 0.167410
-0.094065 0.016258 0.049348
-0.145691 0.101342 0.044463
0.107686 0.000842 0.187281
-0.155439 0.231765 0.095063
-0.053721 -0.009603 0.061866
0.015033 -0.005513 0.115485
-0.152463 0.041793 0.009533
-0.191910 0.175163 0.040054
0.234949 -0.200022 0.183071
-0.147706 0.171774 0.069566
0.228396 -0.181206 0.185704
-0.186196 0.342479 0.115030
-0.145927 0.150565 0.059659
-0.214324 0.375120 0.104932
-0.148153 0.073042 0.020021
-0.192413 0.362881 0.113954
-0.215006 -0.290953 -0.207605
-0.141240 -0.019302 -0.020703
-0.145152 0.130258 0.044676
-0.159555 0.252533 0.087257
-0.224253 0.277018 0.046601
-0.175424 0.309909 0.097356
-0.214024 -0.259233 -0.198413
-0.150490 0.201455 0.067443
0.228869 -0.152391 0.186824
0.134541 0.004321 0.189014
-0.164557 0.273188 0.088137
-0.188014 0.215468 0.044100
-0.155643 0.231939 0.074354
-0.145809 0.102338 0.022315
0.074684 -0.002624 0.132834
-0.143923 -0.021900 -0.040119
0.013750 -0.004975 0.084399
-0.154800 0.034053 -0.025054
-0.146085 0.091254 0.004851
-0.172559 0.302285 0.079030
-0.145258 0.141144 0.028027
0.235697 -0.131927 0.183994
-0.181257 0.327163 0.082792
-0.147496 0.170375 0.037358
-0.205715 -0.234726 -0.200138
0.135881 0.028237 0.182217
-0.189608 0.358302 0.086203
-0.164886 0.275032 0.068470
-0.148836 0.065454 -0.013882
-0.149869 0.192536 0.042654
-0.159782 0.259191 0.064635
0.107930 -0.064015 0.117671
0.163636 0.003953 0.187227
-0.111326 -0.375335 -0.199974
0.229959 -0.095155 0.188814
-0.152635 0.144650 0.015199
-0.148065 -0.019695 -0.060261
-0.154388 0.222853 0.044419
-0.220727 0.374511 0.059381
-0.058419 -0.009777 0.009838
-0.145246 0.125558 0.005852
-0.186039 0.344225 0.068958
-0.151770 0.047359 -0.039695
0.129843 0.000636 0.146313
0.182447 0.007837 0.187881
-0.146296 0.157155 0.011590
-0.119623 0.007116 -0.039569
-0.162914 0.263539 0.043322
-0.173260 0.302103 0.051047
-0.198392 -0.209082 -0.207553
0.236365 -0.062041 0.186893
-0.150879 0.200030 0.019315
0.073779 -0.002251 0.094794
-0.148032 0.178388 0.009769
-0.079105 -0.378424 -0.203780
-0.146230 0.096897 -0.028087
-0.183743 0.334556 0.049506
-0.200468 0.272945 0.009427
-0.227288 0.278633 -0.009379
-0.159207 0.246948 0.024743
-0.148768 0.067197 -0.049454
-0.191876 0.208471 -0.020584
-0.150710 0.048199 -0.063835
-0.146738 0.157584 -0.010519
0.230896 -0.096057 0.152679
0.128339 0.000603 0.122228
-0.177534 0.319143 0.036644
-0.145495 0.135988 -0.021860
0.213702 0.016326 0.189239
0.229708 -0.008241 0.188602
-0.191706 -0.159751 -0.200743
-0.171902 0.297308 0.026608
-0.194388 0.368999 0.041345
0.237708 -0.032531 0.179224
-0.054349 -0.377299 -0.203208
0.191842 0.013685 0.166147
-0.145366 0.115260 -0.038400
-0.154785 0.034493 -0.083169
-0.205392 -0.038602 -0.157274
0.177265 0.004230 0.149432
0.075191 -0.001754 0.072484
-0.155807 -0.019379 -0.110643
-0.029985 0.040642 0.011043
-0.148091 0.177289 -0.017516
-0.184809 0.339870 0.026475
0.163283 0.067132 0.162273
-0.158818 0.246433 0.001752
-0.131113 0.013024 -0.083522
-0.151214 0.199407 -0.013884
-0.136290 0.070206 -0.062512
-0.146224 0.085029 -0.064465
-0.166575 0.278905 0.007683
0.238580 -0.052964 0.156901
-0.155669 0.228730 -0.007087
0.227206 -0.088289 0.131629
-0.189440 -0.042009 -0.160232
-0.145778 0.108377 -0.056529
-0.065692 -0.010205 -0.052524
-0.029788 -0.376824 -0.202957
-0.178084 0.320060 0.010113
-0.142170 0.124918 -0.050620
-0.183375 -0.124903 -0.201295
-0.146167 0.148353 -0.044210
0.188867 -0.025097 0.124230
-0.154008 0.216211 -0.021079
0.075148 -0.002093 0.051436
0.237057 -0.001026 0.168824
0.132319 0.000555 0.093095
-0.147424 0.078308 -0.083403
-0.188504 0.268738 -0.027726
0.238005 -0.034119 0.148280
-0.182189 -0.105836 -0.200330
0.049570 0.062643 0.055510
-0.170814 -0.051502 -0.166106
0.215319 0.019164 0.154297
-0.189979 0.359073 0.005569
0.074970 0.029877 0.056701
0.179782 -0.036972 0.102098
0.224464 -0.091015 0.109235
-0.162799 -0.019167 -0.147883
-0.170824 0.293561 -0.012498
-0.150833 0.194906 -0.043015
-0.161954 0.258074 -0.022533
-0.180961 0.326629 -0.008963
-0.142209 0.223192 -0.025649
-0.150513 0.051155 -0.112187
-0.145073 0.109809 -0.081492
-0.144912 0.136379 -0.068572
-0.009450 -0.368121 -0.208698
-0.163492 0.094037 -0.105844
-0.211617 0.324992 -0.037927
-0.146754 0.158914 -0.063472
-0.156882 0.236649 -0.035972
-0.175841 -0.085614 -0.202724
-0.065476 -0.010555 -0.081047
0.237133 -0.002073 0.144880
0.011657 -0.375940 -0.203943
-0.154036 0.030327 -0.135789
-0.199576 0.171007 -0.110727
-0.148703 0.185075 -0.065228
-0.161186 -0.017683 -0.169904
-0.128912 0.149446 -0.067109
0.220508 -0.095717 0.077399
0.213277 0.018963 0.124956
0.208581 -0.011637 0.107166
0.237636 -0.035105 0.116089
0.177488 0.031614 0.103639
0.238218 -0.012516 0.126281
-0.189054 0.351986 -0.027614
-0.177821 0.195733 -0.091079
0.201158 -0.080112 0.064032
0.216886 0.029398 0.125819
-0.152020 0.208484 -0.067390
-0.172025 0.297267 -0.042627
0.010897 -0.004082 -0.041874
-0.156940 0.237563 -0.058923
0.033994 -0.375327 -0.203937
-0.142759 -0.054666 -0.184344
-0.145875 0.083665 -0.121886
-0.145512 0.155016 -0.088315
-0.143242 -0.050790 -0.183959
-0.177791 0.318621 -0.040036
-0.210618 0.282734 -0.081502
-0.145408 0.133986 -0.099734
-0.161940 0.257899 -0.056745
0.238993 -0.053391 0.097022
-0.173284 0.240413 -0.076754
-0.167683 -0.056617 -0.211981
-0.068353 -0.013014 -0.115798
-0.167838 -0.035988 -0.203941
-0.168897 0.285222 -0.056041
-0.184846 0.338486 -0.046454
-0.153637 0.033870 -0.161860
-0.184679 0.267021 -0.079213
-0.143804 0.111880 -0.120053
-0.011782 0.053105 -0.047942
-0.191925 0.361579 -0.046196
0.237939 -0.022854 0.096850
-0.146932 0.170206 -0.101224
0.230582 0.009365 0.104855
-0.146870 0.071915 -0.148683
-0.174228 0.307375 -0.061498
-0.159361 0.023990 -0.182426
-0.153655 0.220133 -0.087328
0.065146 -0.378474 -0.206118
0.207532 0.023443 0.091070
0.217194 -0.083549 0.048234
0.194494 -0.026846 0.056092
-0.144364 0.132415 -0.125130
-0.211031 0.253275 -0.120679
-0.144503 0.104304 -0.138995
-0.150732 0.203579 -0.098490
-0.144330 0.021617 -0.179589
-0.145229 0.063290 -0.160593
-0.181263 0.328495 -0.067349
-0.159958 -0.018381 -0.211725
-0.145387 0.154762 -0.119324
-0.166597 0.279703 -0.080597
-0.160016 0.253135 -0.093051
0.230162 0.009226 0.085928
0.209069 -0.022616 0.056517
-0.134867 -0.016238 -0.200521
0.238839 -0.043493 0.066450
0.216528 -0.096057 0.025976
-0.083045 -0.114314 -0.207763
0.209718 -0.017922 0.056393
-0.218042 0.376557 -0.085872
-0.171983 0.300631 -0.085293
0.029233 0.066944 -0.039230
-0.147888 0.181241 -0.121467
-0.147791 0.062255 -0.177782
0.238081 -0.012276 0.076530
-0.144331 0.094550 -0.160930
-0.192129 0.363316 -0.077663
0.089484 -0.368031 -0.208169
-0.155258 0.232640 -0.109059
-0.181145 0.257507 -0.117895
-0.178795 0.322852 -0.090561
-0.143870 0.143818 -0.146672
0.218734 0.019201 0.065173
-0.143929 0.123171 -0.159624
-0.186253 0.343262 -0.097242
0.121672 -0.378441 -0.207337
0.237869 -0.051433 0.036729
0.223427 -0.005807 0.046890
-0.008879 0.045953 -0.101460
0.215565 -0.094011 -0.002527
-0.152888 0.220609 -0.133378
-0.143254 0.098456 -0.182066
-0.156275 0.204930 -0.143735
-0.147604 0.182542 -0.148705
-0.173346 0.306941 -0.112223
-0.155928 0.188180 -0.154710
0.237923 -0.015120 0.044740
-0.132306 0.044773 -0.206549
-0.135171 0.134598 -0.166466
-0.165599 0.277142 -0.124945
-0.117987 0.020681 -0.208375
-0.210584 0.371805 -0.119127
0.141553 -0.377071 -0.205419
0.225929 0.016699 0.044463
-0.158737 0.249288 -0.137971
-0.142899 0.122888 -0.187140
-0.177177 0.319269 -0.127991
-0.173830 0.221587 -0.171140
-0.145420 0.214297 -0.153544
-0.119091 0.053400 -0.210393
0.148020 0.018304 -0.025498
-0.143566 0.144572 -0.188322
-0.134790 0.130620 -0.188754
-0.190599 0.358977 -0.128267
-0.153188 0.224315 -0.160636
-0.028000 -0.107113 -0.221141
-0.163500 0.271422 -0.149390
-0.108357 0.095311 -0.189759
0.173627 -0.377704 -0.204748
0.229656 0.010556 0.022279
0.237770 -0.023433 0.012519
-0.141999 0.160636 -0.186877
-0.133400 0.126626 -0.196204
-0.168779 0.291440 -0.147819
-0.145277 0.161040 -0.190134
-0.204947 0.369335 -0.140770
-0.147424 0.192170 -0.177851
0.238212 -0.052306 -0.004157
0.217047 -0.089332 -0.036473
-0.110636 0.096309 -0.198480
-0.180297 0.330928 -0.146061
-0.001594 0.037824 -0.145235
-0.158934 0.255622 -0.167152
-0.152683 0.214456 -0.181883
-0.146281 0.191251 -0.189798
-0.142273 0.235979 -0.165830
0.187361 -0.008931 -0.032589
0.204068 -0.381487 -0.200938
0.216425 0.060699 0.020138
-0.174107 0.314028 -0.160904
-0.150079 0.214123 -0.188842
0.230491 -0.359315 -0.174530
0.218709 -0.094431 -0.057797
0.238123 -0.034938 -0.016652
0.213905 0.020916 -0.010113
0.217926 0.021002 -0.009071
0.238372 -0.012714 -0.015295
-0.185870 0.353425 -0.165980
-0.202834 0.378430 -0.168851
0.233521 -0.332046 -0.175228
-0.167436 0.292686 -0.183885
0.238175 -0.053831 -0.038252
0.087231 0.049881 -0.105123
0.229455 -0.311387 -0.177207
0.227396 -0.367582 -0.207727
0.229931 0.012294 -0.023534
-0.177883 0.328960 -0.188010
0.178664 -0.028570 -0.084082
0.020744 -0.087587 -0.233887
0.070242 -0.146020 -0.226581
0.136691 -0.226379 -0.218544
0.221448 -0.086925 -0.091591
0.236756 -0.291548 -0.181708
0.237465 -0.027800 -0.057125
0.224832 0.015361 -0.046026
0.029352 0.026470 -0.186489
0.228601 -0.261695 -0.178010
0.239052 -0.051088 -0.075657
0.210826 -0.014071 -0.086521
0.236748 -0.242769 -0.181610
0.233606 -0.224337 -0.177798
0.181378 -0.211820 -0.212588
0.215927 0.019545 -0.082531
0.237753 -0.021293 -0.088101
0.227075 -0.091934 -0.130753
0.236102 -0.202677 -0.180976
0.051017 0.112116 -0.178320
0.238896 -0.044065 -0.113798
0.204461 -0.127086 -0.184316
0.229820 0.010448 -0.101492
0.237030 -0.167177 -0.180918
0.229494 -0.149233 -0.177205
0.230271 -0.093674 -0.151792
0.204679 -0.100590 -0.176299
0.205632 -0.046549 -0.150599
0.179883 0.058049 -0.120960
0.190824 -0.061074 -0.169315
0.238239 -0.010246 -0.114374
0.214199 0.021299 -0.123071
0.238587 -0.052434 -0.140244
0.229388 -0.108328 -0.180176
0.237769 -0.126267 -0.182977
0.213166 0.020937 -0.144749
0.237022 -0.002191 -0.138868
0.238416 -0.048464 -0.160921
0.215448 -0.116927 -0.211160
0.236995 -0.085733 -0.182105
0.238014 -0.017515 -0.162152
0.238557 -0.044633 -0.184678
0.172388 0.029793 -0.200617
0.207535 -0.026861 -0.203613
0.211229 -0.030869 -0.204147
0.223005 0.019566 -0.173805
0.230857 0.006281 -0.174470
0.208833 0.003100 -0.198655
0.208558 -0.024517 -0.212447
0.224890 -0.022904 -0.205336
