-0.319529 -0.105659 0.168773
-0.306617 -0.209048 0.119127
-0.294845 -0.189558 0.121093
-0.285944 -0.032328 0.154821
-0.272770 -0.193174 0.087760
-0.237526 -0.014859 0.194310
-0.297530 -0.146683 0.084816
-0.311073 0.035587 0.152322
-0.183096 -0.098176 0.187654
-0.294662 -0.009107 0.135836
-0.349739 -0.056945 0.069589
-0.248584 -0.130319 0.111273
-0.262297 0.062076 0.186190
-0.148023 -0.110742 0.191186
-0.273832 0.061119 0.171589
-0.246685 0.025711 0.173581
-0.309752 0.106600 0.161183
-0.205050 -0.166993 0.113585
-0.293567 0.080088 0.156567
-0.282361 0.109940 0.175318
-0.260380 0.102602 0.184030
-0.288435 -0.096099 0.066619
-0.291004 0.073061 0.135945
-0.345332 0.152270 0.128167
-0.285003 0.099337 0.148835
-0.320498 0.121914 0.124647
-0.247865 0.051888 0.148494
-0.109650 -0.192512 0.139390
-0.082586 -0.221810 0.146164
-0.313777 -0.001375 0.064255
-0.333386 -0.230753 -0.061699
-0.266235 0.142149 0.163494
-0.250270 0.034039 0.126422
-0.284633 0.193999 0.163093
-0.285469 0.024724 0.086812
-0.224247 -0.021312 0.112159
-0.329518 -0.192662 -0.051978
-0.315317 0.043874 0.070015
-0.281868 0.108824 0.124334
-0.247673 -0.095291 0.057336
-0.291611 0.074897 0.099951
-0.139846 -0.031778 0.166026
-0.297413 -0.251608 -0.061687
-0.132434 -0.180848 0.099403
-0.279062 0.144144 0.133809
-0.124376 -0.182866 0.099005
-0.244585 -0.235489 -0.019204
-0.156806 -0.041856 0.137764
-0.251692 0.190451 0.168757
-0.252283 0.037730 0.099395
-0.060377 -0.172283 0.149034
-0.325060 -0.012857 0.017596
-0.284008 0.099882 0.100331
-0.264729 0.060442 0.096261
-0.335345 0.261502 0.131061
-0.282728 -0.180275 -0.031373
-0.286649 0.207202 0.142341
-0.309198 -0.231700 -0.078604
-0.266055 0.190975 0.148007
-0.301683 0.192142 0.120542
-0.281901 0.182294 0.128002
-0.309963 -0.209721 -0.075043
-0.299501 -0.189131 -0.058365
-0.292345 0.075654 0.067822
-0.256147 -0.221649 -0.047929
-0.317366 0.106630 0.056642
-0.112867 -0.086450 0.125695
-0.281194 0.163717 0.106587
-0.193264 -0.227301 -0.007298
-0.258762 0.044079 0.067520
-0.281836 0.109720 0.078135
-0.253298 -0.177505 -0.035498
-0.341443 0.142710 0.043706
-0.226076 -0.003677 0.065078
-0.226993 -0.212514 -0.034398
-0.278010 -0.019854 0.015778
-0.310778 0.164706 0.068722
-0.269809 0.046921 0.046647
-0.304230 0.220687 0.096759
-0.352901 0.205238 0.051031
-0.223216 -0.100684 0.010763
-0.205917 -0.078599 0.033060
-0.277744 0.137510 0.075746
-0.042304 -0.002889 0.190972
-0.285335 0.091354 0.049160
-0.333976 0.202440 0.060479
-0.203967 -0.190691 -0.023156
-0.230152 -0.094041 0.000351
-0.278692 0.064732 0.034800
-0.349349 0.233640 0.055223
0.028475 -0.196762 0.147014
-0.200527 -0.091785 0.020679
-0.333057 0.050477 -0.017774
-0.282722 0.104947 0.043903
-0.337007 0.285356 0.076736
-0.309092 0.213688 0.065447
-0.291527 0.074334 0.015818
-0.244345 0.023896 0.028529
-0.294658 -0.052568 -0.046612
-0.332417 0.011470 -0.048857
-0.187195 -0.166541 -0.021354
0.018516 -0.111520 0.157360
-0.032168 -0.014788 0.163745
-0.284794 0.100271 0.023394
-0.249517 -0.066514 -0.027809
0.026721 -0.032006 0.195991
-0.110101 -0.237209 -0.003688
-0.341430 0.254845 0.044364
-0.019851 -0.029156 0.160295
-0.278776 0.130909 0.035751
-0.125333 -0.169311 0.014864
-0.191247 -0.181253 -0.043334
-0.291984 0.222710 0.064049
-0.128576 -0.223149 -0.015720
-0.171463 -0.018188 0.047047
-0.150210 -0.174807 -0.012833
-0.187625 -0.219655 -0.064974
-0.325233 0.100177 -0.022480
-0.250929 0.035200 0.004191
-0.310544 -0.031574 -0.074342
-0.291522 0.074564 -0.011686
0.057789 -0.149531 0.149734
-0.286918 0.198731 0.046275
0.011105 -0.030773 0.167280
-0.268370 0.035597 -0.014232
-0.294022 0.025841 -0.042538
0.036946 -0.012904 0.191194
-0.145985 -0.075423 0.024938
-0.130487 -0.176219 -0.011848
-0.119295 -0.201552 -0.017474
-0.281206 0.169606 0.029313
-0.318982 -0.012034 -0.084632
-0.242708 0.019179 -0.010632
-0.274220 -0.009265 -0.050711
0.081359 -0.251058 0.106414
-0.030744 -0.010650 0.133272
-0.059085 -0.103497 0.068020
-0.095935 -0.175853 0.005299
-0.337237 0.031978 -0.086720
-0.070699 -0.240845 -0.008826
-0.227832 0.038342 0.001085
-0.356714 0.088330 -0.078022
-0.146822 -0.181260 -0.040679
-0.047841 -0.254225 -0.003596
-0.253018 0.038149 -0.026273
0.072927 -0.013751 0.195360
-0.291707 0.220708 0.026257
-0.087865 -0.104759 0.033911
-0.004853 -0.156186 0.071335
-0.279099 0.136573 -0.003878
-0.284177 -0.094129 -0.115778
0.077425 -0.205487 0.107797
0.111625 -0.102127 0.180988
-0.211101 -0.068959 -0.047641
-0.241136 -0.030277 -0.052628
-0.168572 -0.174570 -0.065161
-0.339469 0.053231 -0.092480
-0.312212 0.212408 0.000848
-0.271553 0.105545 -0.017480
-0.094636 -0.190540 -0.019198
-0.280266 0.118861 -0.019489
0.029335 -0.094616 0.117902
-0.181602 -0.203911 -0.094456
-0.180010 -0.230069 -0.107220
0.112043 -0.255426 0.102112
-0.313592 0.234620 0.003504
-0.077540 -0.215080 -0.022843
-0.284455 0.096312 -0.038243
-0.294482 -0.059108 -0.121095
-0.282361 0.180937 -0.001278
-0.243601 0.015055 -0.051212
-0.224631 0.008585 -0.039644
-0.302847 -0.034841 -0.122319
0.091162 -0.229900 0.087527
0.080088 -0.040277 0.165988
0.036032 -0.144530 0.086171
-0.070927 -0.009712 0.065847
-0.312196 -0.009382 -0.123409
-0.035097 -0.252763 -0.026015
-0.280218 0.168624 -0.019983
-0.292351 0.215550 -0.008933
-0.282503 -0.086480 -0.142060
-0.147462 -0.181478 -0.081042
-0.319898 0.012498 -0.124757
-0.250176 -0.157538 -0.152389
0.101324 -0.026117 0.174954
-0.037400 -0.190781 -0.005512
-0.329056 0.036052 -0.125965
-0.050757 -0.045762 0.051708
-0.176469 -0.202291 -0.120038
0.106325 -0.191902 0.099604
-0.217354 -0.157185 -0.133848
-0.280061 0.118318 -0.054277
-0.266680 -0.102275 -0.147997
-0.209259 0.054602 -0.029288
-0.284370 0.097587 -0.068868
-0.249590 0.032516 -0.071585
-0.033446 -0.094552 0.034494
-0.054093 -0.117183 0.008210
-0.159121 -0.183084 -0.104679
-0.313799 0.167866 -0.061169
-0.177955 -0.232307 -0.144098
-0.347949 0.082606 -0.129765
-0.040911 -0.215975 -0.031847
-0.335953 0.058702 -0.132238
-0.285854 0.174902 -0.040100
-0.291972 0.078171 -0.089184
0.108241 -0.220433 0.074136
0.105279 0.009514 0.177321
-0.139601 -0.195729 -0.102707
-0.309507 -0.004648 -0.146836
-0.012852 -0.194909 -0.006753
-0.280854 0.142504 -0.058698
-0.008464 -0.222657 -0.019393
-0.151945 -0.255805 -0.146134
-0.350275 0.106770 -0.130953
-0.021272 -0.233534 -0.036040
-0.259533 -0.119100 -0.166847
0.082234 -0.033860 0.131428
-0.291806 -0.035918 -0.156638
-0.322583 0.263914 -0.042218
-0.323322 0.209012 -0.068424
0.128395 -0.239954 0.066754
-0.251063 0.035323 -0.093134
-0.292904 0.219400 -0.042188
-0.273042 0.059796 -0.100375
0.104531 -0.024726 0.146201
0.015901 -0.060593 0.064168
0.072616 0.026902 0.145282
-0.141528 -0.047648 -0.050999
-0.285681 0.098774 -0.096780
-0.293190 0.080987 -0.112089
0.127609 -0.120433 0.110865
0.126869 -0.185027 0.080838
0.043478 -0.010093 0.100032
-0.359498 0.176256 -0.124471
-0.128608 -0.242744 -0.142439
-0.165119 -0.205353 -0.153816
-0.224513 -0.134995 -0.167665
-0.257347 -0.085596 -0.169742
-0.331274 0.066575 -0.157034
-0.291071 -0.016115 -0.164756
-0.265287 -0.067022 -0.168464
-0.155005 -0.227569 -0.158908
-0.202198 -0.145326 -0.156841
0.177096 -0.020956 0.185681
0.158127 -0.013116 0.174739
0.120011 0.028257 0.165387
-0.239130 -0.113018 -0.173340
-0.361794 0.197479 -0.124484
0.125111 -0.205932 0.059329
-0.279588 0.120525 -0.096922
-0.341985 0.107993 -0.153558
-0.161585 -0.146975 -0.133762
0.211276 -0.070592 0.180819
-0.242619 0.021152 -0.118637
-0.350417 0.148221 -0.144774
-0.132160 -0.202145 -0.138984
-0.306996 0.032276 -0.165468
-0.365349 0.223996 -0.124525
0.133130 -0.224722 0.046900
-0.124334 -0.041394 -0.061698
0.137330 -0.015536 0.144370
-0.291807 0.079649 -0.138980
-0.255743 0.041137 -0.129352
-0.284842 0.097469 -0.125862
-0.175334 -0.141359 -0.156214
0.027058 0.024036 0.075321
-0.270558 -0.015690 -0.172020
-0.287693 0.199708 -0.087667
0.097740 -0.027746 0.100697
-0.077654 -0.080226 -0.055473
-0.233809 -0.070519 -0.174607
0.147227 -0.178548 0.064189
-0.279455 0.148820 -0.108240
0.117155 -0.019187 0.114325
-0.315237 0.075029 -0.171827
-0.300331 0.051724 -0.171437
-0.250612 -0.036679 -0.174144
-0.280134 0.119158 -0.126029
-0.188295 -0.123574 -0.169130
-0.213236 -0.092786 -0.175301
-0.241341 0.018854 -0.145185
-0.281475 0.173125 -0.107754
-0.275590 0.023974 -0.174354
0.051350 -0.022910 0.054627
-0.063278 -0.012830 -0.027174
-0.118665 0.046939 -0.042751
-0.017595 0.019654 0.020947
-0.287315 0.072636 -0.163171
0.079461 -0.035039 0.065458
-0.360291 0.247181 -0.146028
-0.323043 0.123315 -0.173556
-0.264727 0.045867 -0.166584
-0.305264 0.094381 -0.177364
-0.238893 0.004716 -0.167491
-0.342528 0.190615 -0.163903
0.106733 0.002692 0.092339
0.022992 0.034999 0.045199
0.142956 -0.014877 0.110213
0.123106 -0.101739 0.055600
-0.211151 -0.051385 -0.175738
-0.193554 -0.077852 -0.175565
-0.174057 -0.102916 -0.172551
-0.020408 -0.009264 -0.009957
-0.284558 0.105839 -0.161260
-0.131829 -0.133122 -0.155627
0.155432 -0.202222 0.027632
0.173237 -0.010080 0.129314
-0.282350 0.181024 -0.128994
-0.150274 -0.119249 -0.168289
0.158334 -0.178295 0.036100
0.100666 -0.026737 0.063792
0.189403 -0.178746 0.056835
-0.091456 -0.134074 -0.135583
0.144740 0.050863 0.127159
0.120950 -0.018897 0.077524
-0.325749 0.176485 -0.174509
-0.279523 0.136390 -0.160265
-0.306108 0.146927 -0.177026
-0.188486 -0.045380 -0.176196
0.030736 -0.073870 -0.024640
-0.103864 0.042995 -0.072793
-0.104534 -0.128813 -0.156155
0.070171 -0.041021 0.017162
-0.168444 -0.063878 -0.175757
-0.025613 -0.057582 -0.063875
0.076479 -0.096438 -0.007473
-0.132306 -0.104028 -0.170615
0.072745 0.010339 0.038762
0.102665 -0.025868 0.041230
-0.147807 -0.080157 -0.175187
-0.284958 0.174471 -0.165784
0.170179 -0.180999 0.015319
0.209110 -0.009636 0.120990
-0.191135 -0.022976 -0.186615
-0.306060 0.191927 -0.176092
0.122562 -0.017610 0.054004
-0.288623 0.197422 -0.160162
0.236915 -0.011552 0.138771
0.256392 -0.176763 0.074492
-0.319991 0.255811 -0.161903
0.148347 -0.013516 0.066699
-0.313110 0.223026 -0.176483
0.297090 -0.189298 0.091361
0.321640 -0.195023 0.104840
0.067175 -0.043737 -0.009927
-0.154252 -0.036477 -0.176326
0.232461 -0.010350 0.120826
-0.229000 -0.000634 -0.223104
-0.065305 -0.122511 -0.154381
-0.222058 0.021594 -0.208628
0.104223 -0.025225 0.018761
-0.094367 -0.102658 -0.170250
0.082108 -0.042198 -0.007999
0.078641 -0.245532 -0.108402
0.155437 -0.022666 0.053769
0.284984 -0.186199 0.071249
-0.031368 -0.122616 -0.133993
0.165394 -0.175634 -0.011448
0.105032 0.047484 0.047019
0.076890 -0.221823 -0.103426
0.150589 -0.177871 -0.031164
0.057825 -0.123481 -0.076437
-0.109909 -0.062095 -0.176227
0.263431 -0.178324 0.048731
-0.131431 -0.023354 -0.175960
0.065348 -0.044772 -0.036198
-0.199180 0.022257 -0.209369
-0.043322 -0.116931 -0.155283
-0.069785 -0.101569 -0.168824
0.164093 -0.235979 -0.058122
0.100051 -0.255305 -0.114547
0.179843 -0.137814 -0.001298
-0.167290 -0.021446 -0.209544
0.105888 -0.023666 -0.002326
0.112145 -0.189633 -0.077752
0.125544 -0.016351 0.011808
0.134208 -0.182932 -0.060008
-0.071303 -0.022006 -0.139105
0.217765 -0.233344 -0.024330
-0.104896 -0.039567 -0.175208
-0.187445 -0.000759 -0.222760
-0.003198 -0.116465 -0.136126
0.147714 -0.079886 -0.007442
0.096180 -0.027255 -0.022652
0.135111 -0.237372 -0.093313
0.196951 -0.215844 -0.037485
0.256327 -0.010635 0.099432
-0.017584 -0.115353 -0.151987
-0.162948 0.024671 -0.198563
0.210507 -0.085989 0.030842
0.186185 -0.171844 -0.030558
0.153215 -0.012866 0.018647
0.053391 -0.117542 -0.106216
0.269628 -0.080998 0.069930
-0.058336 -0.077631 -0.172948
0.149351 -0.218599 -0.084407
-0.039246 -0.096539 -0.168326
0.086939 -0.029789 -0.041409
0.188234 -0.192649 -0.043764
0.120166 -0.244732 -0.120084
0.059145 -0.049118 -0.073662
0.212083 -0.195514 -0.031329
0.168589 -0.183568 -0.058632
-0.082301 -0.021367 -0.170857
0.100006 -0.218278 -0.127346
0.151178 -0.190871 -0.076504
0.125531 -0.197905 -0.101602
0.174164 -0.034963 0.011736
-0.154834 0.004182 -0.220963
0.234213 -0.235217 -0.041272
0.197069 -0.130517 -0.019003
0.118673 -0.018360 -0.024478
0.076131 -0.035931 -0.065695
0.026030 -0.109446 -0.139890
-0.114969 -0.018992 -0.206046
0.223320 -0.170230 -0.023262
0.229356 -0.147823 -0.009059
-0.059475 -0.040477 -0.175426
-0.124462 0.024353 -0.194880
-0.039121 -0.067645 -0.173632
0.226015 -0.215185 -0.045388
0.178075 0.006143 0.020330
0.054823 -0.054369 -0.101456
0.058151 -0.118431 -0.129250
0.155774 -0.011917 -0.007438
-0.010736 -0.087228 -0.169568
0.110230 -0.021841 -0.051370
-0.085184 -0.019222 -0.200115
-0.113213 -0.001656 -0.218958
0.254665 -0.173326 -0.024528
-0.035100 -0.021265 -0.169125
0.232362 -0.184618 -0.048144
-0.012033 -0.064285 -0.173810
0.031446 -0.098403 -0.158733
0.130297 -0.014568 -0.046088
-0.104664 0.020803 -0.210081
0.081766 -0.029731 -0.095013
0.054297 -0.055185 -0.128379
0.258478 -0.237563 -0.064957
0.063383 -0.116415 -0.156116
-0.013928 -0.031035 -0.176513
0.160763 -0.010501 -0.036063
-0.076309 0.014582 -0.203095
0.102094 -0.023639 -0.087786
0.093381 -0.117929 -0.141415
0.250206 -0.204132 -0.067122
0.050082 -0.095594 -0.167650
0.030967 -0.074717 -0.172364
0.010162 -0.047398 -0.175210
0.123815 -0.120527 -0.127283
0.258509 -0.178553 -0.058592
0.052016 -0.065602 -0.162985
0.033062 -0.044681 -0.169266
0.085356 -0.028900 -0.127703
0.167011 -0.010033 -0.061473
0.125330 -0.016371 -0.096454
0.268190 -0.204700 -0.084454
0.063938 -0.044030 -0.163220
0.275296 -0.224674 -0.094070
0.090544 -0.101887 -0.172699
0.114546 -0.113938 -0.160508
0.064773 -0.077937 -0.182840
0.292921 -0.182745 -0.072255
0.104664 -0.022837 -0.145557
0.298838 -0.248778 -0.113078
0.079896 -0.063714 -0.186896
0.154057 -0.114590 -0.156401
0.126516 -0.016202 -0.130254
0.175276 -0.115182 -0.154662
0.174142 -0.009345 -0.107892
0.298327 -0.037663 -0.033232
0.118967 -0.072785 -0.182774
0.095007 -0.040153 -0.187264
0.150628 -0.097205 -0.176474
0.101480 -0.020519 -0.176901
0.303378 -0.192549 -0.111474
0.325581 -0.190159 -0.097108
0.203207 -0.116546 -0.151645
0.318922 -0.230422 -0.124995
0.326630 -0.210675 -0.118609
0.225230 -0.117285 -0.148842
0.120906 -0.031248 -0.187313
0.250724 -0.118080 -0.137442
0.190772 -0.096810 -0.175422
0.160007 -0.066835 -0.184441
0.141563 -0.010199 -0.176265
0.162147 -0.041998 -0.186222
0.234046 -0.105404 -0.170637
0.201285 -0.076164 -0.182381
0.185328 -0.043551 -0.186876
0.277926 -0.113306 -0.156636
0.209537 -0.052615 -0.185501
0.299551 -0.113744 -0.153482
0.212592 -0.000384 -0.163765
0.237439 -0.076121 -0.182554
0.258920 -0.080794 -0.181962
0.277212 -0.090956 -0.179152
0.337550 -0.115234 -0.148273
0.228311 -0.023629 -0.187336
0.230670 -0.002392 -0.175171
0.249045 -0.032767 -0.186994
0.273470 -0.049324 -0.186274
0.319312 -0.091251 -0.177853
0.298477 -0.068997 -0.183714
0.260333 -0.010404 -0.185144
0.357113 -0.109108 -0.165249
0.279391 -0.026066 -0.187612
0.338217 -0.079799 -0.180725
0.319516 -0.024322 -0.184018
0.356605 -0.065615 -0.180833
