0.093614 -0.029962 -0.126833
0.114934 -0.018918 -0.110423
0.096176 -0.026264 -0.063822
0.102394 -0.024867 -0.091700
0.108023 -0.021048 -0.127229
0.116909 -0.018689 -0.101100
0.097707 -0.027647 -0.071133
0.083332 -0.034032 -0.093967
0.100539 -0.025464 -0.116827
0.109300 -0.021400 -0.120194
0.105529 -0.021995 -0.078711
0.106042 -0.024774 -0.135745
0.100289 -0.023784 -0.066068
0.092652 -0.031495 -0.138184
0.105188 -0.023536 -0.087740
0.106079 -0.025027 -0.101889
0.087406 -0.030654 -0.106004
0.104339 -0.027134 -0.126227
0.116879 -0.016428 -0.086259
0.108527 -0.022974 -0.140109
0.083787 -0.116988 -0.109935
0.103249 -0.117172 -0.128601
0.109570 -0.116911 -0.117823
0.096588 -0.117721 -0.097644
0.080090 -0.115102 -0.155109
0.075462 -0.116984 -0.112711
0.109770 -0.114860 -0.149352
0.088573 -0.116253 -0.138962
0.100715 -0.114761 -0.155072
0.100733 -0.115727 -0.136839
0.063589 -0.116751 -0.139122
0.076956 -0.117510 -0.124289
0.094114 -0.115718 -0.146088
0.131148 -0.116116 -0.136261
0.086243 -0.118693 -0.077372
0.089009 -0.116669 -0.126812
0.120446 -0.115088 -0.143293
0.116705 -0.116614 -0.128483
0.070866 -0.118225 -0.093643
0.065449 -0.118227 -0.125411
0.103612 -0.115586 -0.144524
0.110844 -0.115900 -0.139592
0.112046 -0.116774 -0.103045
0.089590 -0.114897 -0.152845
0.107175 -0.117469 -0.082420
0.070894 -0.116084 -0.148430
0.093334 -0.117475 -0.114273
0.079419 -0.117371 -0.135207
0.095707 -0.115731 -0.123648
0.081496 -0.115564 -0.145278
0.125348 -0.117022 -0.112719
0.122316 -0.114432 -0.153341
0.246793 -0.211320 -0.067196
0.251371 -0.215560 -0.071197
0.256447 -0.204831 -0.071336
0.251209 -0.204726 -0.068097
0.248868 -0.212919 -0.067619
0.244701 -0.206674 -0.064268
0.264038 -0.198915 -0.073052
0.251062 -0.208373 -0.068880
0.261651 -0.205678 -0.074668
0.257693 -0.200168 -0.068646
0.236849 -0.201104 -0.057768
0.244590 -0.221182 -0.067630
0.251635 -0.220771 -0.070735
0.270629 -0.211754 -0.078451
0.248882 -0.193440 -0.062796
0.253906 -0.198824 -0.067481
0.262120 -0.220262 -0.077291
0.263827 -0.191592 -0.071335
0.242509 -0.191610 -0.059216
0.237754 -0.213697 -0.061003
0.258376 -0.211205 -0.072742
0.259775 -0.207162 -0.073856
0.261714 -0.204046 -0.073659
0.254288 -0.203699 -0.068413
0.255128 -0.212690 -0.070588
0.245252 -0.205010 -0.064165
0.247397 -0.198945 -0.064357
0.251429 -0.186215 -0.061800
0.255652 -0.228686 -0.075861
0.253744 -0.194274 -0.066180
0.266237 -0.200494 -0.074033
0.265100 -0.212207 -0.076708
0.044150 -0.103199 -0.164402
0.051671 -0.102837 -0.164899
0.063108 -0.090998 -0.171046
0.056098 -0.094900 -0.169332
0.036536 -0.098613 -0.164767
0.043643 -0.097030 -0.166553
0.062898 -0.081567 -0.173578
0.050158 -0.098088 -0.166441
0.052819 -0.091287 -0.170183
0.059635 -0.086148 -0.171377
0.024374 -0.090400 -0.169070
0.035998 -0.107080 -0.161486
0.047457 -0.108018 -0.161858
0.077665 -0.100853 -0.167128
0.051310 -0.082435 -0.172841
0.054289 -0.087726 -0.171463
0.068294 -0.106848 -0.162826
0.072004 -0.079165 -0.174816
0.036543 -0.082562 -0.172578
0.028153 -0.101910 -0.162772
0.057813 -0.100363 -0.165508
0.062885 -0.096779 -0.167802
0.068929 -0.093284 -0.169672
0.047837 -0.091180 -0.168661
0.060579 -0.104149 -0.164301
0.032806 -0.094474 -0.167762
0.040958 -0.090510 -0.169988
0.044821 -0.075201 -0.173669
0.054753 -0.110629 -0.161666
0.046839 -0.082839 -0.171746
0.075172 -0.089954 -0.172680
0.068893 -0.100759 -0.166213
0.023689 -0.086358 -0.171496
0.032351 -0.086899 -0.171075
0.047073 -0.072647 -0.174822
0.038726 -0.076787 -0.173916
0.014809 -0.081644 -0.170441
0.024599 -0.079017 -0.172127
0.046916 -0.061826 -0.175950
0.030921 -0.081072 -0.172100
0.032437 -0.074514 -0.172978
0.041720 -0.067206 -0.174919
0.004395 -0.070217 -0.174180
0.014893 -0.089710 -0.169591
0.026672 -0.093333 -0.169430
0.062376 -0.083466 -0.172357
0.034598 -0.058707 -0.177137
0.034921 -0.067286 -0.174992
0.051833 -0.091516 -0.170165
0.056398 -0.057390 -0.177095
0.016016 -0.060977 -0.176297
0.006755 -0.085209 -0.170166
0.038448 -0.083098 -0.171462
0.045947 -0.080365 -0.172666
0.054780 -0.074434 -0.174283
0.026990 -0.072287 -0.173509
0.043165 -0.087499 -0.170934
0.011116 -0.077064 -0.172997
0.018593 -0.071738 -0.174125
0.026334 -0.053128 -0.176318
0.036237 -0.094734 -0.169720
0.026520 -0.062934 -0.175159
0.060835 -0.069648 -0.175781
0.052456 -0.084324 -0.171318
0.004584 -0.054474 -0.177877
0.018059 -0.055416 -0.179355
0.026848 -0.050333 -0.176739
0.021678 -0.048995 -0.174919
-0.006694 -0.055083 -0.175683
0.002082 -0.050681 -0.178081
0.037254 -0.048914 -0.173102
0.010569 -0.053671 -0.177437
0.017305 -0.055412 -0.176380
0.023137 -0.044979 -0.171874
-0.026873 -0.049306 -0.175500
-0.000455 -0.061689 -0.180839
0.012639 -0.060806 -0.177558
0.066060 -0.056070 -0.177787
0.014192 -0.043619 -0.165722
0.017563 -0.048614 -0.176066
0.041441 -0.061973 -0.179003
0.044169 -0.042379 -0.172051
-0.009816 -0.044513 -0.171689
-0.019351 -0.055936 -0.178768
0.027944 -0.055247 -0.177312
0.033570 -0.052359 -0.176457
0.042758 -0.049699 -0.177219
0.012203 -0.051831 -0.175104
0.033244 -0.054796 -0.172260
-0.011633 -0.050461 -0.175501
0.002631 -0.047276 -0.174899
0.002299 -0.038942 -0.170978
0.022720 -0.067676 -0.180708
0.008217 -0.048370 -0.174467
0.058553 -0.048781 -0.172520
0.049360 -0.056237 -0.176465
0.116873 -0.122206 0.004215
0.162183 -0.124740 -0.069118
0.178995 -0.121308 -0.030148
0.156357 -0.123494 0.011216
0.108140 -0.121866 -0.119086
0.093709 -0.124854 -0.021665
0.186339 -0.118788 -0.108252
0.120548 -0.123661 -0.077665
0.152357 -0.122117 -0.120985
0.156205 -0.104523 -0.084093
0.065725 -0.124071 -0.083942
0.114117 -0.122609 -0.044900
0.136795 -0.121745 -0.089588
0.224219 -0.119397 -0.067373
0.140017 -0.109107 0.042965
0.135963 -0.122151 -0.056137
0.202930 -0.118479 -0.088244
0.202529 -0.100278 -0.051648
0.086933 -0.111932 0.013922
0.076314 -0.124592 -0.053340
0.165383 -0.121809 -0.100996
0.184543 -0.122627 -0.078661
0.190959 -0.122789 -0.006263
0.128897 -0.123613 -0.111770
0.179132 -0.119734 0.036975
0.083428 -0.124796 -0.104270
0.133446 -0.124880 -0.019463
0.105054 -0.094483 -0.069001
0.146774 -0.123291 -0.037544
0.108115 -0.115079 -0.098474
0.220155 -0.119177 -0.012028
0.212792 -0.120734 -0.113986
0.255942 -0.179727 -0.052301
0.268239 -0.177840 -0.058030
0.271755 -0.178929 -0.053535
0.263801 -0.177022 -0.044040
0.252837 -0.184634 -0.064226
0.251433 -0.178030 -0.050945
0.279578 -0.182539 -0.063408
0.260763 -0.180290 -0.059107
0.270721 -0.185035 -0.066984
0.265784 -0.179008 -0.056961
0.235571 -0.180273 -0.056099
0.252850 -0.180549 -0.058797
0.263410 -0.181898 -0.063195
0.296122 -0.180895 -0.061365
0.257069 -0.176600 -0.029079
0.260373 -0.178242 -0.054433
0.281674 -0.180539 -0.062865
0.281256 -0.178482 -0.053814
0.245073 -0.176992 -0.038175
0.241924 -0.178675 -0.052155
0.271590 -0.181550 -0.062788
0.273940 -0.179714 -0.059695
0.278465 -0.177204 -0.048209
0.261316 -0.183462 -0.065711
0.273231 -0.174587 -0.032635
0.248272 -0.182593 -0.060819
0.262801 -0.177651 -0.049686
0.253751 -0.177390 -0.050999
0.265838 -0.182635 -0.062673
0.257742 -0.181994 -0.059931
0.290861 -0.177749 -0.046945
0.288963 -0.183917 -0.067066
0.051432 -0.068768 -0.109611
0.046089 -0.079389 -0.135943
0.053229 -0.065739 -0.141573
0.051454 -0.066258 -0.083428
0.049457 -0.074543 -0.174217
0.050945 -0.071559 -0.127089
0.055755 -0.058828 -0.169383
0.052553 -0.066914 -0.150834
0.054332 -0.064695 -0.176236
0.051196 -0.068407 -0.158996
0.053982 -0.064736 -0.155356
0.047870 -0.075370 -0.127843
0.045656 -0.082880 -0.162133
0.050560 -0.071751 -0.146237
0.053382 -0.062184 -0.055107
0.055117 -0.058440 -0.133495
0.047763 -0.077646 -0.170687
0.055924 -0.056861 -0.144911
0.057010 -0.053102 -0.102323
0.046385 -0.079135 -0.149062
0.049945 -0.070194 -0.151762
0.052240 -0.067419 -0.166460
0.047359 -0.074126 -0.112518
0.056720 -0.058253 -0.156370
0.045999 -0.077925 -0.070082
0.052734 -0.066820 -0.168595
0.053489 -0.061169 -0.122304
0.059137 -0.049693 -0.152505
0.042132 -0.088122 -0.147831
0.058102 -0.052293 -0.165713
0.053679 -0.063079 -0.108933
0.049018 -0.073571 -0.163213
0.010249 -0.044362 -0.130652
0.035666 -0.044745 -0.170452
0.037393 -0.044247 -0.155820
0.031392 -0.040552 -0.121209
-0.002723 -0.053576 -0.172236
-0.001898 -0.043178 -0.151637
0.048947 -0.047228 -0.169606
0.018253 -0.047354 -0.169713
0.031573 -0.050921 -0.172193
0.030016 -0.040395 -0.161543
-0.055472 -0.046364 -0.169008
0.007123 -0.050374 -0.164236
0.024096 -0.052151 -0.174241
0.071932 -0.046006 -0.168768
0.018963 -0.045459 -0.070314
0.025443 -0.044384 -0.162504
0.048581 -0.050777 -0.172671
0.052235 -0.040798 -0.156226
-0.021732 -0.044381 -0.111328
-0.033131 -0.048231 -0.163320
0.042004 -0.050297 -0.173338
0.042015 -0.044046 -0.168399
0.047479 -0.043620 -0.140510
0.024507 -0.048273 -0.173637
0.046628 -0.042618 -0.091399
-0.019204 -0.047515 -0.171395
0.023345 -0.042577 -0.141664
-0.004141 -0.041441 -0.160887
0.031433 -0.059123 -0.167638
0.009695 -0.046945 -0.168542
0.066983 -0.040229 -0.131318
0.059902 -0.049014 -0.169328
0.078603 -0.035240 -0.129111
0.080612 -0.032290 -0.123995
0.093579 -0.026100 -0.122705
0.082137 -0.031104 -0.104293
0.076497 -0.037919 -0.165145
0.074577 -0.036124 -0.113835
0.094947 -0.027065 -0.155784
0.081406 -0.034453 -0.132853
0.092567 -0.029999 -0.172173
0.087594 -0.030108 -0.132976
0.068515 -0.041050 -0.136986
0.067777 -0.040377 -0.127264
0.075019 -0.036820 -0.146875
0.099562 -0.022688 -0.132745
0.081154 -0.031779 -0.089201
0.086264 -0.030145 -0.120077
0.090315 -0.027258 -0.145189
0.102040 -0.023068 -0.126643
0.082475 -0.032786 -0.099255
0.065171 -0.041711 -0.120121
0.083542 -0.031199 -0.138366
0.092722 -0.027447 -0.141249
0.089769 -0.027483 -0.108068
0.088843 -0.031493 -0.153384
0.083173 -0.029884 -0.093659
0.075964 -0.037676 -0.154639
0.089291 -0.029759 -0.116265
0.092003 -0.030008 -0.128869
0.067694 -0.039618 -0.132803
0.088938 -0.032070 -0.146340
0.102104 -0.021286 -0.112543
0.091255 -0.029086 -0.154701
0.175896 -0.010768 -0.057275
0.205912 -0.006930 -0.078309
0.214816 -0.005493 -0.059445
0.195476 -0.008507 -0.037591
0.171608 -0.012309 -0.143183
0.164472 -0.011454 -0.050933
0.220061 -0.007346 -0.128449
0.181118 -0.009614 -0.095605
0.204299 -0.008873 -0.149564
0.201381 -0.006325 -0.093142
0.157336 -0.014431 -0.098291
0.165748 -0.010186 -0.072591
0.188524 -0.008886 -0.113721
0.256304 -0.004384 -0.097546
0.182737 -0.010708 -0.018446
0.182316 -0.008998 -0.073699
0.236051 -0.004014 -0.114599
0.230048 -0.005150 -0.076585
0.166907 -0.013746 -0.031980
0.155909 -0.014237 -0.073787
0.204083 -0.007039 -0.111770
0.218084 -0.004825 -0.097982
0.222012 -0.004989 -0.040235
0.186114 -0.009891 -0.132339
0.208494 -0.006658 -0.018139
0.163599 -0.013908 -0.123088
0.193456 -0.008827 -0.054893
0.175709 -0.011658 -0.084680
0.189113 -0.006354 -0.073922
0.174548 -0.012150 -0.110830
0.246486 -0.003399 -0.056377
0.243221 -0.005824 -0.139464
0.117363 -0.021592 -0.114193
0.130799 -0.015525 -0.104807
0.138484 -0.013151 -0.099245
0.124732 -0.016667 -0.083679
0.117672 -0.023395 -0.161359
0.113201 -0.020900 -0.091680
0.137550 -0.016213 -0.148934
0.122521 -0.019651 -0.119649
0.136453 -0.017706 -0.173559
0.132605 -0.016082 -0.115514
0.106403 -0.025732 -0.123340
0.109062 -0.022751 -0.110431
0.123658 -0.020254 -0.136488
0.152615 -0.011184 -0.121908
0.118544 -0.018071 -0.071797
0.122908 -0.017440 -0.099673
0.143480 -0.012618 -0.135917
0.145071 -0.013312 -0.110332
0.115023 -0.021450 -0.079932
0.106046 -0.024093 -0.102399
0.129733 -0.016254 -0.127871
0.139252 -0.013638 -0.126290
0.137556 -0.012226 -0.085493
0.128238 -0.019168 -0.151162
0.129995 -0.013805 -0.071783
0.112466 -0.024206 -0.144896
0.129616 -0.016564 -0.096423
0.125112 -0.019442 -0.108419
0.118597 -0.017731 -0.112207
0.122690 -0.021798 -0.134971
0.150170 -0.009684 -0.097026
0.146281 -0.014310 -0.152611
0.262830 -0.212168 -0.082295
0.268221 -0.216805 -0.087467
0.273054 -0.205359 -0.087647
0.266761 -0.204913 -0.082964
0.267663 -0.214828 -0.084354
0.260745 -0.207241 -0.078316
0.282348 -0.200123 -0.090828
0.267669 -0.209264 -0.084544
0.281255 -0.206700 -0.093110
0.275061 -0.200949 -0.085193
0.254026 -0.202458 -0.070851
0.260640 -0.223587 -0.082925
0.268688 -0.222446 -0.087117
0.288026 -0.213032 -0.097151
0.264196 -0.195079 -0.076714
0.271108 -0.199318 -0.083191
0.279451 -0.222025 -0.095490
0.281274 -0.193185 -0.088726
0.259137 -0.192665 -0.072424
0.253982 -0.215449 -0.074635
0.276014 -0.212065 -0.090068
0.277321 -0.207274 -0.091393
0.277427 -0.204794 -0.090112
0.272001 -0.204636 -0.084781
0.270615 -0.212896 -0.085955
0.263517 -0.205352 -0.079384
0.264758 -0.199363 -0.079200
0.268644 -0.188353 -0.076465
0.272437 -0.231940 -0.093256
0.271984 -0.194931 -0.081956
0.282734 -0.200813 -0.091020
0.283284 -0.213053 -0.095575
0.064170 -0.047631 -0.136809
0.056342 -0.057772 -0.151134
0.066675 -0.044276 -0.154782
0.064267 -0.044976 -0.115593
0.060730 -0.054649 -0.178566
0.062550 -0.050421 -0.144815
0.071307 -0.040613 -0.173007
0.065311 -0.047030 -0.159747
0.068626 -0.044644 -0.179905
0.063933 -0.048282 -0.163633
0.064868 -0.046489 -0.162515
0.058013 -0.055124 -0.146137
0.055389 -0.061388 -0.169964
0.064103 -0.046113 -0.156663
0.067114 -0.042158 -0.093229
0.069445 -0.040550 -0.147778
0.059220 -0.054679 -0.172539
0.072022 -0.036681 -0.153422
0.072875 -0.035533 -0.124023
0.056575 -0.058065 -0.155925
0.061887 -0.049386 -0.158361
0.065610 -0.046545 -0.170590
0.060791 -0.049819 -0.135408
0.070694 -0.041337 -0.162939
0.057759 -0.053593 -0.106341
0.064419 -0.047790 -0.174232
0.068320 -0.041507 -0.140244
0.076861 -0.033322 -0.159073
0.051270 -0.067747 -0.162027
0.074489 -0.035855 -0.168622
0.069445 -0.039515 -0.131156
0.060485 -0.051767 -0.168831
0.266676 -0.229185 -0.080238
0.272663 -0.231681 -0.093237
0.275488 -0.225461 -0.093477
0.267824 -0.223974 -0.080058
0.277980 -0.232090 -0.093040
0.264444 -0.226737 -0.078848
0.286159 -0.220222 -0.102031
0.271502 -0.227982 -0.089148
0.289707 -0.225223 -0.105332
0.278181 -0.220900 -0.096399
0.261462 -0.224349 -0.073667
0.267080 -0.236687 -0.082795
0.275136 -0.234883 -0.091836
0.291237 -0.231270 -0.106595
0.263535 -0.219424 -0.066947
0.273622 -0.218286 -0.090054
0.284373 -0.235404 -0.102469
0.283415 -0.214073 -0.101272
0.262239 -0.212020 -0.071977
0.259931 -0.232332 -0.074501
0.279906 -0.229840 -0.098366
0.281483 -0.224418 -0.100812
0.275070 -0.226773 -0.092072
0.277146 -0.224282 -0.093602
0.270577 -0.229391 -0.076035
0.272340 -0.223481 -0.086442
0.269542 -0.219519 -0.084282
0.271809 -0.205855 -0.085322
0.275694 -0.243296 -0.094615
0.277296 -0.213531 -0.091749
0.280240 -0.222882 -0.093761
0.289050 -0.228405 -0.106638
0.084233 -0.107963 -0.169262
0.094923 -0.106771 -0.169515
0.107890 -0.096624 -0.175954
0.099197 -0.100774 -0.174347
0.075347 -0.102986 -0.170623
0.083299 -0.102804 -0.172299
0.108382 -0.088449 -0.178306
0.090289 -0.103273 -0.171396
0.093722 -0.096919 -0.175764
0.103161 -0.091712 -0.176486
0.062509 -0.097626 -0.175042
0.074834 -0.110499 -0.166595
0.088301 -0.110052 -0.166269
0.127530 -0.104502 -0.170869
0.093208 -0.090794 -0.178080
0.095974 -0.095233 -0.176376
0.115576 -0.109579 -0.166283
0.119741 -0.087212 -0.179346
0.075913 -0.092227 -0.178130
0.066501 -0.106533 -0.168499
0.101101 -0.104388 -0.169999
0.108258 -0.101674 -0.171982
0.114687 -0.098902 -0.174112
0.087925 -0.097242 -0.173724
0.104930 -0.108314 -0.168660
0.071069 -0.100308 -0.173888
0.080553 -0.097701 -0.175723
0.083679 -0.084044 -0.179095
0.096129 -0.112094 -0.165674
0.086517 -0.090499 -0.177098
0.123773 -0.096857 -0.176682
0.116547 -0.104496 -0.170663
0.108687 -0.115534 -0.150839
0.128586 -0.114790 -0.158029
0.136333 -0.112580 -0.159531
0.125223 -0.114716 -0.152104
0.101386 -0.109855 -0.164703
0.102814 -0.114160 -0.157525
0.139880 -0.107612 -0.166865
0.112151 -0.112733 -0.161620
0.123382 -0.108219 -0.167003
0.128367 -0.110525 -0.164015
0.080687 -0.112895 -0.162178
0.099653 -0.115723 -0.155002
0.119206 -0.112616 -0.158552
0.167389 -0.112467 -0.159862
0.114369 -0.117362 -0.145493
0.119245 -0.112434 -0.161041
0.151444 -0.112818 -0.156848
0.147767 -0.111362 -0.162929
0.095291 -0.116214 -0.151945
0.087425 -0.115743 -0.156371
0.131615 -0.111631 -0.163056
0.139094 -0.111504 -0.162227
0.140645 -0.114432 -0.153456
0.115140 -0.108993 -0.164759
0.135165 -0.116892 -0.142990
0.091870 -0.111033 -0.164411
0.111274 -0.112991 -0.158983
0.100759 -0.110907 -0.165134
0.121883 -0.115772 -0.151362
0.108549 -0.109204 -0.165723
0.156822 -0.113393 -0.154707
0.154634 -0.109256 -0.163152
0.058269 -0.084621 -0.180285
0.065818 -0.086204 -0.179988
0.079007 -0.072837 -0.184741
0.071480 -0.076645 -0.183991
0.050298 -0.081033 -0.179386
0.059111 -0.078559 -0.181505
0.078631 -0.062425 -0.186564
0.064689 -0.080060 -0.181208
0.066678 -0.073620 -0.183467
0.074864 -0.068381 -0.184680
0.039770 -0.071777 -0.183092
0.049736 -0.088344 -0.177166
0.060693 -0.091461 -0.177287
0.092499 -0.081942 -0.181359
0.066019 -0.061469 -0.187396
0.068945 -0.068910 -0.184784
0.083336 -0.089843 -0.177895
0.088572 -0.059884 -0.187030
0.051406 -0.062184 -0.186661
0.042664 -0.084632 -0.178449
0.071527 -0.082518 -0.180504
0.077771 -0.079418 -0.182019
0.085315 -0.074215 -0.184306
0.061585 -0.072865 -0.183341
0.075335 -0.086050 -0.180373
0.047190 -0.076728 -0.182465
0.054819 -0.072117 -0.184031
0.060051 -0.054563 -0.186536
0.068255 -0.093254 -0.177044
0.060967 -0.064019 -0.185342
0.091616 -0.070501 -0.186019
0.083128 -0.083837 -0.180150
0.294285 -0.184640 -0.030145
0.309805 -0.182762 -0.058344
0.314080 -0.184092 -0.041648
0.304565 -0.182752 -0.017129
0.289838 -0.188180 -0.083475
0.284401 -0.183407 -0.033665
0.316457 -0.186981 -0.077064
0.298318 -0.185279 -0.064701
0.308531 -0.188875 -0.083122
0.305094 -0.184862 -0.064527
0.269558 -0.186053 -0.064587
0.288774 -0.183922 -0.050929
0.301624 -0.185273 -0.075281
0.335614 -0.187619 -0.063110
0.296079 -0.183037 0.011635
0.296392 -0.183170 -0.053218
0.325289 -0.185886 -0.072438
0.322266 -0.184943 -0.050125
0.278881 -0.182960 -0.010732
0.274527 -0.184165 -0.050065
0.310372 -0.186254 -0.073210
0.316319 -0.185305 -0.066171
0.319464 -0.183508 -0.024214
0.296720 -0.187177 -0.081123
0.316604 -0.181949 0.005147
0.281207 -0.187547 -0.076662
0.303115 -0.182916 -0.035210
0.287528 -0.184340 -0.057385
0.305412 -0.187944 -0.053934
0.290055 -0.186820 -0.070410
0.332648 -0.185070 -0.030214
0.329114 -0.189507 -0.082784
0.099376 -0.027415 -0.143142
0.108134 -0.021765 -0.141596
0.120142 -0.017395 -0.137312
0.106418 -0.021591 -0.122188
0.099595 -0.029766 -0.173501
0.096442 -0.026894 -0.130059
0.121410 -0.019693 -0.165553
0.104016 -0.025409 -0.147153
0.117156 -0.023346 -0.180039
0.114224 -0.020699 -0.147152
0.088376 -0.032631 -0.150095
0.089649 -0.030299 -0.142977
0.101212 -0.027296 -0.158706
0.134152 -0.013437 -0.149805
0.103054 -0.022825 -0.108687
0.107481 -0.022138 -0.135999
0.121141 -0.017980 -0.157918
0.128531 -0.015690 -0.142445
0.101676 -0.025043 -0.117583
0.087044 -0.031820 -0.135193
0.109666 -0.021989 -0.154581
0.119397 -0.019209 -0.152894
0.119046 -0.016912 -0.125236
0.110352 -0.025321 -0.168772
0.110259 -0.018937 -0.111547
0.096172 -0.030461 -0.163186
0.111556 -0.021585 -0.133009
0.112381 -0.021988 -0.141725
0.094744 -0.027988 -0.147461
0.109028 -0.025979 -0.157750
0.132404 -0.012268 -0.130548
0.124801 -0.019990 -0.169513
0.294735 -0.252521 -0.067814
0.301315 -0.250500 -0.111073
0.306075 -0.250458 -0.104140
0.300599 -0.250395 -0.064205
0.299416 -0.249136 -0.110066
0.292679 -0.250094 -0.093664
0.310747 -0.244327 -0.117837
0.296234 -0.251283 -0.107714
0.308045 -0.245319 -0.116111
0.303661 -0.239602 -0.116416
0.291774 -0.247255 -0.103272
0.297316 -0.254363 -0.089030
0.300191 -0.251999 -0.106727
0.338869 -0.250711 -0.111652
0.296246 -0.252013 -0.021583
0.299243 -0.245387 -0.105374
0.318133 -0.251054 -0.111583
0.315731 -0.241263 -0.112465
0.291718 -0.242463 -0.069093
0.290521 -0.251551 -0.097030
0.306033 -0.252103 -0.114127
0.308358 -0.249153 -0.113683
0.304278 -0.252413 -0.088368
0.301248 -0.246410 -0.112954
0.310258 -0.251835 -0.038391
0.295823 -0.247792 -0.109472
0.298772 -0.248041 -0.091880
0.297611 -0.231985 -0.110232
0.303253 -0.255598 -0.097067
0.298695 -0.239778 -0.113545
0.323628 -0.249744 -0.081263
0.324535 -0.246488 -0.117501
0.072439 -0.071000 -0.184377
0.080153 -0.072014 -0.184286
0.093251 -0.059514 -0.188335
0.085860 -0.062672 -0.187552
0.064534 -0.067210 -0.183306
0.073311 -0.064900 -0.185358
0.093625 -0.050698 -0.189552
0.078637 -0.066483 -0.185205
0.081219 -0.060651 -0.187080
0.089222 -0.055295 -0.187908
0.054217 -0.058861 -0.186163
0.063950 -0.074936 -0.181553
0.074911 -0.077354 -0.181895
0.108400 -0.067757 -0.185555
0.080690 -0.050451 -0.189675
0.083314 -0.056030 -0.188053
0.097772 -0.075814 -0.182629
0.103306 -0.049323 -0.189827
0.066081 -0.051590 -0.188783
0.056662 -0.070675 -0.182406
0.086036 -0.068162 -0.184700
0.092295 -0.065448 -0.186025
0.100036 -0.060459 -0.188070
0.076355 -0.059840 -0.186837
0.089662 -0.071744 -0.184471
0.061537 -0.063081 -0.186050
0.069417 -0.059061 -0.187293
0.074736 -0.045822 -0.188785
0.081983 -0.079374 -0.181745
0.075794 -0.052857 -0.188214
0.107357 -0.057098 -0.189237
0.098455 -0.069260 -0.184649
0.142269 -0.115370 -0.136505
0.167816 -0.115131 -0.153555
0.175412 -0.114170 -0.149102
0.162575 -0.115653 -0.135461
0.134429 -0.110659 -0.164439
0.132926 -0.114883 -0.146234
0.179035 -0.109890 -0.163849
0.146863 -0.113353 -0.158249
0.161032 -0.110083 -0.163914
0.164666 -0.112054 -0.159778
0.108691 -0.113602 -0.158456
0.133627 -0.115335 -0.149407
0.156131 -0.112369 -0.158876
0.206081 -0.113011 -0.156048
0.149579 -0.117928 -0.121094
0.153264 -0.113293 -0.154417
0.190887 -0.112514 -0.156591
0.185768 -0.113162 -0.155131
0.123482 -0.116871 -0.132915
0.116125 -0.115901 -0.150312
0.170078 -0.112198 -0.161804
0.177709 -0.112889 -0.158881
0.179943 -0.115234 -0.138856
0.149278 -0.110102 -0.163636
0.174436 -0.116843 -0.122737
0.121673 -0.112157 -0.162166
0.148279 -0.114260 -0.146991
0.131305 -0.113309 -0.159965
0.159002 -0.114929 -0.145892
0.140600 -0.110687 -0.162187
0.196722 -0.114605 -0.142659
0.194942 -0.109841 -0.163044
0.120101 -0.020049 -0.136328
0.134455 -0.014127 -0.129800
0.144197 -0.010851 -0.125302
0.128546 -0.015131 -0.110814
0.120724 -0.021586 -0.171433
0.116666 -0.019498 -0.118132
0.145545 -0.013097 -0.162202
0.125520 -0.017781 -0.139885
0.140356 -0.016031 -0.180153
0.137021 -0.013769 -0.137456
0.108699 -0.024640 -0.142581
0.111023 -0.021421 -0.133702
0.126626 -0.018483 -0.152772
0.166525 -0.007629 -0.143062
0.122400 -0.016809 -0.099294
0.126573 -0.015845 -0.124728
0.151317 -0.010177 -0.151702
0.152904 -0.010667 -0.134056
0.119891 -0.020001 -0.107257
0.108643 -0.023264 -0.125350
0.134251 -0.014176 -0.147753
0.144131 -0.011497 -0.145070
0.144490 -0.010130 -0.112800
0.131274 -0.017780 -0.165817
0.135017 -0.012242 -0.100141
0.115925 -0.022557 -0.157989
0.133466 -0.015123 -0.122351
0.130162 -0.016729 -0.131724
0.120831 -0.017481 -0.136165
0.127141 -0.019804 -0.152106
0.160072 -0.006711 -0.121499
0.155706 -0.012004 -0.166734
0.167569 -0.115332 -0.091998
0.192249 -0.115302 -0.137609
0.199012 -0.115184 -0.117209
0.185976 -0.115838 -0.085140
0.162587 -0.112240 -0.162406
0.153863 -0.115199 -0.110834
0.200404 -0.111814 -0.157531
0.171887 -0.113909 -0.145245
0.186487 -0.111675 -0.159993
0.187621 -0.112826 -0.146811
0.139037 -0.114359 -0.147717
0.160742 -0.115290 -0.124874
0.179300 -0.112941 -0.152859
0.225730 -0.113708 -0.140894
0.173525 -0.116712 -0.052691
0.174836 -0.113946 -0.133366
0.213184 -0.112637 -0.152018
0.208317 -0.113933 -0.130893
0.148423 -0.116613 -0.080310
0.142803 -0.116298 -0.132145
0.193523 -0.113071 -0.154401
0.201357 -0.113832 -0.147534
0.202884 -0.115203 -0.095149
0.172999 -0.111994 -0.159316
0.199438 -0.115717 -0.063112
0.148651 -0.113456 -0.157139
0.177321 -0.115167 -0.110605
0.157156 -0.115074 -0.143948
0.184047 -0.114392 -0.123963
0.162082 -0.112304 -0.152384
0.218703 -0.114934 -0.107482
0.216769 -0.110947 -0.161630
0.178418 -0.011105 -0.096085
0.207329 -0.006977 -0.118398
0.215598 -0.005309 -0.099702
0.197796 -0.008216 -0.077079
0.174281 -0.014350 -0.175926
0.166995 -0.011507 -0.090824
0.220130 -0.008334 -0.161524
0.183949 -0.009874 -0.133626
0.205332 -0.010210 -0.180657
0.203443 -0.006617 -0.131520
0.158686 -0.015768 -0.136451
0.168339 -0.010651 -0.113428
0.190318 -0.009760 -0.150561
0.255234 -0.004629 -0.134554
0.185590 -0.010517 -0.056152
0.185094 -0.009064 -0.113621
0.235430 -0.005044 -0.149947
0.229872 -0.005079 -0.114729
0.169004 -0.013887 -0.072118
0.158215 -0.014818 -0.113395
0.205421 -0.007420 -0.147811
0.218877 -0.005444 -0.134673
0.223110 -0.005007 -0.080555
0.187989 -0.011311 -0.167905
0.210619 -0.006260 -0.056504
0.165781 -0.015274 -0.157992
0.196072 -0.008919 -0.095309
0.178761 -0.011533 -0.123821
0.190723 -0.006759 -0.114379
0.177219 -0.013160 -0.147053
0.245927 -0.003427 -0.095109
0.242642 -0.007112 -0.171990
0.358642 -0.045989 0.089813
0.360415 -0.071598 0.038793
0.353194 -0.032454 0.034309
0.352523 -0.026982 0.118551
0.356738 -0.058855 -0.120804
0.348820 -0.032227 0.050691
0.341489 -0.017175 -0.106302
0.356810 -0.040009 -0.009372
0.349651 -0.032002 -0.137211
0.345668 -0.023267 -0.049011
0.330972 -0.014931 -0.020698
0.367434 -0.084713 0.076402
0.364245 -0.090127 -0.030972
0.361126 -0.059941 0.010448
0.336664 -0.012405 0.133866
0.339343 -0.011915 0.039229
0.360627 -0.084248 -0.081633
0.347805 -0.019627 0.013890
0.330838 -0.007706 0.094872
0.351508 -0.065825 0.002965
0.359232 -0.059996 -0.047978
0.357644 -0.039553 -0.043955
0.360267 -0.060791 0.077799
0.343435 -0.014806 -0.037935
0.360497 -0.071813 0.132818
0.345603 -0.025999 -0.090706
0.348299 -0.021142 0.068425
0.327016 -0.012135 -0.005152
0.363371 -0.101033 0.032006
0.333104 -0.010332 -0.066025
0.354554 -0.029945 0.090819
0.355169 -0.051307 -0.088406
0.117077 -0.082414 -0.182213
0.126913 -0.083959 -0.181201
0.144166 -0.067284 -0.185642
0.133771 -0.071494 -0.184813
0.108146 -0.077180 -0.181800
0.118084 -0.074270 -0.183013
0.143448 -0.055955 -0.187553
0.124831 -0.076435 -0.182917
0.125720 -0.068972 -0.184400
0.137224 -0.062180 -0.186215
0.098186 -0.064942 -0.185453
0.107655 -0.086483 -0.179932
0.120460 -0.090450 -0.179746
0.163821 -0.079296 -0.182189
0.128875 -0.053639 -0.188516
0.129156 -0.061765 -0.186089
0.150863 -0.088998 -0.180000
0.156019 -0.053532 -0.188221
0.108817 -0.056202 -0.187578
0.099763 -0.081498 -0.180569
0.133285 -0.078910 -0.182321
0.142674 -0.076201 -0.183299
0.153330 -0.069270 -0.185135
0.119691 -0.066672 -0.185022
0.139671 -0.084218 -0.181520
0.103457 -0.072388 -0.184554
0.110890 -0.066461 -0.185101
0.118598 -0.049670 -0.187587
0.131870 -0.092350 -0.179573
0.119222 -0.057681 -0.186772
0.161800 -0.064347 -0.186146
0.151223 -0.080490 -0.181888
0.086954 -0.048459 -0.188472
0.094246 -0.049356 -0.188331
0.108654 -0.038113 -0.187206
0.101345 -0.039516 -0.187400
0.081338 -0.046855 -0.185757
0.087761 -0.043079 -0.185989
0.114928 -0.032301 -0.185516
0.093267 -0.044797 -0.187677
0.099911 -0.042530 -0.187525
0.108236 -0.030987 -0.183473
0.075014 -0.039615 -0.183440
0.080053 -0.056292 -0.188263
0.090365 -0.054525 -0.187859
0.127791 -0.042520 -0.189180
0.099565 -0.029978 -0.183533
0.099958 -0.036494 -0.185512
0.111323 -0.052733 -0.190391
0.121921 -0.025875 -0.183455
0.085665 -0.032669 -0.183025
0.073604 -0.050760 -0.186007
0.102048 -0.044820 -0.187538
0.109249 -0.042563 -0.187915
0.118564 -0.036404 -0.188008
0.095545 -0.040046 -0.186132
0.104918 -0.047852 -0.189079
0.080592 -0.042591 -0.185389
0.087648 -0.038053 -0.185260
0.097948 -0.025567 -0.181146
0.094918 -0.060162 -0.190233
0.094691 -0.035670 -0.183964
0.127273 -0.033049 -0.187335
0.116194 -0.044960 -0.189111
0.139931 -0.105591 -0.171293
0.155298 -0.103829 -0.172328
0.171010 -0.092529 -0.179572
0.160350 -0.096653 -0.177883
0.128276 -0.099299 -0.173643
0.138890 -0.098931 -0.176072
0.171519 -0.083252 -0.182026
0.147497 -0.100097 -0.174317
0.151264 -0.092668 -0.178916
0.164042 -0.087317 -0.180680
0.110228 -0.092896 -0.178862
0.129233 -0.108171 -0.168550
0.146847 -0.107623 -0.168070
0.198198 -0.101941 -0.172864
0.152215 -0.085386 -0.181725
0.155547 -0.090508 -0.180308
0.181944 -0.107318 -0.167855
0.186158 -0.082073 -0.182967
0.127361 -0.086972 -0.182333
0.116365 -0.103283 -0.171733
0.162581 -0.101018 -0.172988
0.171718 -0.098659 -0.174910
0.180264 -0.095548 -0.177456
0.144094 -0.093166 -0.177382
0.168367 -0.105725 -0.170737
0.121643 -0.096327 -0.177790
0.135038 -0.093176 -0.179703
0.136539 -0.078024 -0.183821
0.156664 -0.110404 -0.167069
0.142871 -0.085200 -0.181217
0.193640 -0.092937 -0.180113
0.183980 -0.101415 -0.172926
0.093641 -0.026836 -0.173643
0.100711 -0.023248 -0.176987
0.114099 -0.018052 -0.173430
0.103203 -0.019537 -0.165824
0.093977 -0.031205 -0.183612
0.093428 -0.025409 -0.170370
0.121737 -0.019975 -0.180303
0.099657 -0.024361 -0.175643
0.112312 -0.026631 -0.186851
0.112361 -0.018211 -0.172693
0.083638 -0.030478 -0.173506
0.086348 -0.032264 -0.176045
0.096168 -0.029968 -0.180536
0.135067 -0.013935 -0.179925
0.101443 -0.020098 -0.154502
0.105188 -0.020637 -0.170925
0.114555 -0.022791 -0.182414
0.127580 -0.012419 -0.171918
0.096718 -0.021546 -0.160061
0.082180 -0.031488 -0.171310
0.106917 -0.022471 -0.179998
0.114181 -0.020720 -0.178154
0.118848 -0.015773 -0.168901
0.105548 -0.025900 -0.182212
0.106598 -0.018973 -0.159757
0.093614 -0.029069 -0.177964
0.104046 -0.020751 -0.169828
0.110032 -0.016156 -0.168125
0.091895 -0.036057 -0.182500
0.106600 -0.023928 -0.176192
0.133301 -0.011615 -0.167772
0.123236 -0.021557 -0.185601
0.297185 -0.194407 -0.103996
0.307727 -0.193619 -0.112721
0.309896 -0.193151 -0.108562
0.302815 -0.190703 -0.098946
0.299454 -0.200377 -0.113361
0.294105 -0.192090 -0.101634
0.321042 -0.197305 -0.115467
0.302048 -0.194690 -0.110207
0.314609 -0.200744 -0.119196
0.307179 -0.193141 -0.108829
0.282524 -0.194853 -0.101066
0.295867 -0.198644 -0.109466
0.304426 -0.198776 -0.114490
0.332844 -0.195631 -0.117351
0.296621 -0.189459 -0.084325
0.303212 -0.192482 -0.105900
0.320056 -0.197576 -0.118592
0.321033 -0.192746 -0.107788
0.286431 -0.189819 -0.088445
0.286545 -0.194042 -0.100926
0.313910 -0.196426 -0.115955
0.313869 -0.194140 -0.113608
0.317024 -0.190727 -0.105691
0.305678 -0.197905 -0.115120
0.311115 -0.188890 -0.091784
0.294009 -0.197480 -0.109176
0.302206 -0.191021 -0.101366
0.296580 -0.190298 -0.097959
0.307847 -0.204654 -0.118709
0.301687 -0.195454 -0.109217
0.328436 -0.192207 -0.104228
0.328785 -0.198877 -0.120737
0.344941 -0.219958 0.032542
0.347901 -0.239049 -0.020746
0.350133 -0.203375 -0.020190
0.347835 -0.202037 0.050378
0.343267 -0.228929 -0.094536
0.341363 -0.209658 -0.007971
0.344560 -0.194296 -0.092107
0.345773 -0.213820 -0.046526
0.344521 -0.203300 -0.098867
0.344717 -0.195531 -0.067203
0.334601 -0.197521 -0.055520
0.347719 -0.257153 0.015348
0.347345 -0.261256 -0.060462
0.353882 -0.229322 -0.034903
0.341064 -0.192744 0.076708
0.340187 -0.189990 -0.018641
0.348125 -0.247154 -0.079967
0.349790 -0.191790 -0.032902
0.335628 -0.189292 0.028476
0.339928 -0.236301 -0.045020
0.348886 -0.225417 -0.067221
0.350063 -0.206005 -0.063537
0.352278 -0.224627 0.014478
0.340141 -0.195349 -0.063904
0.349751 -0.236541 0.064620
0.339130 -0.203936 -0.087818
0.344508 -0.196784 0.004206
0.336773 -0.189695 -0.046204
0.346725 -0.276698 -0.019297
0.337027 -0.191119 -0.079432
0.354783 -0.199234 0.022781
0.351296 -0.214684 -0.084691
0.198409 -0.115467 -0.061010
0.223514 -0.115509 -0.123045
0.229888 -0.115283 -0.093799
0.216499 -0.115719 -0.052171
0.194579 -0.113242 -0.157945
0.183095 -0.115414 -0.084236
0.230530 -0.112925 -0.151867
0.203470 -0.114534 -0.132311
0.218069 -0.112901 -0.156023
0.218463 -0.113384 -0.134943
0.171201 -0.114900 -0.135804
0.192776 -0.115523 -0.103693
0.209595 -0.113970 -0.143649
0.254820 -0.114335 -0.127848
0.203900 -0.116197 -0.012299
0.204832 -0.114372 -0.115549
0.243796 -0.113274 -0.145400
0.239396 -0.114493 -0.112137
0.178774 -0.116420 -0.045864
0.173700 -0.116660 -0.115913
0.224438 -0.113791 -0.146141
0.233038 -0.114276 -0.136699
0.234171 -0.115125 -0.065910
0.204021 -0.113393 -0.152844
0.229596 -0.115159 -0.026759
0.179973 -0.114240 -0.150799
0.209591 -0.115470 -0.084269
0.188084 -0.115744 -0.129112
0.214922 -0.114433 -0.105752
0.191731 -0.113726 -0.142987
0.249179 -0.115042 -0.083627
0.247560 -0.112082 -0.157450
0.314559 -0.239431 -0.109498
0.316133 -0.240762 -0.124204
0.324148 -0.228888 -0.124194
0.320731 -0.229964 -0.109696
0.309715 -0.238918 -0.125087
0.314531 -0.233077 -0.124373
0.323125 -0.223118 -0.122187
0.316097 -0.235709 -0.125859
0.317379 -0.231836 -0.124405
0.323188 -0.220838 -0.123134
0.305535 -0.228460 -0.123502
0.310743 -0.247133 -0.114864
0.312074 -0.248168 -0.124335
0.335671 -0.237855 -0.118713
0.320028 -0.221227 -0.087565
0.319501 -0.223667 -0.124239
0.323179 -0.244904 -0.120543
0.329032 -0.215945 -0.119551
0.313283 -0.217858 -0.110604
0.303589 -0.243694 -0.121849
0.320402 -0.239952 -0.124905
0.321445 -0.232440 -0.123670
0.325286 -0.233656 -0.116818
0.317447 -0.228350 -0.126925
0.322224 -0.241126 -0.093347
0.309923 -0.232807 -0.125030
0.317421 -0.227979 -0.119878
0.318293 -0.210946 -0.122426
0.313887 -0.253491 -0.118763
0.314744 -0.221995 -0.124952
0.335160 -0.224252 -0.106467
0.327601 -0.233977 -0.122682
0.332777 -0.220525 -0.074811
0.334275 -0.231002 -0.102869
0.337364 -0.210091 -0.099479
0.336325 -0.209230 -0.061609
0.325776 -0.227674 -0.123454
0.331221 -0.212834 -0.100398
0.332074 -0.206606 -0.113266
0.332251 -0.217754 -0.112280
0.327514 -0.214863 -0.120090
0.332936 -0.206678 -0.110060
0.323340 -0.207744 -0.116326
0.333140 -0.236692 -0.089406
0.329434 -0.245594 -0.120211
0.345879 -0.226162 -0.103425
0.334838 -0.203094 -0.031134
0.330663 -0.204504 -0.100060
0.335339 -0.237690 -0.116931
0.338876 -0.200784 -0.098105
0.328569 -0.198769 -0.072088
0.326903 -0.230507 -0.116825
0.334880 -0.224508 -0.114489
0.334364 -0.213937 -0.110974
0.339102 -0.219437 -0.082252
0.329217 -0.208099 -0.115244
0.338486 -0.229948 -0.045292
0.324651 -0.215949 -0.120843
0.334738 -0.206950 -0.087924
0.329558 -0.196539 -0.104125
0.332369 -0.254830 -0.105202
0.325097 -0.203317 -0.115435
0.345454 -0.205553 -0.067890
0.338051 -0.220079 -0.118196
0.230943 -0.116099 -0.034603
0.258535 -0.116060 -0.106651
0.265597 -0.115445 -0.071051
0.251234 -0.115981 -0.025170
0.225814 -0.114255 -0.152783
0.213439 -0.116490 -0.061145
0.265464 -0.113929 -0.144833
0.235848 -0.115580 -0.118436
0.251774 -0.114113 -0.150635
0.252340 -0.114365 -0.121962
0.201202 -0.116057 -0.123985
0.225643 -0.116307 -0.083107
0.242108 -0.115050 -0.132768
0.290687 -0.114912 -0.112726
0.237584 -0.116370 0.017060
0.237526 -0.115011 -0.097991
0.280084 -0.113968 -0.135650
0.275647 -0.115262 -0.092961
0.210003 -0.116936 -0.017985
0.203982 -0.117699 -0.099243
0.258516 -0.114597 -0.136665
0.269091 -0.114688 -0.124101
0.270626 -0.115554 -0.039949
0.236323 -0.114730 -0.145316
0.264991 -0.115171 0.002436
0.210468 -0.115468 -0.144110
0.243383 -0.115886 -0.060530
0.218865 -0.117141 -0.114110
0.248853 -0.115138 -0.085353
0.222327 -0.115337 -0.133126
0.286733 -0.115265 -0.060088
0.283905 -0.112917 -0.150974
0.112756 -0.038948 -0.189653
0.122069 -0.040264 -0.188989
0.138114 -0.028255 -0.186556
0.129703 -0.029300 -0.187002
0.106583 -0.038024 -0.187065
0.113004 -0.033523 -0.186154
0.145907 -0.022843 -0.184941
0.120159 -0.035336 -0.188393
0.127516 -0.033882 -0.188021
0.137326 -0.020307 -0.181996
0.099642 -0.029587 -0.183101
0.105710 -0.047870 -0.190126
0.117851 -0.045683 -0.189675
0.161831 -0.032960 -0.189551
0.127759 -0.019731 -0.182037
0.127017 -0.026792 -0.184699
0.141803 -0.043984 -0.192329
0.152807 -0.015433 -0.181403
0.110407 -0.023003 -0.181501
0.097419 -0.042050 -0.187405
0.130982 -0.035505 -0.188697
0.139235 -0.033154 -0.188521
0.150621 -0.026568 -0.187347
0.122302 -0.030628 -0.186564
0.134612 -0.038605 -0.189770
0.105076 -0.033242 -0.185803
0.113520 -0.027910 -0.184570
0.124614 -0.015850 -0.178823
0.123432 -0.051871 -0.192382
0.121050 -0.026129 -0.183550
0.160822 -0.022643 -0.185872
0.148596 -0.035924 -0.190534
0.261709 -0.117337 -0.017586
0.297169 -0.117484 -0.079994
0.306821 -0.115042 -0.047376
0.290394 -0.116283 -0.009605
0.254043 -0.115953 -0.130372
0.243065 -0.118733 -0.039746
0.308817 -0.113791 -0.122628
0.266655 -0.117903 -0.091180
0.288733 -0.115332 -0.130242
0.289949 -0.113843 -0.096111
0.218757 -0.118838 -0.098382
0.257213 -0.118321 -0.059668
0.275871 -0.116906 -0.105131
0.335052 -0.113839 -0.084280
0.275336 -0.116814 0.024813
0.274872 -0.116115 -0.072209
0.322569 -0.113906 -0.106682
0.320189 -0.113784 -0.067489
0.236308 -0.117654 -0.001088
0.227185 -0.119861 -0.069889
0.296554 -0.115944 -0.111953
0.310052 -0.114984 -0.096731
0.313963 -0.115987 -0.021854
0.270143 -0.116855 -0.122055
0.305758 -0.114816 0.015046
0.235067 -0.118120 -0.119654
0.276180 -0.116664 -0.038867
0.246774 -0.116668 -0.085753
0.283508 -0.117662 -0.057553
0.253314 -0.117426 -0.109522
0.333355 -0.114032 -0.033735
0.327272 -0.113365 -0.124760
0.175531 -0.105678 -0.171825
0.191857 -0.103540 -0.172015
0.208183 -0.092810 -0.178765
0.197557 -0.096547 -0.177441
0.162994 -0.099309 -0.173296
0.174985 -0.098921 -0.175101
0.208021 -0.083819 -0.181191
0.184049 -0.100469 -0.173647
0.187166 -0.093611 -0.177744
0.200463 -0.087808 -0.179897
0.144813 -0.092251 -0.178064
0.164619 -0.107817 -0.169221
0.182681 -0.108243 -0.168931
0.233856 -0.102316 -0.173375
0.189393 -0.084701 -0.182340
0.191671 -0.090049 -0.179469
0.218384 -0.107835 -0.168786
0.222223 -0.083252 -0.182401
0.161950 -0.087210 -0.181796
0.151132 -0.102852 -0.171711
0.199413 -0.101025 -0.172732
0.208980 -0.099150 -0.174318
0.218338 -0.095242 -0.177332
0.179649 -0.092986 -0.176594
0.205113 -0.105810 -0.171627
0.155909 -0.096372 -0.176965
0.169589 -0.092764 -0.178803
0.171576 -0.079328 -0.182786
0.193693 -0.109948 -0.168284
0.178898 -0.085319 -0.180147
0.229994 -0.092698 -0.179888
0.220479 -0.101917 -0.172477
0.155114 -0.077043 -0.184932
0.165385 -0.078342 -0.183926
0.180992 -0.062665 -0.186502
0.172092 -0.066465 -0.186146
0.145988 -0.071581 -0.184035
0.155736 -0.068534 -0.184921
0.180493 -0.052178 -0.187565
0.162332 -0.071308 -0.185092
0.163903 -0.064664 -0.185306
0.174066 -0.057346 -0.186746
0.135446 -0.059007 -0.186497
0.146474 -0.080990 -0.183500
0.158755 -0.085056 -0.183287
0.197272 -0.074657 -0.184729
0.168139 -0.048564 -0.187948
0.166559 -0.056745 -0.186692
0.186732 -0.083891 -0.183468
0.190389 -0.049026 -0.187795
0.145595 -0.051825 -0.187367
0.137166 -0.075758 -0.183583
0.171228 -0.073454 -0.184624
0.179777 -0.070940 -0.185167
0.190285 -0.064650 -0.186292
0.157439 -0.061742 -0.186176
0.177403 -0.079278 -0.184177
0.140469 -0.066765 -0.186227
0.148412 -0.061281 -0.186045
0.156036 -0.046168 -0.187241
0.170244 -0.086688 -0.183176
0.157084 -0.053555 -0.187150
0.195992 -0.058992 -0.186990
0.186657 -0.075005 -0.184172
0.129343 -0.014210 -0.131404
0.149595 -0.009861 -0.162088
0.156355 -0.008764 -0.145900
0.143464 -0.009570 -0.119936
0.126568 -0.020366 -0.183822
0.122582 -0.013898 -0.137985
0.164504 -0.013053 -0.176458
0.135027 -0.013447 -0.166289
0.148158 -0.016065 -0.182958
0.146782 -0.010972 -0.164719
0.105945 -0.018698 -0.167756
0.122241 -0.016067 -0.153975
0.135850 -0.015772 -0.174652
0.193497 -0.008467 -0.166693
0.133470 -0.013749 -0.088391
0.136963 -0.010948 -0.155491
0.170229 -0.010762 -0.172117
0.171876 -0.007864 -0.152925
0.119517 -0.015144 -0.114566
0.111588 -0.017679 -0.153238
0.151917 -0.012231 -0.175385
0.159784 -0.010717 -0.166896
0.164164 -0.008693 -0.129991
0.138737 -0.016405 -0.181484
0.156886 -0.008568 -0.098594
0.119376 -0.019179 -0.176177
0.143212 -0.011349 -0.138559
0.128831 -0.012758 -0.158927
0.137934 -0.015492 -0.157961
0.129900 -0.015463 -0.171683
0.186368 -0.006488 -0.132861
0.180602 -0.013153 -0.179920
0.151648 -0.053188 -0.189264
0.162889 -0.054038 -0.188546
0.178858 -0.042299 -0.186490
0.170838 -0.043256 -0.187487
0.142709 -0.050609 -0.186490
0.151474 -0.046688 -0.186453
0.184969 -0.035982 -0.184412
0.159130 -0.049422 -0.188081
0.165744 -0.046778 -0.187005
0.176540 -0.033506 -0.182318
0.131995 -0.041041 -0.182797
0.144264 -0.060475 -0.189494
0.157328 -0.059493 -0.188922
0.200436 -0.048414 -0.189098
0.168346 -0.030232 -0.182223
0.165829 -0.039312 -0.184802
0.182884 -0.058209 -0.191529
0.191011 -0.027291 -0.181366
0.144605 -0.034386 -0.181773
0.132283 -0.054300 -0.187098
0.171414 -0.049742 -0.188138
0.180029 -0.047173 -0.188263
0.191438 -0.041264 -0.187743
0.159993 -0.043964 -0.186386
0.175975 -0.053495 -0.189777
0.138948 -0.045669 -0.185573
0.149159 -0.040439 -0.184641
0.159991 -0.026357 -0.178981
0.165619 -0.064195 -0.190884
0.158852 -0.037797 -0.183241
0.200002 -0.036965 -0.186253
0.188484 -0.050133 -0.189668
0.231190 -0.111007 -0.149007
0.258236 -0.110411 -0.164104
0.268283 -0.107026 -0.164723
0.256734 -0.109203 -0.153876
0.221553 -0.104731 -0.169111
0.222731 -0.108999 -0.162859
0.273704 -0.100549 -0.173415
0.235498 -0.107627 -0.166624
0.250248 -0.102508 -0.171589
0.257521 -0.103722 -0.171979
0.194227 -0.106752 -0.168779
0.223517 -0.111412 -0.158670
0.245220 -0.108527 -0.162461
0.307610 -0.109169 -0.164180
0.243586 -0.110768 -0.144739
0.248233 -0.105342 -0.168161
0.288137 -0.109918 -0.161119
0.284664 -0.105052 -0.169343
0.212877 -0.109136 -0.155270
0.203291 -0.110782 -0.161585
0.263112 -0.107482 -0.167924
0.273264 -0.106983 -0.167746
0.275667 -0.110191 -0.156937
0.238249 -0.102708 -0.169771
0.270007 -0.112255 -0.141000
0.209020 -0.104640 -0.171206
0.233325 -0.106847 -0.163869
0.218311 -0.102951 -0.173218
0.253017 -0.112599 -0.153903
0.231173 -0.101737 -0.171643
0.296369 -0.108658 -0.158413
0.292305 -0.104681 -0.167793
0.198022 -0.084568 -0.182016
0.208853 -0.085935 -0.180643
0.225089 -0.070954 -0.184823
0.215343 -0.074645 -0.184320
0.188813 -0.079526 -0.181440
0.198999 -0.076710 -0.182505
0.224062 -0.060106 -0.186819
0.205752 -0.079031 -0.182200
0.206664 -0.072222 -0.183772
0.217843 -0.066390 -0.185477
0.176762 -0.068159 -0.184863
0.189124 -0.088150 -0.179844
0.202230 -0.092357 -0.179446
0.244867 -0.082374 -0.181736
0.209886 -0.057784 -0.187981
0.210246 -0.065620 -0.185309
0.232440 -0.091564 -0.179502
0.236457 -0.058337 -0.187293
0.188137 -0.060455 -0.187162
0.179687 -0.083553 -0.180518
0.215062 -0.081628 -0.181674
0.224156 -0.079249 -0.182515
0.234810 -0.072752 -0.184654
0.200258 -0.070190 -0.184455
0.221685 -0.086819 -0.181327
0.182993 -0.074992 -0.184182
0.191447 -0.069403 -0.184640
0.197627 -0.054320 -0.187304
0.214009 -0.094256 -0.179175
0.200229 -0.061499 -0.186207
0.242760 -0.068190 -0.185630
0.232627 -0.083378 -0.180977
0.177420 -0.057941 -0.188650
0.188680 -0.058847 -0.188012
0.204827 -0.045019 -0.187758
0.196540 -0.047276 -0.188313
0.168325 -0.052828 -0.186047
0.177777 -0.049776 -0.187114
0.208216 -0.036353 -0.186653
0.184843 -0.052968 -0.188160
0.189619 -0.047943 -0.186898
0.199853 -0.036900 -0.185496
0.157731 -0.041466 -0.185226
0.169749 -0.064337 -0.188111
0.182928 -0.065241 -0.187594
0.225944 -0.054858 -0.188865
0.193875 -0.031121 -0.185621
0.190314 -0.040210 -0.186487
0.210825 -0.064433 -0.189606
0.216230 -0.029832 -0.185293
0.169164 -0.035130 -0.184897
0.158686 -0.057389 -0.186292
0.196616 -0.054034 -0.187689
0.205151 -0.051571 -0.188489
0.217101 -0.045461 -0.188483
0.183245 -0.045277 -0.187046
0.202119 -0.059825 -0.188995
0.163393 -0.047782 -0.186876
0.172555 -0.043112 -0.186466
0.182744 -0.028076 -0.183508
0.193271 -0.068930 -0.188767
0.182466 -0.038070 -0.185861
0.224517 -0.040582 -0.188197
0.213784 -0.055234 -0.188509
0.283897 -0.114047 -0.057536
0.307936 -0.114136 -0.124297
0.314213 -0.113415 -0.093139
0.302000 -0.114335 -0.049642
0.279457 -0.110737 -0.160661
0.267553 -0.114538 -0.084657
0.313433 -0.110493 -0.155346
0.287308 -0.112869 -0.134171
0.301423 -0.110631 -0.158429
0.302799 -0.111632 -0.137792
0.254004 -0.113556 -0.139553
0.277756 -0.113725 -0.103933
0.293853 -0.112128 -0.145100
0.335063 -0.112586 -0.127399
0.290149 -0.114991 -0.009397
0.290453 -0.112802 -0.116900
0.326898 -0.111167 -0.147084
0.322701 -0.112527 -0.112293
0.263846 -0.115618 -0.044392
0.257463 -0.115273 -0.118402
0.307997 -0.111746 -0.148945
0.316912 -0.112042 -0.139689
0.317486 -0.114276 -0.063318
0.288369 -0.111190 -0.154814
0.314513 -0.113920 -0.023453
0.263950 -0.112354 -0.155538
0.294072 -0.113918 -0.083566
0.271486 -0.114686 -0.132159
0.300223 -0.114002 -0.104182
0.275803 -0.111837 -0.146292
0.331555 -0.113649 -0.081252
0.329526 -0.109888 -0.159464
0.204364 -0.064382 -0.187138
0.214603 -0.066090 -0.186412
0.229468 -0.051432 -0.186951
0.221552 -0.054381 -0.187347
0.195245 -0.059352 -0.185204
0.204312 -0.056162 -0.186252
0.230327 -0.041828 -0.186742
0.211054 -0.059183 -0.186693
0.214049 -0.053237 -0.186002
0.223171 -0.045244 -0.186267
0.184278 -0.046847 -0.185904
0.196723 -0.069348 -0.186115
0.208717 -0.072572 -0.185940
0.246970 -0.062513 -0.186832
0.218010 -0.037092 -0.186541
0.215442 -0.045631 -0.186538
0.235458 -0.071779 -0.186626
0.238712 -0.037638 -0.186374
0.194652 -0.040591 -0.186117
0.185951 -0.063521 -0.185421
0.220958 -0.061293 -0.186354
0.229168 -0.058676 -0.186791
0.239966 -0.052877 -0.187233
0.207278 -0.050400 -0.186557
0.226944 -0.067348 -0.186904
0.189612 -0.054348 -0.186598
0.197830 -0.048887 -0.186303
0.205786 -0.035113 -0.185375
0.219884 -0.074980 -0.186183
0.207119 -0.042732 -0.186399
0.245490 -0.047230 -0.187403
0.235972 -0.062759 -0.186377
0.304980 -0.113516 -0.010960
0.326394 -0.114099 -0.097491
0.332712 -0.113103 -0.051836
0.320803 -0.113797 0.003383
0.301494 -0.111414 -0.157023
0.288016 -0.114773 -0.040441
0.328837 -0.111330 -0.149347
0.308016 -0.113858 -0.111736
0.320121 -0.111148 -0.156918
0.322095 -0.112495 -0.116347
0.278908 -0.114286 -0.120361
0.300011 -0.113473 -0.066941
0.311437 -0.112806 -0.129220
0.347545 -0.112577 -0.103208
0.309276 -0.113707 0.050921
0.309434 -0.112810 -0.085782
0.343133 -0.111161 -0.136064
0.339994 -0.112716 -0.079237
0.286004 -0.115145 0.009784
0.280390 -0.115775 -0.089075
0.325569 -0.111858 -0.134893
0.335852 -0.111796 -0.121653
0.334915 -0.113508 -0.014575
0.308583 -0.112828 -0.145731
0.331363 -0.112600 0.033022
0.286797 -0.113093 -0.148754
0.315356 -0.113695 -0.039201
0.292862 -0.115255 -0.106246
0.318440 -0.113665 -0.070045
0.294679 -0.113507 -0.132743
0.348048 -0.112910 -0.040265
0.344288 -0.110439 -0.152465
0.204587 -0.005443 -0.012268
0.233753 -0.003002 -0.086641
0.242343 -0.002458 -0.045155
0.225048 -0.004659 0.002415
0.199116 -0.008504 -0.166060
0.187236 -0.007577 -0.027219
0.240046 -0.004031 -0.147041
0.208930 -0.004910 -0.103860
0.228020 -0.004264 -0.164333
0.227180 -0.004842 -0.107921
0.171418 -0.011333 -0.115305
0.194887 -0.005388 -0.058694
0.212834 -0.004238 -0.126121
0.266373 -0.003220 -0.098258
0.210752 -0.008214 0.044280
0.211256 -0.003878 -0.076186
0.258761 -0.001720 -0.130008
0.254910 -0.002648 -0.071038
0.184145 -0.009851 0.011741
0.175638 -0.010109 -0.072460
0.230857 -0.002783 -0.132985
0.247954 -0.003029 -0.113892
0.246041 -0.004092 -0.010643
0.212109 -0.006263 -0.150000
0.241887 -0.004976 0.033573
0.182918 -0.010124 -0.147306
0.220798 -0.004696 -0.034201
0.192479 -0.008596 -0.095162
0.218849 -0.004920 -0.060270
0.194233 -0.006411 -0.128348
0.266790 -0.002544 -0.031234
0.258283 -0.004073 -0.152315
0.234353 -0.084308 -0.182169
0.244445 -0.086300 -0.181165
0.259279 -0.071490 -0.184384
0.250775 -0.075145 -0.183885
0.225437 -0.079725 -0.181626
0.234584 -0.076722 -0.182623
0.258426 -0.060546 -0.185820
0.241193 -0.079041 -0.182570
0.242675 -0.072689 -0.183429
0.252397 -0.066934 -0.184892
0.213449 -0.067864 -0.184533
0.226225 -0.087905 -0.180649
0.238107 -0.092410 -0.180250
0.276117 -0.082676 -0.182125
0.246054 -0.057556 -0.186587
0.245514 -0.065645 -0.184797
0.265550 -0.091754 -0.180208
0.268801 -0.058165 -0.186178
0.224312 -0.060284 -0.186187
0.216168 -0.083727 -0.181047
0.250273 -0.081970 -0.182027
0.258557 -0.079450 -0.182679
0.268435 -0.073514 -0.184233
0.236253 -0.070160 -0.184136
0.256324 -0.087084 -0.181692
0.219349 -0.075004 -0.183902
0.227640 -0.069207 -0.184189
0.233661 -0.054235 -0.186263
0.249522 -0.094384 -0.179896
0.235936 -0.061676 -0.185508
0.274369 -0.068202 -0.185081
0.265181 -0.083474 -0.181360
0.259553 -0.087495 -0.180952
0.271291 -0.088400 -0.179818
0.287350 -0.073991 -0.183956
0.277710 -0.077657 -0.183303
