-0.107278 0.160386 0.445470
-0.120578 0.161712 0.413893
-0.091894 0.133612 0.410738
-0.130853 0.161570 0.386988
-0.049403 0.160682 0.445010
0.036409 -0.175083 0.355551
-0.090589 -0.170362 0.253223
-0.083157 -0.148018 0.263893
-0.062220 0.163060 0.414889
-0.116740 0.149789 0.368839
0.011911 -0.086582 0.354401
0.003116 -0.158125 0.314878
-0.032084 -0.124996 0.303329
-0.043870 -0.029102 0.332279
-0.070255 -0.157484 0.253013
-0.014162 0.140017 0.424428
-0.005075 -0.130957 0.312406
0.025403 -0.171815 0.314825
-0.075664 -0.123116 0.261479
-0.031455 -0.104250 0.301913
-0.061357 0.162964 0.396705
-0.075811 0.162004 0.384074
-0.049031 -0.170290 0.253270
0.006885 -0.161910 0.297963
-0.058159 0.036172 0.334402
-0.061022 -0.135369 0.253007
-0.049559 -0.148837 0.253127
-0.083890 0.162553 0.363694
-0.032710 -0.062764 0.302145
-0.038991 -0.158925 0.253840
-0.005362 -0.142023 0.285614
-0.021563 -0.103777 0.290406
-0.054771 0.078079 0.345130
0.011410 -0.167946 0.283040
-0.041303 -0.138646 0.253126
-0.048680 0.147509 0.373385
-0.000464 -0.169599 0.269029
-0.032505 -0.042187 0.301792
-0.021094 -0.113646 0.277951
-0.050262 0.009002 0.311403
-0.055331 0.128894 0.359590
-0.092811 0.161684 0.345169
-0.026434 -0.123854 0.267892
-0.085387 -0.015834 0.272328
-0.042294 -0.114755 0.258958
-0.083717 0.161802 0.350182
-0.021896 -0.072584 0.290267
-0.009469 -0.173640 0.253718
-0.047076 0.062325 0.329592
-0.032622 -0.022588 0.301791
-0.006986 -0.138148 0.268502
-0.021626 -0.147661 0.253267
-0.021272 -0.094511 0.276822
-0.043909 -0.096178 0.258199
0.059586 0.146809 0.437898
0.010084 -0.166642 0.264452
-0.026135 -0.101800 0.266974
-0.022616 -0.052487 0.289549
0.036914 0.125339 0.409919
-0.050737 -0.046706 0.270423
0.008824 0.156332 0.400962
-0.021990 -0.128587 0.251981
-0.032547 0.003185 0.302288
-0.002050 -0.151233 0.254473
0.000107 -0.083416 0.287110
-0.036350 0.175889 0.372650
-0.044450 -0.063854 0.258174
-0.021923 -0.032350 0.288725
-0.006454 -0.132316 0.255625
-0.033233 0.023500 0.301964
-0.027120 -0.063443 0.266905
-0.107617 0.162581 0.305686
-0.022775 -0.011697 0.289642
-0.022098 -0.044386 0.275721
0.051973 -0.171569 0.272594
0.033000 -0.172526 0.256893
-0.043990 -0.044922 0.257936
-0.033661 0.042874 0.301994
-0.113514 0.161107 0.294484
-0.022758 0.001879 0.288760
0.048797 0.156736 0.406051
0.074847 0.133222 0.413821
0.042056 0.149441 0.396553
0.069243 0.156675 0.413982
-0.123148 0.162103 0.276644
-0.026584 -0.023335 0.266414
0.106341 0.147451 0.435021
-0.033754 0.073616 0.302846
-0.022828 0.023198 0.289115
-0.044378 -0.002676 0.259246
-0.048704 0.163675 0.325363
-0.029488 0.155873 0.335514
-0.027241 -0.003139 0.266539
-0.022966 0.043763 0.289428
-0.072831 0.172852 0.308924
-0.021768 0.012711 0.276270
-0.033474 0.093688 0.302157
-0.054208 0.003701 0.247334
-0.080515 0.077189 0.258884
-0.036508 0.012538 0.259813
-0.130772 0.162175 0.255576
-0.023448 0.062820 0.289605
-0.022305 0.033054 0.275937
-0.033481 0.114568 0.302248
-0.027693 0.023886 0.266269
-0.066280 0.046943 0.248530
-0.044867 0.033361 0.257789
0.095593 0.149511 0.408277
0.130045 0.150016 0.432712
-0.023173 0.082964 0.288914
0.031084 0.161473 0.362207
-0.022667 0.053372 0.275812
-0.045070 0.053605 0.257439
-0.027413 0.043272 0.266143
-0.073373 0.157349 0.280928
-0.033036 0.147217 0.303869
-0.022715 0.073153 0.276110
-0.074070 0.124006 0.260170
0.086374 0.149725 0.385548
-0.027529 0.064001 0.266330
0.130063 0.162807 0.420987
-0.023495 0.114293 0.289361
-0.086712 0.173240 0.266936
-0.073076 0.163412 0.272318
-0.037266 0.073830 0.259579
0.129275 0.149896 0.408733
-0.045513 0.093000 0.257512
-0.027717 0.083848 0.266747
0.081877 0.162498 0.377958
-0.053917 0.156960 0.277724
-0.023424 0.134464 0.289491
-0.022787 0.104289 0.276404
0.129051 0.173137 0.409379
-0.045171 0.113348 0.258443
0.076133 0.150083 0.360292
-0.022900 0.124222 0.276451
-0.027717 0.113497 0.266723
0.129324 0.149487 0.391834
0.013555 0.168252 0.316439
0.078523 0.170497 0.361988
0.070090 0.149830 0.345471
-0.044303 0.146466 0.260219
-0.027278 0.135064 0.267194
-0.086918 0.161428 0.232503
0.129095 0.167709 0.390651
-0.022101 0.157026 0.276502
0.062519 0.149559 0.329010
-0.092191 0.167929 0.221688
0.127066 0.148256 0.370180
-0.096475 0.162186 0.214260
-0.053609 0.179980 0.245373
0.119262 0.148647 0.353380
0.053730 0.149788 0.306837
0.128743 0.171619 0.368600
-0.103247 0.162187 0.193315
0.098019 0.171579 0.340497
0.114269 0.149191 0.341702
0.066484 0.170002 0.314232
0.128565 0.164790 0.351717
-0.111713 0.162575 0.174306
0.042626 0.149906 0.280357
0.106959 0.148585 0.324584
0.129348 0.152185 0.340775
-0.117741 0.162301 0.159611
0.101471 0.149547 0.311025
-0.073015 0.170545 0.191912
-0.108073 0.161714 0.161275
0.051811 0.176799 0.283173
-0.048251 0.161217 0.200011
0.094186 0.149346 0.295304
-0.129223 0.161814 0.130098
0.128723 0.163479 0.319332
-0.057299 0.161561 0.181804
-0.003237 0.171278 0.225385
0.085571 0.150070 0.274665
0.128546 0.150728 0.303620
-0.064707 0.161221 0.162635
0.128035 0.162609 0.293494
0.077866 0.150087 0.251938
-0.072871 0.161331 0.144306
-0.088332 0.169579 0.131539
0.095974 0.177467 0.268171
0.071121 0.149829 0.234837
0.128177 0.148972 0.270961
-0.082463 0.161491 0.119755
0.065481 0.149759 0.220377
-0.092376 0.161936 0.103476
0.121529 0.149373 0.252944
0.058082 0.149685 0.203534
-0.037912 0.168533 0.139725
0.064122 0.175657 0.216810
0.127819 0.170102 0.258928
-0.098667 0.162690 0.084046
0.112922 0.149069 0.232604
0.053358 0.163862 0.195579
0.049066 0.149477 0.181475
0.095107 0.174482 0.222464
0.127851 0.152174 0.233076
0.103377 0.149275 0.212101
0.039956 0.148565 0.164674
-0.107339 0.161212 0.058697
0.005565 0.163532 0.134395
-0.050077 0.162278 0.084874
0.091881 0.149595 0.183003
-0.119725 0.161414 0.030660
0.126732 0.173515 0.217423
-0.101706 0.163303 0.043909
0.126904 0.149960 0.201440
-0.054902 0.170139 0.076790
-0.025156 0.163026 0.093958
-0.127602 0.161135 0.011266
0.082788 0.149712 0.162884
-0.061992 0.161852 0.056774
0.098026 0.165925 0.170224
0.076597 0.149451 0.146459
0.126749 0.149895 0.182179
-0.074173 0.168996 0.041821
0.126504 0.166760 0.187503
-0.068108 0.160284 0.037020
0.068414 0.150639 0.123690
0.124763 0.149861 0.162535
0.063335 0.149914 0.111626
0.126679 0.170507 0.166305
-0.082462 0.161493 0.005716
0.046584 0.164281 0.098415
0.116131 0.149100 0.141698
-0.092891 0.170208 -0.007569
0.056192 0.149525 0.093137
0.126235 0.162984 0.141365
0.097197 0.169279 0.123501
-0.096730 0.161061 -0.026405
0.046491 0.149187 0.073596
0.104318 0.149716 0.114147
-0.054255 0.171696 0.007171
-0.104748 0.161488 -0.043815
0.126120 0.173834 0.130756
0.126722 0.151866 0.120872
0.037441 0.148435 0.051462
0.095950 0.150300 0.092799
-0.104035 0.168130 -0.050498
-0.114970 0.162371 -0.065236
0.090824 0.150258 0.081909
0.018139 0.170172 0.034596
-0.053386 0.161472 -0.030740
0.125817 0.160910 0.100729
0.084966 0.150379 0.065086
-0.121774 0.161592 -0.085532
-0.065907 0.161602 -0.042570
0.125846 0.150050 0.091399
-0.130246 0.162297 -0.101996
0.083576 0.167331 0.057459
-0.035039 0.161486 -0.035442
0.076557 0.150151 0.042402
0.071635 0.149902 0.031060
-0.110837 0.166932 -0.098702
-0.070034 0.161322 -0.071108
0.123339 0.148861 0.063262
-0.077678 0.162034 -0.087533
0.063350 0.149463 0.009741
0.125368 0.169118 0.062106
0.110015 0.149365 0.031625
0.125811 0.153096 0.042332
-0.091876 0.162210 -0.118232
0.050271 0.149608 -0.017985
0.125279 0.173526 0.043009
0.101242 0.150305 0.011514
0.035843 0.166624 -0.030186
-0.043028 0.159626 -0.093724
-0.101697 0.162713 -0.139405
0.041297 0.149759 -0.038143
0.125417 0.161818 0.028947
0.095118 0.162525 0.006617
0.125522 0.151535 0.019124
-0.094283 0.167854 -0.139721
0.093325 0.149451 -0.009125
-0.107961 0.162159 -0.157933
0.032299 0.149247 -0.058822
0.088260 0.149935 -0.019805
0.124695 0.165913 0.010059
-0.005557 -0.146150 -0.236538
0.124936 0.150342 0.000494
0.021645 0.167022 -0.068531
-0.054963 0.162401 -0.132091
-0.118042 0.162993 -0.180226
-0.024218 -0.126483 -0.248633
-0.070292 -0.168516 -0.310606
0.077505 0.150200 -0.046409
-0.060588 0.161288 -0.145976
0.010012 -0.161926 -0.248283
-0.125692 0.162457 -0.198937
0.124091 0.150274 -0.016598
-0.032114 -0.119071 -0.263492
-0.002593 -0.131243 -0.248532
-0.102481 0.167443 -0.183475
0.002929 0.170617 -0.101906
0.093116 0.160009 -0.039968
-0.070567 -0.143629 -0.310866
0.067803 0.150535 -0.066501
-0.067728 0.160664 -0.164583
-0.130116 0.161520 -0.213130
0.021974 -0.169987 -0.256595
-0.032141 -0.086459 -0.262890
-0.072052 -0.125158 -0.312275
-0.041995 -0.168529 -0.311083
-0.003216 -0.136518 -0.267377
0.123741 0.168523 -0.030664
-0.076822 0.160930 -0.186066
0.060435 0.149915 -0.087188
-0.072712 0.165853 -0.179718
-0.041879 -0.145816 -0.310597
-0.023154 -0.100768 -0.274132
0.012673 -0.168345 -0.279748
-0.000652 -0.148722 -0.281589
-0.021748 -0.115005 -0.283178
0.055560 0.150475 -0.099021
-0.032211 -0.054018 -0.262871
0.007649 -0.158687 -0.282964
0.123408 0.152536 -0.048292
0.029735 -0.171944 -0.273552
-0.069094 -0.117215 -0.322800
-0.043392 -0.124134 -0.308911
-0.026245 -0.067484 -0.268173
-0.087329 0.161521 -0.206962
-0.106831 0.160972 -0.222280
-0.014426 -0.170713 -0.311128
0.104739 0.149220 -0.067693
-0.028467 -0.124885 -0.299671
-0.002899 -0.126329 -0.282896
-0.032516 -0.038405 -0.262518
0.035727 -0.173764 -0.275397
0.003507 -0.153948 -0.293729
0.065249 0.161755 -0.096489
0.046757 0.150327 -0.119116
-0.032954 -0.024075 -0.262300
-0.038009 -0.067682 -0.287450
-0.021143 -0.083954 -0.283384
-0.094026 0.162160 -0.223940
0.096130 0.149785 -0.085804
-0.044306 -0.096055 -0.310495
-0.025451 -0.099490 -0.297708
-0.032941 -0.007527 -0.261534
-0.088391 0.168989 -0.221763
0.010430 -0.162881 -0.306442
0.000014 -0.152826 -0.311054
-0.028818 -0.087135 -0.302024
0.036175 0.167507 -0.131459
-0.014608 -0.131331 -0.313530
-0.008954 -0.156854 -0.321629
-0.045318 -0.068972 -0.309067
0.033906 0.149308 -0.147200
-0.104471 0.161420 -0.247336
-0.022957 -0.064318 -0.293633
-0.021589 -0.047650 -0.284274
0.086694 0.150387 -0.108867
0.022850 -0.170787 -0.311636
-0.026471 0.007133 -0.266828
0.122987 0.165459 -0.079996
0.123087 0.150433 -0.088065
-0.045268 -0.047519 -0.309897
-0.029160 -0.053995 -0.301866
-0.063204 -0.052023 -0.329620
-0.033622 0.045367 -0.261517
-0.026933 0.023273 -0.266858
-0.029459 -0.037507 -0.301331
-0.045759 -0.025391 -0.309531
-0.022082 -0.009010 -0.283475
-0.013127 -0.106663 -0.325040
0.075039 0.150496 -0.135784
-0.023677 -0.023448 -0.293007
-0.056529 0.163478 -0.229875
-0.033685 0.062411 -0.260901
0.087934 0.168208 -0.122134
-0.046309 -0.008505 -0.309340
0.019321 0.167165 -0.174607
0.122125 0.149030 -0.110037
-0.034030 0.082997 -0.260626
-0.029618 -0.006741 -0.302001
-0.125521 0.160686 -0.297572
-0.046666 0.013287 -0.307023
-0.067032 0.163754 -0.251743
-0.044146 -0.049208 -0.337770
-0.023557 0.014179 -0.291850
0.065250 0.150023 -0.160611
0.122353 0.169126 -0.109209
-0.027687 0.036413 -0.285263
-0.033678 0.100810 -0.260866
-0.045882 0.031963 -0.307939
-0.052504 0.175769 -0.247208
-0.046235 0.045041 -0.306430
-0.033698 0.123457 -0.260382
0.109026 0.149535 -0.139390
-0.024159 0.044903 -0.291034
0.057171 0.149983 -0.179273
-0.021562 0.067205 -0.281472
0.122043 0.167652 -0.130547
-0.045701 0.062963 -0.306807
-0.022119 0.082521 -0.281790
0.100942 0.149581 -0.158482
0.049485 0.149832 -0.199594
-0.087716 0.162807 -0.300656
-0.045838 0.084802 -0.305922
-0.026189 0.137152 -0.265885
-0.009477 0.166391 -0.238881
-0.105009 0.161668 -0.316750
0.121832 0.151389 -0.148884
-0.029911 0.110600 -0.284148
-0.021938 0.104510 -0.281048
-0.029764 0.083897 -0.299382
-0.026740 0.154041 -0.266721
-0.046103 0.105611 -0.305911
-0.094942 0.161699 -0.318090
-0.022077 0.121181 -0.282297
-0.046526 0.040452 -0.342340
0.088689 0.150470 -0.187423
-0.029268 0.106139 -0.298580
-0.047074 0.122650 -0.305746
0.035029 0.149045 -0.230781
-0.032050 0.141328 -0.286559
-0.101393 0.161246 -0.331320
0.121139 0.165765 -0.160724
-0.021146 0.144074 -0.280968
-0.029180 0.121552 -0.299260
-0.069163 0.168367 -0.308092
-0.023048 0.159486 -0.277388
0.095260 0.167365 -0.184807
0.049198 0.170322 -0.224162
-0.044096 0.154233 -0.304607
0.120907 0.150202 -0.181542
-0.028420 0.144165 -0.299468
0.075611 0.149845 -0.218793
-0.112774 0.160377 -0.361645
0.120881 0.174099 -0.182591
0.032454 0.166486 -0.252379
-0.059014 0.162076 -0.326446
0.067826 0.149800 -0.235916
-0.013690 0.090499 -0.326743
-0.122285 0.160309 -0.381210
0.113716 0.148630 -0.209714
-0.067419 0.160954 -0.345287
-0.083508 0.164404 -0.359857
0.059541 0.150110 -0.260127
-0.131279 0.159384 -0.405146
0.089445 0.175376 -0.228114
-0.076128 0.160665 -0.364856
0.120371 0.172921 -0.208981
-0.040365 0.141194 -0.350833
0.099435 0.148837 -0.242106
0.051323 0.149894 -0.280122
-0.085325 0.160579 -0.383834
-0.042614 0.160938 -0.350817
0.091106 0.148684 -0.259603
0.119818 0.165429 -0.230718
-0.091224 0.160526 -0.397264
-0.098998 0.162167 -0.405048
0.001816 0.160583 -0.329985
-0.033716 0.162644 -0.356639
0.036841 0.148579 -0.309919
0.084450 0.150163 -0.278158
0.119829 0.150742 -0.251112
-0.006338 0.163728 -0.342872
-0.099686 0.160454 -0.418495
0.028665 0.147951 -0.330616
-0.110013 0.157583 -0.439885
0.119206 0.174011 -0.254459
0.118761 0.149874 -0.269775
-0.054151 0.158237 -0.398967
0.095526 0.166055 -0.284835
0.070688 0.149189 -0.312145
-0.062200 0.160243 -0.416150
-0.078709 0.153160 -0.435109
0.109771 0.148955 -0.292771
0.118677 0.172185 -0.282157
0.058408 0.149161 -0.341091
-0.071542 0.159687 -0.436669
0.101874 0.148535 -0.309430
0.023134 0.159746 -0.365611
0.117759 0.165760 -0.301719
0.092448 0.148674 -0.332277
0.084084 0.169580 -0.328814
-0.029527 0.158406 -0.422544
0.045331 0.148531 -0.370284
-0.003311 0.160247 -0.404324
0.118254 0.150128 -0.323095
0.035497 0.147712 -0.392091
0.080741 0.148885 -0.358908
0.117214 0.173107 -0.321114
0.065046 0.161512 -0.367155
0.117254 0.162851 -0.333026
0.082276 0.170430 -0.356628
0.026817 0.146883 -0.411085
0.116559 0.148644 -0.342695
0.011874 0.150910 -0.426758
0.067771 0.148426 -0.390499
0.089657 0.161657 -0.370886
0.106129 0.147576 -0.369580
0.116742 0.170875 -0.351951
0.056558 0.148674 -0.419825
0.077766 0.158788 -0.398248
0.067666 0.157208 -0.409614
0.116550 0.165066 -0.371345
0.092813 0.147791 -0.402007
0.040220 0.146657 -0.452116
0.115963 0.149837 -0.392947
0.083097 0.148371 -0.420324
0.115717 0.173514 -0.387289
0.114666 0.147910 -0.409577
0.071234 0.146940 -0.448978
0.059780 0.160124 -0.452118
0.109108 0.147831 -0.429469
0.113905 0.169815 -0.419918
0.097734 0.146114 -0.450171
0.112819 0.161089 -0.450505
