-0.020357 0.173668 -0.328803
-0.007942 0.172631 -0.317055
-0.002642 0.173257 -0.265200
-0.048425 0.172540 -0.342712
-0.014497 0.172226 -0.249375
-0.073534 0.173481 -0.338483
-0.039153 0.171948 -0.277208
-0.068151 0.170408 -0.308322
-0.034416 0.178315 -0.290227
-0.060097 0.173276 -0.324538
0.017452 0.171630 -0.281309
0.012601 0.173110 -0.340334
-0.020645 0.177159 -0.309874
0.016290 0.175024 -0.341599
0.023353 0.175560 -0.320452
0.006551 0.175664 -0.302780
-0.029677 0.176392 -0.390247
-0.037882 0.176101 -0.315646
0.028250 0.175345 -0.382280
-0.019033 0.175341 -0.357581
0.008304 0.176361 -0.389660
0.004838 0.174479 -0.354285
-0.049801 0.176602 -0.360184
-0.025764 0.176687 -0.335311
-0.005064 0.177455 -0.369775
0.049339 0.175869 -0.352481
-0.009011 0.174135 -0.286742
-0.009078 0.175129 -0.341143
0.039842 0.177331 -0.369515
0.035017 0.174433 -0.335662
-0.041691 0.176263 -0.292901
-0.049494 0.177422 -0.331938
0.013858 0.176176 -0.370529
0.027260 0.176057 -0.358842
0.032514 0.176691 -0.302767
-0.014814 0.174996 -0.384748
0.021237 0.175323 -0.287804
-0.041761 0.176715 -0.381285
-0.006039 0.174940 -0.317682
-0.034754 0.172644 -0.349314
0.001445 0.178399 -0.331126
-0.028364 0.176223 -0.367969
0.049388 0.174203 -0.320110
0.044703 0.176411 -0.387545
-0.021972 0.153719 -0.288676
0.010451 0.152555 -0.295764
0.019751 0.152105 -0.288510
0.003848 0.152121 -0.279265
-0.030873 0.153028 -0.327452
-0.033594 0.152666 -0.284879
0.020636 0.153001 -0.321209
-0.013469 0.152744 -0.308708
0.005761 0.153191 -0.326079
0.003932 0.151600 -0.304600
-0.058587 0.153044 -0.308276
-0.030601 0.153675 -0.297874
-0.004648 0.153093 -0.317735
0.041141 0.151608 -0.306280
-0.013859 0.152060 -0.272012
-0.011500 0.152913 -0.298372
0.032298 0.153237 -0.313662
0.028218 0.151780 -0.297836
-0.045463 0.152952 -0.274649
-0.053136 0.153242 -0.292751
0.009556 0.153033 -0.314732
0.020407 0.152880 -0.307676
0.027061 0.153059 -0.277432
-0.015460 0.153013 -0.327370
0.014076 0.152564 -0.268627
-0.045355 0.153209 -0.318603
-0.006206 0.152092 -0.287612
-0.032549 0.152354 -0.307172
-0.002482 0.154587 -0.296812
-0.024418 0.152935 -0.315573
0.038203 0.152481 -0.291144
0.034113 0.151461 -0.324208
0.076836 0.152444 -0.276847
0.096871 0.152239 -0.263326
0.104919 0.152008 -0.264842
0.089958 0.152039 -0.255547
0.074521 0.152103 -0.301540
0.074086 0.152604 -0.262121
0.101010 0.151938 -0.292878
0.085983 0.152290 -0.282763
0.097499 0.151337 -0.303563
0.097493 0.152371 -0.273858
0.065065 0.151927 -0.281663
0.070154 0.152264 -0.273109
0.089535 0.152017 -0.291930
0.112199 0.151526 -0.280002
0.080658 0.151608 -0.249784
0.082739 0.152391 -0.266883
0.109291 0.152195 -0.289058
0.108149 0.151276 -0.274350
0.070502 0.151928 -0.253251
0.062470 0.151895 -0.266855
0.094228 0.152157 -0.283581
0.103238 0.152805 -0.282002
0.105255 0.152101 -0.253927
0.084126 0.152483 -0.300437
0.096583 0.152410 -0.246771
0.069613 0.152213 -0.293058
0.090502 0.151575 -0.264723
0.080806 0.151362 -0.275701
0.088684 0.153162 -0.274003
0.079942 0.151820 -0.289470
0.111954 0.151908 -0.265457
0.107967 0.151751 -0.300067
0.122299 0.151809 -0.218801
0.122234 0.152356 -0.245868
0.123010 0.153313 -0.240452
0.122322 0.153067 -0.208293
0.119800 0.151148 -0.293492
0.117806 0.151214 -0.230407
0.121858 0.155653 -0.288977
0.122305 0.152050 -0.256853
0.122138 0.152966 -0.304687
0.122475 0.157403 -0.262005
0.107569 0.151877 -0.261744
0.121422 0.152635 -0.236228
0.119961 0.151253 -0.262034
0.120461 0.152078 -0.252553
0.121025 0.154095 -0.190905
0.123111 0.155890 -0.241989
0.120424 0.152328 -0.277378
0.121615 0.158479 -0.246085
0.117167 0.157188 -0.215940
0.112481 0.151878 -0.249019
0.121519 0.150799 -0.264065
0.121919 0.154158 -0.267622
0.120730 0.151411 -0.220244
0.122136 0.156144 -0.268693
0.119615 0.151639 -0.199017
0.117125 0.151335 -0.282149
0.123531 0.153385 -0.231445
0.122408 0.161219 -0.255733
0.117835 0.150930 -0.244422
0.120990 0.158438 -0.273435
0.120510 0.156243 -0.224518
0.121174 0.153234 -0.278360
-0.020321 0.177582 -0.311921
0.015600 0.176100 -0.337738
0.021423 0.175674 -0.320083
0.005966 0.176443 -0.307309
-0.028487 0.176926 -0.383875
-0.034776 0.176246 -0.317424
0.024434 0.175512 -0.375738
-0.017336 0.176399 -0.351356
0.005931 0.176700 -0.383019
0.004375 0.175988 -0.347555
-0.049396 0.176248 -0.353423
-0.022454 0.176913 -0.332458
-0.004735 0.177692 -0.363591
0.043783 0.176726 -0.347678
-0.007324 0.175671 -0.294958
-0.007541 0.175977 -0.337802
0.036184 0.177464 -0.361662
0.032027 0.175599 -0.333161
-0.039461 0.176857 -0.299359
-0.046408 0.177813 -0.329164
0.012503 0.176673 -0.363582
0.024268 0.176272 -0.353544
0.031291 0.177029 -0.306781
-0.014764 0.175190 -0.377058
0.019164 0.176569 -0.295662
-0.041248 0.176477 -0.373020
-0.007558 0.175575 -0.319223
-0.032255 0.173999 -0.344606
0.001683 0.178263 -0.328807
-0.026691 0.176377 -0.360322
0.046224 0.175720 -0.321938
0.041729 0.176641 -0.377655
-0.109954 0.165083 -0.403052
-0.091470 0.164842 -0.404710
-0.083592 0.164121 -0.399431
-0.098147 0.164133 -0.387466
-0.114429 0.164947 -0.440106
-0.115973 0.165106 -0.394768
-0.084149 0.164525 -0.431707
-0.104711 0.164736 -0.420214
-0.092219 0.163971 -0.438653
-0.092973 0.164499 -0.414978
-0.122843 0.164833 -0.420296
-0.117357 0.165437 -0.407798
-0.101273 0.165411 -0.429272
-0.070978 0.163983 -0.416604
-0.108073 0.163693 -0.376603
-0.105038 0.164605 -0.406655
-0.075691 0.165325 -0.426085
-0.077154 0.163497 -0.408951
-0.118440 0.164404 -0.383021
-0.125223 0.164852 -0.404065
-0.092973 0.165008 -0.424426
-0.083621 0.165175 -0.419675
-0.082063 0.164563 -0.387150
-0.105193 0.164790 -0.438396
-0.089200 0.164803 -0.376207
-0.118660 0.164837 -0.432973
-0.098438 0.163742 -0.397770
-0.111489 0.163465 -0.415392
-0.099868 0.166531 -0.407791
-0.110523 0.164309 -0.426978
-0.071500 0.164188 -0.397764
-0.076160 0.164385 -0.437078
-0.044180 0.154262 -0.311895
-0.008529 0.153256 -0.318358
0.001443 0.152503 -0.311584
-0.015414 0.152507 -0.303450
-0.054732 0.153738 -0.349726
-0.057030 0.152999 -0.308256
0.003553 0.153695 -0.344038
-0.035773 0.153282 -0.331052
-0.014904 0.154039 -0.347962
-0.016364 0.152112 -0.327198
-0.084591 0.153487 -0.330552
-0.053076 0.154066 -0.320893
-0.025521 0.153725 -0.339906
0.027723 0.152238 -0.329136
-0.034960 0.152508 -0.297835
-0.032426 0.153228 -0.321343
0.016346 0.153961 -0.335098
0.011586 0.152459 -0.320433
-0.070244 0.153310 -0.299268
-0.077833 0.154089 -0.315372
-0.009471 0.153418 -0.337582
0.002520 0.153458 -0.330239
0.010689 0.153806 -0.301413
-0.037976 0.153353 -0.349306
-0.004605 0.152984 -0.293609
-0.070076 0.153657 -0.340702
-0.028443 0.152609 -0.310832
-0.056742 0.152855 -0.329859
-0.023639 0.155188 -0.319285
-0.046869 0.153531 -0.338024
0.023802 0.153125 -0.314723
0.019448 0.152378 -0.345674
-0.126246 0.165151 -0.435357
-0.114339 0.163484 -0.449226
-0.103066 0.174905 -0.444970
-0.113316 0.174171 -0.434247
-0.129675 0.161415 -0.450502
-0.128637 0.170468 -0.442002
-0.089075 0.175566 -0.449619
-0.122899 0.167779 -0.448844
-0.113998 0.169698 -0.450162
-0.109048 0.178638 -0.448104
-0.130724 0.171699 -0.445009
-0.127970 0.157097 -0.443332
-0.124661 0.158451 -0.451352
-0.063472 0.165775 -0.449860
-0.123379 0.174494 -0.417398
-0.113182 0.175908 -0.445590
-0.089602 0.159237 -0.451638
-0.076199 0.176250 -0.446241
-0.129046 0.176894 -0.426835
-0.131545 0.159188 -0.444563
-0.104669 0.165065 -0.452154
-0.096772 0.170592 -0.450514
-0.090608 0.172688 -0.442472
-0.119552 0.172815 -0.449502
-0.102097 0.163682 -0.426950
-0.128704 0.170593 -0.450537
-0.122427 0.174464 -0.437444
-0.127081 0.175680 -0.443472
-0.117324 0.158653 -0.448335
-0.120311 0.176047 -0.449339
-0.066312 0.175863 -0.436995
-0.076242 0.166482 -0.450951
0.065078 0.173294 -0.231392
0.094109 0.172523 -0.243365
0.100504 0.172211 -0.235540
0.088288 0.171756 -0.227674
0.054701 0.172828 -0.272148
0.053050 0.172545 -0.232920
0.104639 0.172637 -0.266416
0.068836 0.172742 -0.252413
0.087407 0.173210 -0.270438
0.086835 0.172122 -0.252413
0.029195 0.172099 -0.254325
0.058720 0.173380 -0.242956
0.078364 0.171931 -0.260545
0.116823 0.171454 -0.251582
0.074402 0.171612 -0.220735
0.076312 0.173794 -0.245553
0.112282 0.172790 -0.258120
0.109849 0.171504 -0.242897
0.044266 0.172024 -0.223547
0.037505 0.173239 -0.240621
0.093238 0.172474 -0.260885
0.102173 0.172903 -0.254022
0.107338 0.172702 -0.226543
0.069331 0.172736 -0.268035
0.097936 0.172135 -0.217829
0.042726 0.172523 -0.264266
0.075035 0.171966 -0.235218
0.051213 0.172811 -0.251953
0.083537 0.172196 -0.241010
0.061263 0.172677 -0.259173
0.116835 0.171807 -0.236357
0.114900 0.171419 -0.267447
0.122721 0.151383 -0.230984
0.122571 0.152071 -0.261357
0.123264 0.152510 -0.254319
0.122541 0.152731 -0.218984
0.120930 0.150833 -0.308025
0.119365 0.150768 -0.244037
0.122195 0.154408 -0.303203
0.122692 0.151386 -0.271934
0.122432 0.152455 -0.318598
0.122864 0.155611 -0.276688
0.111048 0.150994 -0.277093
0.122397 0.152469 -0.250302
0.120444 0.150854 -0.277541
0.120938 0.151691 -0.267703
0.121304 0.152745 -0.198232
0.123522 0.154534 -0.256346
0.120837 0.151992 -0.292710
0.121971 0.156449 -0.260639
0.119019 0.155779 -0.226620
0.115067 0.151407 -0.263891
0.121856 0.150538 -0.279484
0.122351 0.153329 -0.282638
0.120725 0.151040 -0.232855
0.122313 0.154960 -0.284110
0.119984 0.151573 -0.208770
0.118773 0.150758 -0.297392
0.123682 0.152676 -0.244442
0.123045 0.158990 -0.270436
0.118551 0.151013 -0.259609
0.121502 0.156396 -0.288323
0.120876 0.155082 -0.237675
0.121491 0.152757 -0.293261
-0.035526 0.157944 -0.351741
-0.002328 0.156471 -0.377806
0.009116 0.156688 -0.359005
-0.011142 0.155895 -0.340542
-0.043409 0.157781 -0.422399
-0.048552 0.157668 -0.355503
0.013238 0.156581 -0.412004
-0.029097 0.157334 -0.393047
-0.008207 0.156474 -0.420203
-0.009998 0.156679 -0.390344
-0.060946 0.156887 -0.394798
-0.043024 0.157845 -0.374172
-0.021310 0.157514 -0.405031
0.045706 0.156387 -0.388270
-0.026593 0.155658 -0.322898
-0.027365 0.156297 -0.377199
0.028531 0.158243 -0.403247
0.023056 0.155261 -0.374500
-0.050954 0.156728 -0.334932
-0.060153 0.157926 -0.373104
-0.003253 0.157385 -0.403178
0.012235 0.158471 -0.391369
0.017102 0.157352 -0.341852
-0.029749 0.157377 -0.418304
0.004402 0.158118 -0.322768
-0.052952 0.158143 -0.412372
-0.019338 0.155935 -0.357370
-0.041878 0.156005 -0.388222
-0.016449 0.158328 -0.371593
-0.040079 0.156736 -0.403156
0.038974 0.156107 -0.356801
0.035285 0.156789 -0.421031
0.027863 0.174620 -0.240521
0.071953 0.171996 -0.283531
0.079325 0.172382 -0.260375
0.063858 0.172969 -0.243013
0.018794 0.173665 -0.336585
0.009570 0.172146 -0.255111
0.084148 0.173307 -0.328186
0.032830 0.173335 -0.297610
0.060252 0.174951 -0.335112
0.057899 0.171473 -0.295586
-0.012921 0.173246 -0.300765
0.026578 0.174705 -0.271596
0.047957 0.174902 -0.310441
0.105766 0.172743 -0.292128
0.044676 0.171563 -0.226427
0.044600 0.173032 -0.283596
0.098420 0.174468 -0.311249
0.094112 0.172090 -0.274802
-0.000067 0.173879 -0.232008
-0.006831 0.173758 -0.270430
0.070292 0.173951 -0.312913
0.083625 0.172362 -0.300285
0.092336 0.173456 -0.242675
0.033101 0.172730 -0.327339
0.078515 0.172081 -0.226383
-0.001070 0.173367 -0.324790
0.043517 0.172355 -0.256451
0.009344 0.171610 -0.292111
0.055952 0.175767 -0.268330
0.019368 0.173802 -0.308530
0.108184 0.172081 -0.261494
0.103436 0.172825 -0.327047
0.051862 0.152277 -0.307156
0.073456 0.152019 -0.295805
0.081894 0.151475 -0.296657
0.066231 0.151643 -0.288396
0.048435 0.151963 -0.330455
0.048037 0.152236 -0.294107
0.078845 0.151877 -0.322767
0.060942 0.152063 -0.313508
0.073302 0.151415 -0.331200
0.072983 0.151736 -0.305560
0.035617 0.151896 -0.312459
0.044450 0.152323 -0.304535
0.065007 0.151923 -0.321815
0.092113 0.151279 -0.310845
0.055624 0.151416 -0.283548
0.058283 0.152092 -0.299338
0.087618 0.152130 -0.318117
0.085942 0.151059 -0.305267
0.042622 0.151735 -0.285639
0.034931 0.151980 -0.298638
0.071220 0.152058 -0.315129
0.080251 0.152320 -0.312371
0.083457 0.151900 -0.286748
0.059164 0.152170 -0.330588
0.073994 0.152168 -0.279708
0.042128 0.152209 -0.322485
0.065862 0.151277 -0.296968
0.053693 0.151161 -0.307884
0.064590 0.152831 -0.305104
0.054428 0.151707 -0.319969
0.091420 0.151770 -0.297315
0.086619 0.151374 -0.328614
-0.049800 0.161138 -0.359748
-0.022816 0.160707 -0.402224
-0.011416 0.164389 -0.380674
-0.027288 0.161339 -0.354313
-0.055641 0.160308 -0.436051
-0.063490 0.163156 -0.376346
-0.002743 0.163580 -0.430497
-0.049586 0.161512 -0.411432
-0.027313 0.162610 -0.435928
-0.028795 0.168393 -0.414625
-0.070373 0.164607 -0.415208
-0.053867 0.161301 -0.390376
-0.040933 0.160592 -0.419516
0.029952 0.161534 -0.405512
-0.041342 0.163147 -0.330227
-0.041596 0.164488 -0.396617
0.009406 0.162420 -0.417946
0.006674 0.164969 -0.396344
-0.063331 0.165212 -0.350867
-0.069731 0.160885 -0.396368
-0.021316 0.161343 -0.424432
-0.006236 0.163298 -0.412083
-0.002131 0.160361 -0.363575
-0.044014 0.164290 -0.432071
-0.010076 0.161590 -0.334023
-0.065443 0.162900 -0.430216
-0.039104 0.162983 -0.373865
-0.058041 0.168118 -0.405978
-0.031658 0.163282 -0.388940
-0.055747 0.167074 -0.424000
0.022263 0.163182 -0.368827
0.019037 0.162001 -0.432934
-0.095848 0.155173 -0.437619
-0.056401 0.154487 -0.454711
-0.040577 0.156979 -0.451887
-0.058737 0.155682 -0.444202
-0.108552 0.155768 -0.454884
-0.107037 0.156487 -0.448192
-0.018455 0.159516 -0.455344
-0.093242 0.155408 -0.454430
-0.066791 0.156609 -0.453853
-0.059883 0.162823 -0.456398
-0.125445 0.156590 -0.454815
-0.101107 0.154113 -0.449800
-0.080023 0.156353 -0.451611
0.030409 0.156468 -0.452144
-0.083282 0.156838 -0.436578
-0.073289 0.157331 -0.453968
-0.004426 0.156564 -0.450932
-0.004533 0.160399 -0.454140
-0.113775 0.157496 -0.439872
-0.120199 0.154104 -0.448308
-0.044624 0.154954 -0.455383
-0.028349 0.155613 -0.454972
-0.019543 0.156660 -0.447698
-0.085279 0.157901 -0.455928
-0.036792 0.154542 -0.434699
-0.113696 0.157572 -0.455204
-0.090485 0.157126 -0.448145
-0.109896 0.162349 -0.453026
-0.069089 0.157326 -0.446388
-0.094107 0.160228 -0.456164
0.015675 0.156214 -0.445343
0.009170 0.156747 -0.451688
0.093055 0.152581 -0.270042
0.112051 0.152484 -0.282768
0.116977 0.152085 -0.273158
0.107778 0.152146 -0.261083
0.087904 0.152538 -0.319473
0.084378 0.152320 -0.268968
0.115150 0.152717 -0.312456
0.097889 0.152397 -0.295332
0.110227 0.152548 -0.321729
0.109447 0.152197 -0.291330
0.072174 0.152701 -0.296086
0.087565 0.152709 -0.281333
0.102591 0.152833 -0.304857
0.121130 0.151768 -0.292166
0.098830 0.152023 -0.249943
0.099636 0.152824 -0.283625
0.121312 0.152614 -0.305926
0.121488 0.152091 -0.283140
0.079603 0.152709 -0.256048
0.072985 0.152396 -0.279882
0.110608 0.152684 -0.301568
0.118044 0.152461 -0.296798
0.119206 0.152572 -0.260628
0.097683 0.152734 -0.314099
0.113669 0.152583 -0.250072
0.078783 0.152497 -0.310653
0.102529 0.151837 -0.270339
0.087031 0.152060 -0.290767
0.105566 0.153892 -0.280770
0.090290 0.152470 -0.302555
0.123299 0.152318 -0.273172
0.120694 0.151763 -0.315551
0.045118 0.173228 -0.258361
0.088777 0.172427 -0.275252
0.096813 0.172329 -0.266193
0.083600 0.171611 -0.259346
0.029907 0.172850 -0.302727
0.028915 0.172510 -0.264878
0.102068 0.172747 -0.298253
0.052238 0.172445 -0.283063
0.078122 0.173186 -0.300320
0.078346 0.172294 -0.283855
-0.006886 0.172069 -0.284113
0.039839 0.173050 -0.273324
0.067317 0.171835 -0.291452
0.117328 0.170994 -0.281613
0.065192 0.171484 -0.252908
0.064939 0.173557 -0.277213
0.111861 0.172894 -0.289147
0.108504 0.171083 -0.273033
0.014579 0.173176 -0.255537
0.005047 0.173436 -0.271095
0.088871 0.172267 -0.292841
0.099521 0.172351 -0.284325
0.108278 0.172716 -0.256592
0.052219 0.172598 -0.298600
0.095565 0.171931 -0.249493
0.010888 0.172085 -0.294825
0.058348 0.171745 -0.265547
0.023384 0.172557 -0.283989
0.075120 0.172344 -0.271068
0.040737 0.172737 -0.289678
0.117591 0.171598 -0.267242
0.115666 0.170692 -0.297722
0.031509 0.152790 -0.336849
0.055835 0.152374 -0.326987
0.064951 0.151781 -0.327360
0.048450 0.151842 -0.319707
0.026431 0.152565 -0.360169
0.026321 0.152535 -0.324763
0.062724 0.152559 -0.353145
0.040792 0.152470 -0.343809
0.054692 0.152104 -0.360257
0.054344 0.152192 -0.336499
0.009590 0.152326 -0.342491
0.023175 0.152865 -0.335219
0.045853 0.152497 -0.351996
0.078719 0.151638 -0.341390
0.036194 0.151619 -0.315735
0.038781 0.152444 -0.330712
0.072499 0.152867 -0.347878
0.070088 0.151461 -0.335556
0.018839 0.152030 -0.316777
0.010873 0.152631 -0.329182
0.053763 0.152465 -0.346186
0.063501 0.152787 -0.342541
0.067855 0.152407 -0.317796
0.038661 0.152644 -0.360935
0.056899 0.152483 -0.311403
0.018523 0.152729 -0.352202
0.045713 0.151661 -0.327638
0.031094 0.151644 -0.339152
0.045465 0.153705 -0.335383
0.033446 0.152155 -0.350287
0.077192 0.152229 -0.328215
0.072335 0.151857 -0.358450
-0.073420 0.178000 -0.425867
-0.025686 0.176940 -0.446448
-0.017613 0.176034 -0.437086
-0.036051 0.176353 -0.425463
-0.083840 0.170650 -0.455472
-0.087785 0.177253 -0.432006
0.004869 0.173681 -0.452379
-0.067073 0.175317 -0.448078
-0.039081 0.170776 -0.452893
-0.040790 0.174967 -0.446809
-0.102766 0.173689 -0.447726
-0.075803 0.174354 -0.445466
-0.055354 0.174196 -0.452283
0.046505 0.175128 -0.447352
-0.061370 0.174857 -0.408271
-0.051334 0.175590 -0.442987
0.014151 0.174939 -0.452156
0.013009 0.174490 -0.439058
-0.092875 0.176163 -0.413777
-0.097881 0.174946 -0.438804
-0.020242 0.173182 -0.453708
-0.006440 0.175079 -0.448080
0.003658 0.177333 -0.426937
-0.060522 0.172681 -0.454813
-0.011604 0.179033 -0.412613
-0.091092 0.173787 -0.452104
-0.058843 0.176264 -0.429536
-0.088983 0.173860 -0.442495
-0.043807 0.174093 -0.444327
-0.073501 0.172703 -0.450417
0.035244 0.176710 -0.427707
0.030559 0.172009 -0.453114
0.086024 0.152491 -0.296702
0.104727 0.152292 -0.301578
0.110629 0.151793 -0.295710
0.099786 0.151871 -0.285418
0.081342 0.152546 -0.335366
0.078941 0.152146 -0.292149
0.108789 0.152468 -0.328057
0.091518 0.152278 -0.314894
0.103589 0.152162 -0.336748
0.102783 0.152063 -0.310047
0.066622 0.152528 -0.314976
0.079990 0.152590 -0.303573
0.095831 0.152609 -0.323550
0.117150 0.151506 -0.311952
0.090603 0.151725 -0.275856
0.092109 0.152437 -0.303279
0.115547 0.152508 -0.322372
0.115100 0.151508 -0.304749
0.073908 0.152294 -0.280886
0.067192 0.152239 -0.300397
0.103309 0.152472 -0.319200
0.110856 0.152459 -0.315091
0.112477 0.152234 -0.284726
0.091094 0.152650 -0.332116
0.106338 0.152352 -0.274925
0.073680 0.152506 -0.327147
0.096241 0.151553 -0.294016
0.082230 0.151787 -0.310325
0.097933 0.153496 -0.302992
0.084718 0.152180 -0.321454
0.118338 0.151807 -0.295663
0.114979 0.151642 -0.332033
-0.034656 0.179887 -0.335424
0.002674 0.176915 -0.360534
0.009341 0.177173 -0.342621
-0.008514 0.177295 -0.328310
-0.042350 0.178374 -0.408478
-0.049170 0.177481 -0.338119
0.012224 0.176989 -0.399005
-0.031600 0.178218 -0.375544
-0.009384 0.178548 -0.405259
-0.010587 0.176528 -0.371018
-0.064219 0.177635 -0.377353
-0.036178 0.178158 -0.355148
-0.019253 0.179050 -0.388191
0.036031 0.177927 -0.370035
-0.024933 0.175829 -0.315446
-0.022217 0.176990 -0.360809
0.027704 0.178925 -0.382785
0.021318 0.176955 -0.355546
-0.055360 0.177186 -0.319323
-0.059314 0.179192 -0.351180
-0.001645 0.177654 -0.387402
0.012047 0.177505 -0.377115
0.020000 0.178256 -0.328082
-0.030612 0.176229 -0.401978
0.006265 0.177291 -0.315832
-0.054662 0.177851 -0.398682
-0.020715 0.176239 -0.340002
-0.047089 0.174832 -0.369092
-0.014060 0.180936 -0.351545
-0.041222 0.177118 -0.384103
0.039202 0.176620 -0.343614
0.032592 0.178426 -0.397743
0.119662 0.173829 -0.226320
0.120011 0.169680 -0.270399
0.119835 0.171719 -0.259148
0.120504 0.173822 -0.198904
0.121387 0.172815 -0.368357
0.117688 0.174051 -0.243797
0.118128 0.173487 -0.358510
0.119706 0.174972 -0.297981
0.119845 0.172703 -0.385462
0.120490 0.169191 -0.306813
0.115154 0.174854 -0.312430
0.121694 0.173801 -0.257387
0.120000 0.167647 -0.313403
0.118327 0.170142 -0.287539
0.119640 0.173327 -0.172906
0.118160 0.175124 -0.262565
0.119499 0.168936 -0.343636
0.119017 0.174024 -0.274023
0.115674 0.173763 -0.207758
0.116472 0.171860 -0.285134
0.120184 0.170918 -0.311814
0.119991 0.171077 -0.327216
0.120995 0.168957 -0.221451
0.118248 0.175236 -0.322000
0.119548 0.170640 -0.187483
0.117215 0.173042 -0.352170
0.119467 0.175411 -0.239687
0.116464 0.173590 -0.287609
0.118517 0.166028 -0.275410
0.114796 0.172125 -0.330498
0.118440 0.171331 -0.232655
0.119368 0.171015 -0.338593
0.086650 0.152417 -0.331753
0.104897 0.152154 -0.321516
0.112064 0.151788 -0.322111
0.098994 0.151774 -0.313965
0.083429 0.152257 -0.356445
0.082989 0.152335 -0.319590
0.108656 0.152098 -0.348532
0.094052 0.152208 -0.338415
0.105158 0.151456 -0.358269
0.104963 0.152334 -0.330813
0.072717 0.152005 -0.337751
0.080020 0.152156 -0.330054
0.097487 0.152125 -0.346857
0.118067 0.151511 -0.335670
0.090478 0.151402 -0.308304
0.092168 0.152155 -0.324854
0.116120 0.152231 -0.344150
0.115209 0.151164 -0.330500
0.079157 0.151900 -0.311221
0.071401 0.151930 -0.323959
0.102604 0.152161 -0.339952
0.110878 0.152679 -0.337924
0.112512 0.152002 -0.312240
0.092775 0.152453 -0.354685
0.105126 0.152244 -0.305779
0.078144 0.152302 -0.348781
0.098067 0.151496 -0.321600
0.088227 0.151561 -0.332385
0.097403 0.153347 -0.329766
0.088324 0.151819 -0.344663
0.118568 0.151724 -0.322110
0.114779 0.151889 -0.354490
0.025169 0.176803 -0.271898
0.063146 0.174276 -0.305819
0.069624 0.174146 -0.286723
0.054251 0.174709 -0.271783
0.017833 0.175658 -0.351331
0.010400 0.174439 -0.281493
0.074136 0.174717 -0.343626
0.029411 0.175100 -0.318103
0.052653 0.176027 -0.348955
0.050804 0.173157 -0.316897
-0.008999 0.175357 -0.321052
0.023785 0.176414 -0.296770
0.041904 0.176348 -0.329416
0.094589 0.174980 -0.315731
0.037579 0.173731 -0.256739
0.039512 0.174845 -0.305594
0.086892 0.176273 -0.329462
0.083209 0.173872 -0.299277
0.002186 0.175670 -0.261395
-0.002941 0.176083 -0.295713
0.061184 0.175706 -0.331755
0.073322 0.174546 -0.321510
0.080852 0.175339 -0.271918
0.029584 0.174454 -0.343132
0.067371 0.174575 -0.257771
0.002171 0.175323 -0.341004
0.038801 0.173808 -0.283491
0.010863 0.173109 -0.313270
0.048460 0.176650 -0.294726
0.019305 0.175247 -0.327323
0.096771 0.174240 -0.289027
0.091547 0.174931 -0.343682
-0.025783 0.153564 -0.400070
0.020326 0.150735 -0.442157
0.034966 0.154353 -0.425920
0.016098 0.150175 -0.406682
-0.035753 0.152977 -0.456457
-0.043829 0.152852 -0.419274
0.053740 0.153091 -0.454948
-0.024997 0.151748 -0.445457
0.011427 0.153084 -0.453877
0.010928 0.161434 -0.450109
-0.064351 0.153438 -0.446079
-0.027976 0.154063 -0.432699
-0.006227 0.153097 -0.447979
0.093004 0.153810 -0.440608
-0.007641 0.152821 -0.388434
-0.005769 0.153420 -0.436775
0.068371 0.155658 -0.445547
0.061768 0.157898 -0.436427
-0.050020 0.154121 -0.398579
-0.057976 0.153351 -0.429730
0.026487 0.151798 -0.453605
0.042811 0.153222 -0.445601
0.050476 0.151481 -0.413068
-0.013492 0.154597 -0.459278
0.037470 0.153007 -0.386809
-0.049885 0.153235 -0.452946
-0.011682 0.152183 -0.418684
-0.041782 0.161109 -0.439952
0.004649 0.155308 -0.426853
-0.029335 0.157461 -0.451528
0.082817 0.151793 -0.415706
0.080363 0.153123 -0.455279
-0.006903 0.153614 -0.359160
0.022826 0.152933 -0.357907
0.032909 0.152295 -0.353884
0.015726 0.152237 -0.345399
-0.015790 0.152935 -0.392542
-0.016500 0.152893 -0.350654
0.032251 0.153297 -0.385599
0.002043 0.152976 -0.373750
0.018736 0.153056 -0.391412
0.018023 0.152450 -0.367629
-0.039746 0.152820 -0.373077
-0.016247 0.153713 -0.363528
0.009091 0.153349 -0.383289
0.052672 0.151824 -0.370741
-0.000332 0.152112 -0.340929
0.001844 0.153022 -0.361876
0.044296 0.153934 -0.378305
0.040223 0.152359 -0.362750
-0.027200 0.152538 -0.341931
-0.035409 0.153386 -0.357742
0.020809 0.152866 -0.378307
0.032423 0.153386 -0.372509
0.038767 0.153355 -0.343185
-0.001509 0.153067 -0.392741
0.025278 0.152843 -0.335976
-0.027359 0.153222 -0.383735
0.007780 0.152364 -0.353526
-0.013772 0.152331 -0.370802
0.009646 0.155174 -0.362731
-0.008074 0.152842 -0.380776
0.050291 0.153050 -0.355789
0.045309 0.152259 -0.389356
-0.038199 0.177774 -0.373284
-0.006434 0.175629 -0.398245
-0.001156 0.175515 -0.381910
-0.016567 0.175479 -0.368129
-0.044748 0.176747 -0.436775
-0.051437 0.176031 -0.377546
0.003306 0.174783 -0.429001
-0.035603 0.176290 -0.410078
-0.016099 0.176328 -0.433516
-0.017735 0.175341 -0.407430
-0.064248 0.176056 -0.412003
-0.039498 0.176487 -0.392932
-0.025711 0.177041 -0.420702
0.024970 0.175983 -0.406705
-0.029570 0.174789 -0.354800
-0.027297 0.175403 -0.397869
0.015218 0.176926 -0.417450
0.010363 0.175240 -0.392881
-0.055992 0.176292 -0.359831
-0.060436 0.177546 -0.389983
-0.009312 0.175836 -0.420857
0.001147 0.175878 -0.412287
0.008572 0.176736 -0.368545
-0.034400 0.174550 -0.431650
-0.003169 0.175958 -0.356955
-0.055811 0.175981 -0.428657
-0.026850 0.174985 -0.379686
-0.049173 0.173901 -0.404775
-0.020308 0.178074 -0.390500
-0.043828 0.175522 -0.417687
0.025695 0.175132 -0.382060
0.021479 0.175945 -0.430466
0.120535 0.154346 -0.298761
0.120204 0.152128 -0.313206
0.121210 0.156481 -0.314870
0.120751 0.155103 -0.283121
0.119568 0.150867 -0.362628
0.120232 0.152841 -0.305434
0.120087 0.159424 -0.357685
0.121550 0.154826 -0.327655
0.120283 0.154568 -0.372610
0.120608 0.158450 -0.334335
0.119846 0.156197 -0.332338
0.121266 0.152160 -0.310029
0.119893 0.149989 -0.334005
0.119370 0.152476 -0.320599
0.119906 0.159005 -0.271225
0.121193 0.160523 -0.310734
0.118521 0.151362 -0.347104
0.119118 0.160976 -0.318959
0.120571 0.164397 -0.294496
0.118592 0.150187 -0.323298
0.120204 0.152340 -0.330640
0.120068 0.156081 -0.341126
0.119613 0.151056 -0.295355
0.120188 0.162123 -0.334499
0.118043 0.150811 -0.276880
0.120326 0.153893 -0.353170
0.121097 0.157758 -0.304156
0.121403 0.167086 -0.325052
0.117208 0.150244 -0.318895
0.120251 0.165019 -0.344730
0.119213 0.157021 -0.296293
0.120507 0.152589 -0.344253
-0.033760 0.154301 -0.373580
0.003065 0.153317 -0.381192
0.013470 0.152506 -0.374139
-0.004211 0.152405 -0.365399
-0.045737 0.153685 -0.411744
-0.047403 0.153090 -0.370743
0.015888 0.153960 -0.406092
-0.025328 0.153410 -0.394088
-0.003643 0.153878 -0.409034
-0.004874 0.152796 -0.390074
-0.077390 0.153289 -0.393259
-0.043000 0.154348 -0.383632
-0.015149 0.154034 -0.402853
0.039110 0.152317 -0.391632
-0.023551 0.152433 -0.359167
-0.021228 0.153361 -0.384299
0.028703 0.154470 -0.397862
0.023944 0.152569 -0.382668
-0.061157 0.153129 -0.360567
-0.069846 0.154263 -0.378176
0.001873 0.153258 -0.400485
0.014252 0.153764 -0.393289
0.022544 0.153912 -0.363455
-0.027814 0.153379 -0.412136
0.007429 0.153177 -0.355071
-0.061355 0.153685 -0.403380
-0.018571 0.152713 -0.373018
-0.047439 0.152835 -0.392267
-0.012503 0.156061 -0.381571
-0.036603 0.153527 -0.400594
0.036248 0.153251 -0.376221
0.031355 0.152635 -0.408581
0.072009 0.152490 -0.356773
0.093306 0.152053 -0.347233
0.101500 0.151784 -0.347697
0.086717 0.151676 -0.339823
0.067756 0.152390 -0.380152
0.067598 0.152292 -0.345403
0.098364 0.152313 -0.372948
0.080456 0.152274 -0.363813
0.092710 0.151531 -0.381059
0.092801 0.152356 -0.356512
0.053706 0.152018 -0.362769
0.064577 0.152238 -0.355792
0.084707 0.152160 -0.371944
0.110822 0.151537 -0.361069
0.076758 0.151323 -0.334757
0.078375 0.152169 -0.350756
0.107138 0.152370 -0.368622
0.105377 0.151174 -0.355915
0.062239 0.151855 -0.337061
0.053975 0.152062 -0.349558
0.091133 0.152157 -0.365536
0.100092 0.152768 -0.362850
0.102832 0.152026 -0.337869
0.078628 0.152473 -0.379800
0.093866 0.152249 -0.331656
0.061196 0.152402 -0.372746
0.084552 0.151390 -0.347572
0.072724 0.151555 -0.358640
0.084380 0.153427 -0.355373
0.073815 0.151894 -0.369946
0.110415 0.151819 -0.347741
0.106370 0.151856 -0.378960
0.063933 0.173262 -0.287258
0.093601 0.172333 -0.303257
0.099943 0.172084 -0.293577
0.088105 0.171847 -0.284557
0.053682 0.172909 -0.332222
0.051355 0.172414 -0.290698
0.103411 0.172649 -0.326640
0.067770 0.172672 -0.311781
0.086587 0.173196 -0.330364
0.086075 0.171731 -0.312162
0.027690 0.172182 -0.314078
0.058254 0.173453 -0.301320
0.077477 0.171904 -0.320036
0.115275 0.171226 -0.310735
0.073998 0.171733 -0.276253
0.075744 0.173654 -0.304925
0.111464 0.172593 -0.318461
0.108997 0.171304 -0.301436
0.042540 0.172329 -0.280258
0.035649 0.173390 -0.299434
0.092951 0.172529 -0.320803
0.101909 0.172700 -0.313883
0.107182 0.172598 -0.283813
0.068239 0.172635 -0.327533
0.097737 0.172258 -0.274213
0.040921 0.172548 -0.324483
0.074265 0.172050 -0.292753
0.049509 0.172660 -0.311434
0.083280 0.172405 -0.299434
0.059745 0.172740 -0.318383
0.115791 0.171828 -0.294486
0.113667 0.171251 -0.327668
0.006921 0.176588 -0.318527
0.050594 0.173877 -0.348721
0.058365 0.174201 -0.330213
0.041634 0.174744 -0.315409
-0.003232 0.175741 -0.394216
-0.009572 0.174621 -0.326693
0.061490 0.174753 -0.387033
0.011608 0.175381 -0.363541
0.037700 0.176246 -0.392267
0.036506 0.173622 -0.359949
-0.031760 0.175387 -0.365033
0.005781 0.175424 -0.342988
0.026757 0.175986 -0.375267
0.084951 0.174703 -0.358453
0.022931 0.173520 -0.302320
0.022905 0.174442 -0.349847
0.076723 0.176246 -0.372857
0.071345 0.173623 -0.343019
-0.018582 0.175308 -0.306579
-0.024828 0.176813 -0.339274
0.047145 0.175145 -0.374644
0.061544 0.174519 -0.365099
0.071496 0.175322 -0.314395
0.010017 0.174007 -0.387677
0.055580 0.174643 -0.301900
-0.019039 0.175511 -0.385191
0.022487 0.173636 -0.327260
-0.009400 0.172706 -0.358011
0.032676 0.178345 -0.339220
0.000109 0.175533 -0.371218
0.087603 0.173802 -0.331486
0.081068 0.175418 -0.386956
0.118853 0.169683 -0.281626
0.119328 0.160396 -0.297234
0.119561 0.169478 -0.303602
0.119925 0.169797 -0.248637
0.120299 0.164244 -0.382533
0.120051 0.168033 -0.287692
0.118321 0.171987 -0.373344
0.119740 0.171113 -0.325764
0.119310 0.169431 -0.396686
0.120022 0.163694 -0.335939
0.119410 0.171866 -0.340432
0.119926 0.165414 -0.299817
0.119248 0.156310 -0.340110
0.118615 0.164154 -0.313086
0.118933 0.172185 -0.230325
0.118744 0.174151 -0.293651
0.118678 0.160926 -0.363350
0.117857 0.173651 -0.310477
0.118221 0.174178 -0.260838
0.118426 0.160721 -0.320767
0.119327 0.166498 -0.326218
0.118595 0.168803 -0.355651
0.119454 0.162159 -0.270336
0.117976 0.176147 -0.338127
0.118326 0.162442 -0.239765
0.119224 0.168641 -0.370505
0.119217 0.173913 -0.282380
0.117983 0.174240 -0.317232
0.117006 0.155476 -0.315127
0.116745 0.172369 -0.355828
0.118182 0.170033 -0.271403
0.119014 0.164374 -0.348193
0.009745 0.174423 -0.333495
0.045494 0.172403 -0.348928
0.053321 0.172254 -0.338128
0.036417 0.172409 -0.327846
-0.001617 0.172648 -0.390830
-0.004525 0.173024 -0.335640
0.059173 0.172635 -0.381998
0.013864 0.173457 -0.362358
0.035518 0.173352 -0.387000
0.034031 0.172326 -0.359705
-0.027080 0.172471 -0.365712
0.005115 0.174033 -0.349264
0.024993 0.173882 -0.373160
0.080623 0.172826 -0.359308
0.020413 0.171696 -0.320140
0.022426 0.173805 -0.350647
0.070702 0.173649 -0.367680
0.067996 0.172166 -0.346695
-0.012464 0.173412 -0.322390
-0.020046 0.173881 -0.345622
0.043407 0.172697 -0.372544
0.055172 0.173177 -0.363802
0.064364 0.173703 -0.327178
0.012697 0.172658 -0.383254
0.049750 0.172560 -0.317431
-0.014715 0.172642 -0.380634
0.021748 0.172388 -0.337303
-0.004836 0.171460 -0.358797
0.029706 0.173868 -0.345058
0.004668 0.172827 -0.371495
0.081805 0.173027 -0.338406
0.076304 0.172599 -0.381107
-0.032126 0.154688 -0.399395
0.003450 0.153582 -0.403749
0.013640 0.152626 -0.397992
-0.004493 0.152561 -0.390084
-0.043685 0.154398 -0.434424
-0.044809 0.153390 -0.395049
0.015298 0.154178 -0.428398
-0.023761 0.153764 -0.416715
-0.002998 0.154265 -0.431319
-0.003901 0.153270 -0.412340
-0.073708 0.153818 -0.415855
-0.041248 0.154683 -0.407071
-0.014137 0.154553 -0.425467
0.038698 0.152965 -0.413868
-0.022437 0.152512 -0.385044
-0.019797 0.153442 -0.406803
0.028223 0.154876 -0.420217
0.023760 0.152779 -0.405674
-0.057668 0.153705 -0.386102
-0.066554 0.154738 -0.401504
0.001988 0.153657 -0.422951
0.013762 0.154036 -0.415794
0.022103 0.154089 -0.387990
-0.026148 0.153804 -0.434834
0.007185 0.153402 -0.381076
-0.058487 0.154215 -0.426001
-0.017635 0.152952 -0.397213
-0.045080 0.152818 -0.414513
-0.011814 0.156527 -0.404569
-0.034683 0.153848 -0.423388
0.035955 0.153249 -0.399095
0.030843 0.153424 -0.431253
0.111396 0.150509 -0.315908
0.121297 0.150932 -0.344801
0.121700 0.150416 -0.335858
0.120071 0.150881 -0.313395
0.102134 0.150482 -0.385650
0.097479 0.149905 -0.327788
0.119093 0.153392 -0.382888
0.112602 0.150405 -0.352842
0.119507 0.152075 -0.395655
0.119556 0.154211 -0.353425
0.059604 0.149839 -0.358033
0.107506 0.152874 -0.337099
0.114964 0.151379 -0.357863
0.116815 0.151003 -0.350489
0.115969 0.151426 -0.297916
0.117995 0.151633 -0.342749
0.119313 0.152644 -0.370205
0.120499 0.156365 -0.342127
0.087557 0.151202 -0.312965
0.076400 0.152833 -0.341075
0.119036 0.149897 -0.361611
0.120378 0.151822 -0.359465
0.118872 0.151336 -0.320044
0.116249 0.151700 -0.369851
0.118822 0.151415 -0.303002
0.087017 0.149629 -0.374584
0.118534 0.150295 -0.329146
0.100886 0.153808 -0.352397
0.114030 0.150917 -0.337741
0.108075 0.152751 -0.366514
0.118151 0.155784 -0.326665
0.117889 0.152619 -0.374469
-0.065291 0.156627 -0.412960
-0.019256 0.155161 -0.430532
-0.008401 0.154067 -0.420726
-0.028522 0.153488 -0.411102
-0.079262 0.156463 -0.453764
-0.082026 0.154835 -0.417887
0.002797 0.155801 -0.449330
-0.057844 0.155276 -0.440076
-0.030275 0.156374 -0.446962
-0.031962 0.154042 -0.438716
-0.112890 0.155055 -0.440243
-0.072077 0.156302 -0.429044
-0.043691 0.156655 -0.446944
0.035445 0.154776 -0.436382
-0.051094 0.152811 -0.402678
-0.046885 0.154912 -0.432023
0.016474 0.156631 -0.440571
0.011639 0.153970 -0.428256
-0.094841 0.154873 -0.405050
-0.103196 0.155939 -0.425583
-0.017961 0.154915 -0.447357
-0.005489 0.155538 -0.439498
0.005464 0.155739 -0.409180
-0.058420 0.155905 -0.454912
-0.009956 0.154551 -0.399572
-0.095665 0.155714 -0.448107
-0.049965 0.153970 -0.419361
-0.086377 0.153656 -0.439186
-0.036285 0.157902 -0.425640
-0.069700 0.155335 -0.446013
0.027870 0.154141 -0.419088
0.023880 0.155070 -0.449948
0.049342 0.152749 -0.388427
0.072308 0.152206 -0.380284
0.080995 0.151541 -0.380333
0.065206 0.151417 -0.372933
0.043751 0.152904 -0.410827
0.043763 0.152282 -0.377762
0.079076 0.152619 -0.404303
0.057417 0.152460 -0.395696
0.071140 0.152040 -0.410390
0.070800 0.152377 -0.389113
0.026858 0.152412 -0.394462
0.041004 0.152770 -0.387750
0.062509 0.152650 -0.403357
0.093158 0.151732 -0.393064
0.053971 0.151151 -0.368491
0.056455 0.152123 -0.383655
0.088183 0.152948 -0.399281
0.085890 0.151252 -0.387774
0.036816 0.151856 -0.369805
0.028629 0.152701 -0.381835
0.070302 0.152393 -0.398293
0.079590 0.152903 -0.394726
0.083293 0.152082 -0.370953
0.055853 0.152701 -0.411567
0.073422 0.152149 -0.365085
0.036131 0.152803 -0.403804
0.062022 0.151385 -0.380264
0.047675 0.151577 -0.391287
0.062315 0.153954 -0.387100
0.050796 0.152118 -0.401781
0.092412 0.151924 -0.380081
0.087703 0.152222 -0.409308
0.034050 0.172166 -0.312744
0.083086 0.169242 -0.362131
0.089278 0.169489 -0.338650
0.075680 0.170462 -0.318643
0.022293 0.169683 -0.415337
0.010506 0.170318 -0.333182
0.096970 0.171122 -0.409502
0.040722 0.170975 -0.375004
0.073012 0.171708 -0.415235
0.069452 0.168716 -0.377102
-0.023503 0.171444 -0.381926
0.033064 0.170692 -0.348758
0.057359 0.168980 -0.387418
0.109881 0.168842 -0.370904
0.056003 0.169306 -0.300334
0.058508 0.171105 -0.361030
0.104485 0.168457 -0.392307
0.105522 0.169238 -0.354209
-0.003274 0.172068 -0.305720
-0.013307 0.170454 -0.351242
0.083402 0.170421 -0.395049
0.095173 0.169413 -0.380972
0.101201 0.169332 -0.319927
0.046898 0.170940 -0.406313
0.091691 0.167518 -0.300145
-0.006546 0.171814 -0.405120
0.050098 0.170332 -0.332664
0.005836 0.168542 -0.370714
0.071728 0.167278 -0.345801
0.025709 0.171218 -0.391033
0.113543 0.169857 -0.334966
0.108728 0.169016 -0.407156
0.060172 0.152938 -0.342094
0.092314 0.152213 -0.361685
0.099418 0.151400 -0.349648
0.086815 0.151369 -0.338545
0.049147 0.152736 -0.397592
0.045877 0.151848 -0.346125
0.099918 0.152923 -0.390711
0.066420 0.152204 -0.373325
0.086380 0.152729 -0.396447
0.084773 0.151734 -0.370550
0.020498 0.152924 -0.374755
0.053574 0.153021 -0.359250
0.075437 0.152827 -0.383023
0.112130 0.151054 -0.369118
0.071989 0.151367 -0.328249
0.072475 0.152684 -0.363312
0.109524 0.152889 -0.381179
0.107610 0.151105 -0.359576
0.034904 0.152443 -0.332856
0.026433 0.153173 -0.357381
0.090886 0.152454 -0.381758
0.101042 0.152132 -0.373735
0.105834 0.152413 -0.337144
0.066195 0.152612 -0.393681
0.096677 0.151861 -0.325753
0.033623 0.152952 -0.388163
0.073144 0.151411 -0.347650
0.044658 0.151826 -0.371390
0.081132 0.153872 -0.356874
0.054866 0.152487 -0.381310
0.113979 0.151838 -0.350723
0.110064 0.151187 -0.391461
0.060802 0.172745 -0.325325
0.095125 0.171561 -0.345095
0.101514 0.171469 -0.333972
0.090611 0.171105 -0.325106
0.048938 0.172580 -0.375490
0.046560 0.171867 -0.331831
0.104421 0.171935 -0.370410
0.065931 0.172161 -0.353039
0.087423 0.172553 -0.374165
0.086579 0.171361 -0.353174
0.018283 0.171515 -0.354679
0.056509 0.172611 -0.341377
0.077834 0.171839 -0.362076
0.116693 0.170267 -0.351185
0.075789 0.171154 -0.317611
0.075412 0.172590 -0.346204
0.113413 0.171845 -0.360933
0.110330 0.170377 -0.341603
0.035456 0.172388 -0.321342
0.027509 0.172772 -0.340023
0.094652 0.171678 -0.362964
0.103679 0.171592 -0.354915
0.109717 0.172102 -0.323538
0.066065 0.172225 -0.370348
0.100044 0.171527 -0.315447
0.032909 0.171824 -0.367012
0.072433 0.171354 -0.332605
0.043326 0.171694 -0.352720
0.084171 0.172691 -0.339352
0.055784 0.172265 -0.359908
0.117458 0.170694 -0.334783
0.115701 0.170400 -0.370500
0.035490 0.153439 -0.417289
0.061673 0.152690 -0.409929
0.071263 0.151767 -0.409713
0.053399 0.151672 -0.402104
0.029350 0.153916 -0.441440
0.029145 0.152627 -0.406730
0.069969 0.153207 -0.434722
0.044263 0.152996 -0.425865
0.059447 0.152758 -0.439526
0.059220 0.152821 -0.419364
0.011060 0.153115 -0.424281
0.026809 0.153539 -0.417126
0.050185 0.153636 -0.434056
0.086810 0.152358 -0.423065
0.041101 0.151382 -0.397777
0.043697 0.152481 -0.413625
0.080547 0.153754 -0.429466
0.077501 0.151762 -0.417221
0.021515 0.152429 -0.398656
0.013113 0.153369 -0.411058
0.059608 0.153001 -0.429217
0.069657 0.153485 -0.424754
0.074591 0.152468 -0.399864
0.042218 0.153285 -0.442580
0.062989 0.152530 -0.394485
0.020729 0.153496 -0.434028
0.049191 0.151776 -0.409550
0.032687 0.151825 -0.421836
0.050090 0.154457 -0.416440
0.036695 0.152688 -0.432165
0.085220 0.152379 -0.409313
0.080291 0.153076 -0.440108
0.031248 0.176243 -0.385115
0.064118 0.174728 -0.403653
0.070007 0.174162 -0.391906
0.055666 0.174283 -0.381629
0.022311 0.175359 -0.438692
0.018326 0.174108 -0.389188
0.073771 0.173911 -0.431605
0.035429 0.175012 -0.415186
0.054116 0.175297 -0.434555
0.053792 0.174342 -0.411851
-0.001580 0.174377 -0.416698
0.028420 0.175534 -0.401144
0.045220 0.176005 -0.424668
0.092906 0.174824 -0.411223
0.042509 0.173306 -0.372603
0.043233 0.174438 -0.404773
0.084752 0.175636 -0.420520
0.081037 0.174096 -0.400267
0.011471 0.175505 -0.375580
0.004702 0.175996 -0.398317
0.061515 0.174700 -0.424226
0.071488 0.174202 -0.416477
0.079569 0.175491 -0.380328
0.034556 0.173789 -0.433790
0.067697 0.174557 -0.371788
0.009519 0.174740 -0.430687
0.042515 0.173948 -0.390475
0.018769 0.172953 -0.411848
0.050493 0.176653 -0.398584
0.026158 0.174245 -0.421791
0.093820 0.174545 -0.391712
0.089458 0.174740 -0.431574
0.007276 0.176161 -0.374325
0.051594 0.173737 -0.398100
0.060032 0.173726 -0.382986
0.042894 0.173719 -0.370246
-0.005132 0.175079 -0.434180
-0.009551 0.174108 -0.380101
0.064159 0.174225 -0.428412
0.013030 0.174898 -0.411119
0.038284 0.175305 -0.430979
0.037289 0.173810 -0.407583
-0.035601 0.174439 -0.411958
0.004862 0.175637 -0.395775
0.027054 0.175160 -0.421938
0.088033 0.174254 -0.405829
0.023870 0.173034 -0.359477
0.023742 0.174053 -0.399599
0.078621 0.175930 -0.417211
0.073244 0.173412 -0.392965
-0.019962 0.175748 -0.363157
-0.027538 0.176778 -0.390129
0.048664 0.174356 -0.419686
0.062656 0.174383 -0.411425
0.073781 0.175207 -0.368358
0.009289 0.173772 -0.430111
0.057136 0.174505 -0.357941
-0.021021 0.174788 -0.427353
0.022308 0.173649 -0.380798
-0.010976 0.172311 -0.407311
0.032848 0.179456 -0.391479
0.000852 0.175098 -0.417350
0.089209 0.174074 -0.382434
0.083700 0.174686 -0.428677
0.115403 0.175004 -0.311762
0.118123 0.171213 -0.360854
0.118224 0.171027 -0.340093
0.118096 0.173675 -0.297104
0.114366 0.174464 -0.442329
0.107288 0.174113 -0.328352
0.116106 0.173789 -0.433903
0.114073 0.174850 -0.381080
0.118060 0.173031 -0.454890
0.116997 0.170639 -0.382919
0.098090 0.175039 -0.390867
0.115876 0.175825 -0.343846
0.116290 0.173077 -0.395041
0.116212 0.170930 -0.373139
0.115623 0.172912 -0.274472
0.114016 0.174236 -0.355699
0.118249 0.170109 -0.417076
0.118276 0.172301 -0.356180
0.103652 0.173945 -0.299055
0.102232 0.175553 -0.359884
0.118006 0.172228 -0.398420
0.118971 0.169712 -0.398832
0.119562 0.170842 -0.310851
0.114247 0.174203 -0.409045
0.118672 0.171834 -0.286525
0.105444 0.173816 -0.427718
0.117147 0.174087 -0.327491
0.106677 0.172582 -0.372236
0.117154 0.172701 -0.353007
0.107067 0.173282 -0.404076
0.118060 0.170226 -0.326079
0.118254 0.171609 -0.423028
0.085556 0.153406 -0.398032
0.103502 0.152986 -0.395095
0.110019 0.152400 -0.392581
0.098129 0.152373 -0.384410
0.080592 0.153744 -0.427915
0.079615 0.153004 -0.389800
0.107302 0.153339 -0.420505
0.091220 0.153191 -0.409221
0.102773 0.152725 -0.428998
0.102060 0.153120 -0.403435
0.066411 0.153455 -0.409315
0.078727 0.153559 -0.400214
0.095339 0.153711 -0.417453
0.115994 0.152505 -0.406031
0.089550 0.152069 -0.377999
0.091132 0.152940 -0.397773
0.114709 0.153609 -0.415014
0.113498 0.152107 -0.400360
0.074620 0.152908 -0.381361
0.067153 0.153290 -0.395274
0.101640 0.153309 -0.412315
0.109310 0.153526 -0.408892
0.111049 0.152896 -0.382745
0.090352 0.153494 -0.425677
0.104304 0.153085 -0.376222
0.073772 0.153512 -0.420264
0.095522 0.152145 -0.391590
0.082493 0.152451 -0.404653
0.096041 0.154854 -0.398883
0.084851 0.152815 -0.415290
0.117009 0.152591 -0.391936
0.113636 0.153000 -0.425170
-0.074374 0.155919 -0.450201
-0.024152 0.156771 -0.452014
0.000037 0.163097 -0.453112
-0.019584 0.160706 -0.451010
-0.106978 0.155757 -0.449726
-0.088683 0.157904 -0.450671
0.016153 0.169361 -0.451605
-0.062379 0.156613 -0.452388
-0.037086 0.159869 -0.448872
-0.018463 0.171385 -0.451623
-0.153318 0.164202 -0.451161
-0.092088 0.153615 -0.447297
-0.048538 0.154434 -0.449142
0.061613 0.153979 -0.451617
-0.047695 0.168910 -0.450476
-0.034880 0.165851 -0.451827
0.029802 0.154671 -0.449602
0.035934 0.167496 -0.451647
-0.113390 0.167015 -0.448711
-0.141394 0.157404 -0.449644
-0.006814 0.156531 -0.451593
0.011131 0.158059 -0.455456
0.025216 0.159870 -0.451661
-0.057043 0.164803 -0.449513
0.002565 0.151768 -0.447138
-0.122747 0.161083 -0.453584
-0.077506 0.165930 -0.450994
-0.104076 0.168709 -0.449778
-0.028414 0.157019 -0.446019
-0.063861 0.172264 -0.452118
0.054395 0.162996 -0.449349
0.038758 0.154361 -0.451628
0.119189 0.158908 -0.377517
0.118227 0.151885 -0.386596
0.119334 0.160777 -0.392262
0.119162 0.159920 -0.360363
0.118909 0.152235 -0.435636
0.120058 0.156019 -0.382750
0.118002 0.164697 -0.431055
0.120361 0.159650 -0.402834
0.118461 0.160089 -0.443251
0.118861 0.159101 -0.408935
0.120416 0.162191 -0.409605
0.119804 0.154945 -0.385643
0.118993 0.149968 -0.410497
0.118458 0.155827 -0.394699
0.118553 0.164201 -0.350142
0.119043 0.165029 -0.385956
0.116709 0.152191 -0.421990
0.117355 0.164514 -0.394849
0.118765 0.168238 -0.371053
0.118451 0.150223 -0.398101
0.119000 0.156253 -0.403459
0.118247 0.158533 -0.417069
0.118776 0.154409 -0.373115
0.117906 0.167705 -0.408774
0.116984 0.152279 -0.356389
0.119637 0.158644 -0.428000
0.119490 0.162304 -0.379810
0.118435 0.167216 -0.399191
0.115430 0.150269 -0.395174
0.118206 0.167363 -0.419101
0.118608 0.162104 -0.372446
0.119387 0.154687 -0.416929
0.078468 0.153679 -0.419862
0.099059 0.153075 -0.413030
0.106898 0.152608 -0.412756
0.092628 0.152457 -0.405138
0.073690 0.153896 -0.443542
0.072977 0.153276 -0.409948
0.104532 0.153405 -0.436985
0.085609 0.153377 -0.427959
0.098198 0.152714 -0.443598
0.098019 0.153453 -0.421894
0.059200 0.153557 -0.426969
0.071077 0.153659 -0.420055
0.090292 0.153682 -0.435873
0.115214 0.152876 -0.425210
0.083235 0.152147 -0.399989
0.084816 0.153056 -0.416409
0.112719 0.153721 -0.432814
0.110861 0.152280 -0.420296
0.067818 0.153170 -0.402279
0.059647 0.153482 -0.413937
0.097089 0.153376 -0.430459
0.105574 0.153958 -0.427379
0.108220 0.152907 -0.403119
0.084210 0.153560 -0.443244
0.099592 0.153029 -0.397901
0.066647 0.153695 -0.436749
0.089744 0.152409 -0.412099
0.076754 0.152582 -0.423813
0.090083 0.154963 -0.419330
0.079174 0.153052 -0.433777
0.115248 0.152698 -0.412056
0.111824 0.153488 -0.442813
0.054080 0.173258 -0.369174
0.086899 0.172027 -0.381109
0.094296 0.171894 -0.373451
0.081603 0.171439 -0.366315
0.041493 0.172676 -0.410574
0.040744 0.172416 -0.371633
0.097771 0.172251 -0.404902
0.058759 0.172730 -0.390121
0.078677 0.172771 -0.408470
0.078825 0.172087 -0.389719
0.012359 0.171795 -0.392124
0.048082 0.173175 -0.381051
0.069605 0.171781 -0.398533
0.111762 0.171167 -0.388565
0.066676 0.171559 -0.360981
0.067341 0.173348 -0.383427
0.107013 0.172503 -0.395681
0.103891 0.171370 -0.380041
0.030375 0.172227 -0.363571
0.021788 0.173408 -0.378516
0.086081 0.171961 -0.398828
0.095737 0.172545 -0.391495
0.102728 0.172678 -0.364643
0.057946 0.172262 -0.406238
0.091628 0.171793 -0.357351
0.027279 0.172313 -0.402470
0.064731 0.171999 -0.373159
0.037676 0.172443 -0.389857
0.074965 0.172673 -0.378556
0.049748 0.172582 -0.396988
0.112167 0.171780 -0.374120
0.109733 0.171420 -0.405215
0.120399 0.154071 -0.387604
0.118487 0.151949 -0.408499
0.120159 0.158046 -0.410145
0.119954 0.157595 -0.378891
0.117283 0.150432 -0.452933
0.119172 0.153515 -0.401368
0.118923 0.161960 -0.450258
0.121448 0.155359 -0.421145
0.118719 0.156586 -0.460976
0.119556 0.161614 -0.429606
0.107449 0.158183 -0.425569
0.119941 0.152063 -0.399122
0.117925 0.148721 -0.425621
0.117566 0.153684 -0.415205
0.119001 0.160690 -0.365460
0.120477 0.162741 -0.407156
0.115879 0.150872 -0.439265
0.117795 0.163077 -0.413468
0.116424 0.163855 -0.388372
0.112833 0.150221 -0.415879
0.119060 0.152001 -0.427189
0.118230 0.156857 -0.432430
0.118842 0.152072 -0.392373
0.119567 0.162023 -0.427503
0.116078 0.150334 -0.372549
0.116703 0.155626 -0.444640
0.120672 0.157901 -0.400166
0.119535 0.165095 -0.421377
0.113495 0.149532 -0.410476
0.119382 0.163834 -0.437472
0.118240 0.160963 -0.391638
0.118479 0.154788 -0.438226
0.039611 0.154182 -0.447438
0.076287 0.153171 -0.450345
0.088695 0.155473 -0.451152
0.077169 0.155242 -0.448082
0.014648 0.154117 -0.450028
0.027977 0.154222 -0.449331
0.099214 0.159442 -0.451555
0.045907 0.153563 -0.451418
0.067940 0.154319 -0.450730
0.079342 0.162846 -0.451617
-0.025264 0.155336 -0.450826
0.027691 0.153145 -0.448602
0.057162 0.153315 -0.448522
0.122401 0.153445 -0.449316
0.060249 0.160609 -0.447032
0.067193 0.156890 -0.451111
0.107255 0.153123 -0.448180
0.111065 0.161598 -0.450741
0.009675 0.158298 -0.448217
-0.010012 0.155873 -0.448521
0.084868 0.153466 -0.450271
0.097506 0.154426 -0.452300
0.102795 0.154813 -0.449426
0.052902 0.156877 -0.450668
0.090560 0.152187 -0.445442
0.001935 0.155510 -0.450968
0.039414 0.156952 -0.448819
0.018156 0.162935 -0.449452
0.070271 0.154622 -0.446147
0.044070 0.160421 -0.451339
0.119803 0.155723 -0.448299
0.108781 0.154182 -0.450486
-0.022018 0.175894 -0.409345
0.027409 0.173388 -0.437347
0.033524 0.173306 -0.422440
0.016510 0.172692 -0.409456
-0.036121 0.169807 -0.450415
-0.038458 0.173452 -0.418850
0.050906 0.172055 -0.447559
-0.014157 0.172301 -0.440302
0.011725 0.170561 -0.447250
0.011959 0.172667 -0.439916
-0.072480 0.171917 -0.440775
-0.024226 0.173274 -0.431753
-0.001024 0.171416 -0.447243
0.077593 0.172984 -0.440737
-0.005683 0.171650 -0.391504
0.000552 0.174842 -0.434795
0.058433 0.172732 -0.445015
0.060421 0.172148 -0.428914
-0.050226 0.174317 -0.399275
-0.059626 0.174914 -0.428933
0.030666 0.170994 -0.447612
0.041129 0.171575 -0.442462
