0.410926 -0.028972 0.055339
-0.296451 -0.038584 -0.168316
0.022282 0.109752 0.088100
0.183599 -0.005817 -0.173333
-0.046977 -0.095047 -0.164361
0.244880 -0.115990 0.176269
0.370216 -0.102034 -0.136943
-0.024168 0.105125 -0.122783
0.186833 0.041616 0.008723
-0.182852 0.074478 -0.128824
0.286454 0.027845 0.130352
0.326524 0.024995 -0.062935
0.232361 -0.120303 -0.113801
0.140740 0.051212 0.139781
0.101893 0.083455 -0.093129
-0.165503 -0.041940 -0.172079
0.056331 -0.009167 -0.172146
0.301239 -0.013062 -0.169556
0.371643 -0.086414 0.146171
0.416774 -0.095447 -0.035150
-0.231563 -0.125238 -0.141396
-0.081840 0.027368 -0.163753
0.091566 0.093743 0.010256
0.327876 0.023184 0.038273
0.240953 0.038170 -0.105548
0.281579 -0.098866 -0.192117
0.402826 -0.023283 -0.091168
-0.233602 0.015758 -0.171709
0.033832 0.113009 -0.055200
0.363334 -0.004773 0.133289
-0.023038 -0.020665 -0.170240
0.394461 0.001189 -0.017583
0.251650 0.039131 0.062972
0.165822 0.051435 -0.061333
0.027203 -0.079047 -0.172704
0.270179 0.032161 -0.018294
-0.096355 0.090117 -0.125088
0.119597 0.041097 -0.150163
0.034960 0.065641 -0.142055
0.090443 0.086918 0.098126
0.407948 -0.097403 0.068917
0.141333 0.065535 0.056800
0.364564 -0.035421 -0.152153
0.206092 0.039673 0.109479
0.121650 -0.021479 -0.169977
-0.118654 -0.087265 -0.168248
0.265184 -0.117137 0.116408
-0.225797 -0.068724 -0.171793
-0.283328 -0.107903 -0.171873
0.432279 -0.045162 -0.009906
0.249455 0.020564 -0.165505
0.407197 -0.051878 0.112486
0.337173 0.013563 -0.119840
0.408331 -0.096633 -0.092219
-0.163441 0.012355 -0.164307
0.367766 0.006959 0.077718
0.037247 0.112139 0.006679
0.140013 0.069083 -0.014206
0.187659 0.042554 -0.142059
0.328695 -0.076310 -0.165931
0.055983 0.045685 -0.192217
-0.030019 0.057296 -0.146115
0.049144 0.102298 -0.109262
-0.106223 -0.037325 -0.164386
0.345607 0.019996 -0.012413
0.421516 -0.095547 0.020113
0.238246 0.032020 0.149617
0.287625 -0.112844 -0.144834
0.315240 0.026271 0.086897
0.059141 0.103867 0.050610
0.191693 0.045903 0.057335
0.090255 0.090967 -0.037093
0.289378 0.025378 -0.106054
0.397313 -0.061371 -0.123933
0.321500 0.004939 0.155344
0.016827 0.020555 -0.169381
0.423537 -0.052574 -0.063926
0.141313 0.060469 -0.103876
0.370084 0.007389 -0.075575
-0.278046 0.008521 -0.171760
0.373077 0.007402 0.030361
0.291864 -0.051263 -0.188099
-0.241424 -0.025884 -0.170772
0.010006 0.111831 -0.092437
0.154342 0.054803 0.096072
0.199686 0.043374 -0.034027
-0.194352 -0.095930 -0.161048
0.261094 0.035582 -0.068817
-0.017167 -0.062110 -0.173045
0.378290 -0.044581 0.146407
0.103131 0.087053 0.058668
0.283926 -0.118726 0.152512
-0.078479 -0.068238 -0.172103
0.079883 0.024284 -0.163076
-0.001254 0.114603 0.054248
0.264368 0.036121 0.023264
0.258337 -0.121985 -0.174980
0.394598 -0.097973 0.115503
-0.270764 -0.067500 -0.171223
0.072482 0.067253 -0.138241
0.255325 0.034148 0.105108
0.408907 -0.022208 0.018839
0.405625 -0.011075 -0.051765
0.430884 -0.053221 0.027494
0.048371 0.099839 0.114937
0.334735 0.016256 0.120280
0.367859 -0.006226 -0.125161
0.400888 -0.021274 0.090982
0.195214 0.037856 0.144012
-0.052002 -0.040918 -0.166636
-0.063994 0.074745 -0.136929
0.015973 -0.029324 -0.172412
-0.034414 0.022959 -0.165841
0.140411 0.008789 -0.166946
0.011473 0.089269 -0.125482
0.234651 0.039231 -0.040191
-0.208314 -0.012439 -0.173837
0.286705 0.031540 0.050595
0.288970 0.019409 -0.153271
0.110840 0.073985 0.126981
-0.077285 -0.012294 -0.169830
0.113176 0.074600 -0.134598
0.153718 0.060607 0.018310
0.120424 0.077667 -0.048022
0.335441 -0.034436 -0.166991
0.087876 -0.033300 -0.173330
0.298866 0.030912 0.000075
0.054626 0.106043 -0.026889
0.064093 0.102433 -0.071045
0.406701 -0.065366 0.058983
0.221344 0.036810 -0.151641
-0.134341 -0.012597 -0.166234
0.156108 0.046064 -0.132869
0.216746 -0.003798 -0.173740
-0.199401 0.025466 -0.165303
0.294252 0.032962 -0.056486
0.126499 0.072002 0.084634
-0.115213 0.017358 -0.163683
0.262542 -0.008395 -0.174266
0.256139 0.030808 -0.132990
-0.149955 -0.084436 -0.168534
-0.245019 -0.114608 -0.170151
-0.263135 0.033928 -0.164690
0.169729 0.051577 -0.020603
0.329127 -0.005569 -0.157535
-0.187516 -0.068160 -0.169940
0.363128 0.013570 -0.038505
0.364641 -0.072916 -0.153558
0.318939 0.027814 -0.026557
0.259438 -0.130222 -0.130195
0.389227 -0.028333 -0.124367
0.402582 -0.073469 0.091594
0.371650 -0.069952 -0.121217
0.112085 0.014843 -0.166778
0.175154 0.042883 -0.090978
-0.000555 0.066731 -0.141847
0.416087 -0.050603 -0.094180
0.025431 0.117161 0.036375
0.427415 -0.084696 -0.010946
0.403557 -0.073791 -0.065116
0.113361 0.084942 -0.012001
0.338497 0.016262 -0.090698
0.386598 -0.020135 0.121681
-0.134824 -0.060696 -0.170794
0.398293 -0.002324 0.042156
0.062499 0.101894 0.080550
0.287709 0.027923 0.098850
0.348677 0.018394 0.061163
-0.174879 -0.014872 -0.171478
0.302979 -0.075388 -0.173077
0.164930 0.052646 0.048169
0.146241 0.065401 -0.043663
0.167942 0.040353 0.144931
0.410165 -0.029088 -0.015056
0.074114 0.093334 -0.121413
0.135065 0.068540 -0.071102
0.130596 0.071050 0.026798
0.429794 -0.055061 -0.034290
0.055124 0.046237 -0.147066
0.340411 -0.100308 -0.153699
0.373930 0.009937 0.001499
0.360245 0.003367 0.107081
0.423163 -0.050084 0.074849
0.086010 0.093867 0.036381
0.397698 -0.087416 -0.118277
0.381770 -0.054744 -0.142326
0.069878 0.092196 0.124998
0.191133 0.046293 0.085292
-0.100160 0.069346 -0.139674
0.067605 0.103137 0.018258
-0.065079 0.096846 -0.121024
-0.017361 -0.090324 -0.166961
0.196712 0.014411 -0.167593
0.345859 0.019990 0.019173
-0.074460 -0.092772 -0.164727
0.340123 0.018873 0.085796
-0.277205 -0.016985 -0.171711
0.167646 0.049495 0.074925
0.424787 -0.089486 0.045698
-0.217932 0.040256 -0.158164
0.349147 0.019280 -0.060324
0.359288 0.006679 -0.102926
0.039892 0.104963 0.069322
0.021066 -0.055068 -0.166685
0.340241 -0.011066 0.155971
0.081749 0.098789 -0.012216
0.398118 -0.009875 0.069586
0.412339 -0.073350 -0.024347
0.413073 -0.030674 -0.068867
0.163936 0.045067 0.118295
0.287221 -0.106659 -0.171070
0.307341 0.028741 -0.077361
0.042175 0.090629 -0.127754
0.313989 -0.039406 -0.171559
0.411243 -0.097367 -0.064907
0.413907 -0.031181 -0.039794
0.110610 0.084065 0.030434
0.313946 0.017989 0.134462
-0.014004 0.014227 -0.168112
0.081076 0.096394 0.061065
0.406299 -0.037952 -0.110878
0.259956 0.029525 0.149221
0.223951 0.036299 -0.123231
0.429193 -0.073911 0.012810
0.281031 0.034087 0.073088
0.084079 0.093282 -0.077751
-0.054532 0.018062 -0.167909
0.408329 -0.062625 -0.043434
-0.106168 -0.058624 -0.170156
0.355791 -0.017880 -0.143029
0.387850 -0.000514 -0.058634
0.278693 0.025583 -0.127479
0.098606 0.052512 -0.147682
0.279770 -0.031218 -0.192872
0.296485 0.031911 0.024112
0.424899 -0.033616 0.010080
-0.097996 -0.091869 -0.165036
0.123069 0.074862 -0.093818
0.318413 0.027190 0.011322
0.185120 0.042961 0.036895
0.430053 -0.045633 0.049323
0.320083 0.024616 0.064399
0.411283 -0.073076 0.039597
-0.007279 0.114325 -0.109908
0.375638 0.005442 0.050689
0.070117 0.045850 -0.173985
0.044962 0.104192 -0.087355
-0.228754 -0.098857 -0.171573
0.354494 -0.050835 -0.159236
0.239076 0.005202 -0.173219
0.161256 0.047608 -0.111059
0.309243 0.010562 -0.156227
-0.016515 0.084902 -0.129619
0.036907 0.012811 -0.170560
-0.218484 -0.051363 -0.172443
-0.148219 -0.028439 -0.169765
0.392253 0.000345 0.019652
0.206723 0.043355 -0.012954
0.076542 0.007329 -0.170665
0.111005 0.076748 0.104808
0.175178 0.045343 -0.042532
0.388883 -0.012483 -0.101568
0.091856 0.080059 0.129338
-0.265184 -0.087449 -0.173887
0.128059 0.058665 -0.144691
0.296775 0.031861 -0.025973
-0.180212 0.034937 -0.157334
0.180358 0.030441 -0.159386
0.068607 0.102507 -0.042654
0.410624 -0.069899 -0.097967
0.402118 -0.099427 0.089785
0.184125 0.042604 -0.063310
0.273499 0.013706 -0.166929
0.390239 -0.056540 0.136508
0.316044 0.019899 0.106786
0.282215 0.029676 -0.087596
0.399754 -0.003846 0.001618
0.291245 -0.079242 -0.190926
0.390365 -0.000073 -0.038251
0.429661 -0.066064 -0.013812
0.413835 -0.036962 0.096900
0.270132 0.036549 0.003531
0.266242 0.035028 -0.038575
0.001212 -0.064612 -0.169292
0.156875 0.061501 -0.002592
0.252161 0.036055 -0.087485
0.419187 -0.058781 0.091378
0.308845 0.027939 0.048416
0.412236 -0.031518 0.075199
0.109735 0.081340 0.079534
0.054608 0.107334 -0.005113
-0.038663 0.091423 -0.125452
0.321777 0.020491 -0.105780
0.408718 -0.011683 -0.032599
-0.244469 0.035562 -0.159509
0.062098 -0.024266 -0.173967
0.397460 -0.039218 0.126438
0.112947 0.082994 -0.031725
0.035954 0.046529 -0.151807
0.067108 0.097200 -0.099141
0.140461 0.071901 0.005503
0.410121 -0.029899 0.034832
0.304559 0.021621 -0.139629
0.144986 0.061579 0.074314
0.270548 -0.120589 -0.154760
0.088036 0.093564 -0.058022
0.284271 -0.012913 -0.173243
0.086775 0.088680 -0.108064
0.089133 -0.015171 -0.171271
0.382024 -0.001870 0.089542
0.435600 -0.053060 0.009828
0.355922 0.016147 0.002769
-0.087785 0.005206 -0.167846
0.124247 0.079384 0.005198
0.372948 -0.063530 0.148337
0.342671 0.019920 -0.033041
-0.130623 -0.039947 -0.168029
0.409552 -0.083277 -0.048496
0.260246 -0.127265 0.168438
-0.037799 -0.059744 -0.169663
0.404732 -0.069921 0.117239
-0.217373 -0.119223 -0.153495
0.171572 0.008400 -0.168244
0.329084 0.023006 -0.043146
-0.009281 -0.047667 -0.168302
-0.059692 -0.060358 -0.171399
0.386130 -0.002969 -0.082322
0.136672 0.057110 -0.122796
0.348442 0.002927 -0.130480
0.036017 0.111942 -0.033468
0.317558 -0.021822 -0.168138
0.029548 0.104330 0.113326
0.353530 -0.015985 0.149106
0.348298 -0.080151 -0.158647
-0.178241 0.015695 -0.167388
0.126959 0.062710 0.133511
0.320793 0.016580 -0.129851
0.384987 -0.007895 0.107752
0.265821 -0.124602 0.150357
0.139192 0.064285 0.097861
0.147681 0.060587 -0.082067
0.355177 0.012373 0.092627
0.399173 -0.073961 -0.085739
0.232368 0.034804 0.132569
0.170925 0.051716 0.004918
0.306529 0.014433 0.152601
0.055752 0.072501 -0.137728
0.125401 0.077334 0.055149
0.429217 -0.040427 -0.027360
0.270027 0.032061 0.087326
0.116931 0.078554 -0.076312
0.037751 0.114377 -0.014628
0.277101 -0.118007 0.137047
0.287288 0.005073 -0.169734
0.144668 0.065588 0.038654
0.242182 0.034443 -0.154449
-0.234319 -0.046111 -0.169357
0.050546 0.109133 0.036684
0.397238 -0.027642 0.107461
0.042385 0.103310 0.099850
0.299469 0.022902 -0.122838
0.305815 -0.054823 -0.171078
0.121912 0.068607 -0.119458
-0.230303 -0.125945 -0.171894
0.297773 0.028742 0.082824
0.412069 -0.009577 -0.009699
0.009625 0.003879 -0.171373
0.062730 0.094996 0.108329
0.081069 0.039772 -0.151833
0.052434 0.107014 -0.047897
0.272396 0.031212 0.122897
0.271873 -0.114770 -0.178350
0.384707 -0.000305 0.070903
0.414079 -0.059178 -0.074886
0.063473 0.015209 -0.170097
-0.269435 -0.113395 -0.168723
-0.018680 -0.002614 -0.172933
-0.149899 -0.048432 -0.168837
0.332684 0.023078 -0.002755
0.155844 0.060945 -0.021058
0.390592 -0.046096 -0.133519
0.378674 -0.089237 -0.128371
-0.203130 -0.106653 -0.150581
0.049206 0.106005 -0.065757
0.024051 -0.013217 0.167519
-0.235754 -0.043906 -0.125198
0.007914 -0.086896 -0.092329
0.250143 0.030953 -0.151083
-0.009907 0.090548 -0.042156
-0.275591 -0.126046 -0.175612
-0.406975 -0.089607 -0.063324
-0.194087 0.044363 -0.084453
-0.307527 0.009935 0.172606
-0.224180 -0.078678 0.092495
-0.223703 -0.105741 0.169488
-0.003323 -0.080300 0.081117
0.242724 -0.111349 0.001045
0.140052 -0.080018 -0.165668
-0.424292 0.009140 -0.074271
0.166709 0.057872 0.041883
0.436649 -0.004616 0.060048
-0.415393 -0.007556 0.060705
0.000365 0.083404 0.117621
0.001767 0.098484 -0.148321
0.330457 -0.014473 -0.165680
-0.048089 0.093493 0.037244
-0.428091 -0.067945 0.027611
-0.237218 -0.040463 -0.178214
0.311153 0.023677 -0.094504
0.312789 0.018733 0.069959
-0.356281 0.015522 0.150060
0.210553 -0.032727 -0.169371
-0.303747 0.015216 -0.177270
-0.317697 0.015757 -0.077919
0.371529 -0.094356 -0.089552
-0.312231 -0.048785 0.104889
-0.351036 0.016631 0.000352
-0.183515 -0.089035 -0.170919
-0.364252 -0.066933 -0.057150
0.026375 -0.021725 0.053969
0.353604 -0.073108 -0.176051
0.179442 -0.107889 0.065650
0.134444 -0.016804 0.179883
-0.365740 -0.087582 0.019064
-0.271498 -0.062074 0.167498
-0.045809 -0.085960 0.154410
-0.358435 -0.071159 0.082879
-0.097333 0.082989 -0.136603
0.075574 0.027194 0.148845
0.150875 -0.027392 -0.021528
0.397664 -0.072544 -0.141547
0.413913 -0.038301 -0.009164
0.256561 -0.105545 -0.097755
-0.126435 0.047903 0.155686
-0.411528 -0.067740 0.122358
0.446986 -0.100482 0.056604
0.455073 -0.098750 -0.060981
0.089615 -0.090777 0.080508
0.146391 0.032627 -0.165602
-0.184075 0.039860 0.065483
-0.221942 0.020124 -0.181719
0.047905 0.089875 0.050404
-0.001747 0.032836 0.172129
0.302487 -0.122546 -0.148396
-0.356564 -0.065848 0.166616
-0.241082 0.028499 0.005762
0.369657 0.025195 -0.008238
-0.363792 -0.055996 -0.163966
-0.079396 -0.096232 -0.098853
-0.435620 0.013682 -0.009218
0.439541 -0.019236 -0.091563
0.300594 0.014235 0.143973
0.252578 -0.043059 -0.105121
0.080886 0.073982 -0.120906
0.378686 0.007397 -0.153761
0.197890 0.003912 0.162298
0.300451 -0.048297 0.107735
-0.090442 0.084710 0.130845
0.115027 0.071146 -0.065148
-0.119161 -0.064937 0.166553
0.383891 -0.099913 0.070210
-0.154312 -0.068850 0.033018
-0.133502 -0.005494 0.047462
0.277392 -0.039653 0.163081
0.007287 -0.084078 0.006015
-0.198052 -0.098473 -0.090884
-0.166581 -0.025342 0.181884
0.009326 -0.008714 -0.090046
0.374761 0.005763 0.150255
-0.273947 -0.092938 -0.095676
-0.110502 -0.021902 -0.193609
0.304618 -0.081930 0.001721
0.167955 -0.091839 0.165896
-0.283932 -0.132257 0.138457
0.117748 0.070768 0.105421
0.110596 -0.082920 0.152036
-0.141768 -0.020632 -0.080112
-0.250219 -0.104934 -0.000826
0.135054 -0.095497 -0.003979
0.291090 -0.128518 0.167080
-0.245925 0.028263 0.171444
-0.129122 -0.091734 -0.168119
0.220039 0.046089 0.102307
0.370465 -0.076957 0.155839
-0.165857 0.037117 -0.171027
-0.043581 0.019831 -0.177370
0.014523 -0.013533 -0.179307
-0.066238 -0.106876 -0.028970
0.068192 0.011369 -0.171623
-0.083559 -0.012641 0.180066
0.031201 -0.095161 -0.172998
-0.390577 0.007393 -0.148542
-0.104588 -0.089908 0.075823
0.102201 -0.100586 -0.084456
0.117487 0.048356 0.170372
-0.195912 -0.032209 0.120097
-0.279001 -0.031807 -0.123357
0.387860 -0.098177 0.005979
0.247975 -0.099805 -0.169361
-0.011382 -0.082794 0.159633
0.204752 0.051171 -0.075763
-0.395262 -0.070011 -0.131760
-0.294159 0.023945 0.088003
-0.117801 0.056040 -0.026466
0.177546 -0.094941 -0.113644
0.321336 -0.041891 -0.114637
0.214578 -0.031522 0.100809
0.433359 -0.068300 0.126525
0.283581 0.024691 -0.015210
0.135946 -0.033705 -0.164491
0.269422 -0.089880 0.081095
-0.033822 -0.071542 -0.169593
