0.413130 -0.025461 0.055212
-0.297681 -0.033908 -0.173173
0.023856 0.115260 0.085830
0.183385 -0.001788 -0.174822
-0.048314 -0.094023 -0.165739
0.245551 -0.115743 0.177140
0.372451 -0.096316 -0.137819
-0.024063 0.106083 -0.121111
0.187977 0.046504 0.006948
-0.181267 0.080142 -0.130957
0.286210 0.029697 0.129525
0.327773 0.027042 -0.063612
0.233923 -0.119202 -0.115895
0.141168 0.057945 0.138680
0.101485 0.084423 -0.093164
-0.167019 -0.040536 -0.175715
0.055403 -0.002006 -0.173779
0.303117 -0.004755 -0.171792
0.374118 -0.081830 0.146438
0.418941 -0.094107 -0.035372
-0.231434 -0.122896 -0.144488
-0.084697 0.029230 -0.165996
0.091423 0.095263 0.011863
0.330898 0.027707 0.037019
0.240603 0.039565 -0.106740
0.283042 -0.094937 -0.194578
0.406195 -0.018779 -0.091861
-0.232880 0.022477 -0.174172
0.035336 0.115123 -0.054519
0.363742 -0.001617 0.134312
-0.021696 -0.019242 -0.173088
0.396749 0.004480 -0.018075
0.251726 0.040835 0.061179
0.165858 0.054126 -0.064174
0.024386 -0.076181 -0.174177
0.271043 0.039262 -0.019163
-0.095585 0.093629 -0.128407
0.119097 0.043879 -0.150962
0.033593 0.067890 -0.142457
0.090366 0.088872 0.098152
0.413117 -0.094812 0.071530
0.141812 0.068590 0.054251
0.367065 -0.031180 -0.151829
0.205286 0.043125 0.107394
0.120409 -0.017058 -0.173993
-0.120526 -0.085369 -0.171148
0.265504 -0.115461 0.116330
-0.227401 -0.067172 -0.174693
-0.284243 -0.105979 -0.174406
0.436909 -0.041442 -0.008534
0.251075 0.025136 -0.167101
0.409650 -0.047407 0.113188
0.337424 0.017038 -0.121020
0.409277 -0.093532 -0.092712
-0.161554 0.016654 -0.166816
0.370922 0.011059 0.078313
0.038246 0.116305 0.005363
0.141030 0.071433 -0.014637
0.189044 0.044799 -0.143307
0.331434 -0.072326 -0.166891
0.057143 0.049861 -0.193871
-0.030583 0.058455 -0.146232
0.049520 0.104317 -0.107821
-0.108019 -0.034311 -0.167924
0.347948 0.023676 -0.013625
0.425312 -0.092097 0.021014
0.238669 0.038562 0.148482
0.286583 -0.112081 -0.146357
0.316172 0.028501 0.085875
0.059591 0.107035 0.051695
0.191638 0.046898 0.056805
0.090952 0.094265 -0.038061
0.292198 0.031005 -0.107728
0.401948 -0.056076 -0.123467
0.321668 0.008492 0.156757
0.014188 0.022866 -0.168852
0.429612 -0.049608 -0.063079
0.141931 0.062342 -0.105020
0.372403 0.010563 -0.076275
-0.279247 0.012881 -0.174864
0.375039 0.013961 0.029257
0.294052 -0.046183 -0.189609
-0.241303 -0.022609 -0.173370
0.009651 0.116615 -0.092211
0.155389 0.056681 0.094865
0.199740 0.045541 -0.034850
-0.196458 -0.095169 -0.163131
0.262899 0.039066 -0.069891
-0.018924 -0.061860 -0.173400
0.377849 -0.039970 0.147904
0.104129 0.087115 0.058729
0.283000 -0.118134 0.154095
-0.080704 -0.064889 -0.175353
0.081047 0.029496 -0.165083
0.000231 0.121006 0.052160
0.266130 0.039875 0.022270
0.258477 -0.121155 -0.174893
0.397462 -0.094637 0.116324
-0.272341 -0.064102 -0.175497
0.072880 0.069697 -0.140133
0.256773 0.037509 0.104870
0.411639 -0.016319 0.017317
0.408481 -0.007289 -0.053218
0.435341 -0.050693 0.029160
0.047161 0.105226 0.114095
0.334827 0.018260 0.120502
0.369888 -0.001492 -0.125117
0.405523 -0.016796 0.091856
0.196443 0.043842 0.143829
-0.054318 -0.037318 -0.169416
-0.062926 0.077839 -0.137460
0.014770 -0.026986 -0.173061
-0.034761 0.028116 -0.167312
0.141495 0.013031 -0.169225
0.010709 0.094650 -0.126497
0.236101 0.043921 -0.041250
-0.207862 -0.007361 -0.176553
0.290071 0.035806 0.049747
0.290246 0.024224 -0.153554
0.110868 0.075621 0.125232
-0.079688 -0.011189 -0.171014
0.111311 0.075208 -0.134322
0.154979 0.063392 0.017321
0.121346 0.079899 -0.049550
0.335205 -0.032175 -0.167516
0.087093 -0.029284 -0.173675
0.301081 0.034943 -0.000762
0.055345 0.109820 -0.025036
0.065264 0.103813 -0.069430
0.409065 -0.061784 0.060374
0.222451 0.039814 -0.152332
-0.134552 -0.011659 -0.169667
0.156213 0.050003 -0.134134
0.217273 0.001729 -0.175890
-0.199746 0.026882 -0.167639
0.294307 0.034659 -0.057544
0.127381 0.073914 0.084492
-0.117233 0.020732 -0.166919
0.263334 -0.004953 -0.175593
0.258866 0.035213 -0.134579
-0.153336 -0.082693 -0.172378
-0.244603 -0.113306 -0.173056
-0.260489 0.038218 -0.166495
0.170825 0.054409 -0.022977
0.332251 -0.001542 -0.157699
-0.187536 -0.065350 -0.173691
0.366035 0.016898 -0.039384
0.364704 -0.069920 -0.154398
0.320135 0.030771 -0.027820
0.261076 -0.125577 -0.131597
0.391536 -0.024741 -0.124007
0.405359 -0.071778 0.091939
0.372214 -0.067001 -0.122591
0.109998 0.017239 -0.168849
0.175640 0.045926 -0.092917
-0.001852 0.069896 -0.141594
0.419860 -0.046890 -0.092690
0.027972 0.117984 0.034811
0.431126 -0.081997 -0.009307
0.407250 -0.071277 -0.065021
0.113510 0.085102 -0.011038
0.341797 0.020216 -0.090192
0.386610 -0.017297 0.122113
-0.135621 -0.058291 -0.174187
0.399484 0.001515 0.041868
0.063212 0.103178 0.081401
0.289134 0.032831 0.098033
0.350133 0.020895 0.060191
-0.172435 -0.011970 -0.175181
0.303591 -0.071222 -0.175049
0.166221 0.055518 0.045820
0.146466 0.066796 -0.043870
0.167735 0.044971 0.144178
0.414565 -0.024890 -0.015280
0.073154 0.093987 -0.120079
0.135292 0.070847 -0.072609
0.131025 0.076640 0.024851
0.431794 -0.052783 -0.033889
0.054621 0.050458 -0.149540
0.341905 -0.096118 -0.156316
0.378097 0.013804 0.001723
0.365585 0.008012 0.108637
0.426126 -0.046012 0.074893
0.086676 0.096203 0.038792
0.401882 -0.084994 -0.117540
0.383182 -0.051142 -0.143042
0.070503 0.095031 0.123381
0.191434 0.047217 0.084868
-0.100151 0.070855 -0.141510
0.067969 0.105563 0.018696
-0.064030 0.100433 -0.123899
-0.021058 -0.087688 -0.168903
0.198824 0.019399 -0.169827
0.346995 0.023903 0.016957
-0.074047 -0.091422 -0.167195
0.340962 0.021242 0.085313
-0.279068 -0.012879 -0.174880
0.168415 0.051917 0.073424
0.426164 -0.086814 0.045946
-0.218811 0.042149 -0.160771
0.351943 0.020160 -0.060811
0.362117 0.010608 -0.101673
0.040365 0.113322 0.066765
0.021917 -0.051628 -0.169776
0.340167 -0.008337 0.157900
0.081503 0.099659 -0.010630
0.401597 -0.004572 0.070500
0.414960 -0.071505 -0.024723
0.414322 -0.027365 -0.070226
0.164068 0.048731 0.116388
0.287261 -0.104756 -0.172578
0.308798 0.030714 -0.078366
0.040612 0.092346 -0.127001
0.312071 -0.036089 -0.173179
0.416132 -0.093574 -0.064771
0.419437 -0.027465 -0.038598
0.110053 0.086162 0.031443
0.315367 0.022089 0.133935
-0.012783 0.019118 -0.169863
0.081424 0.097106 0.062050
0.407233 -0.035870 -0.109989
0.261903 0.034142 0.149081
0.225425 0.039977 -0.124792
0.433081 -0.070843 0.014572
0.281432 0.036318 0.071619
0.084928 0.093924 -0.077693
-0.056625 0.019793 -0.169156
0.411778 -0.059684 -0.045134
-0.108765 -0.057167 -0.172390
0.359847 -0.010503 -0.144360
0.389591 0.004461 -0.059538
0.280867 0.031196 -0.128710
0.097959 0.052520 -0.147838
0.281653 -0.027396 -0.194402
0.297044 0.035298 0.021883
0.429245 -0.030456 0.009975
-0.096592 -0.088427 -0.169170
0.122210 0.075189 -0.093351
0.320725 0.031067 0.009679
0.186664 0.046867 0.034809
0.431586 -0.042452 0.049782
0.323607 0.028126 0.064668
0.412851 -0.070083 0.039181
-0.008082 0.117829 -0.110657
0.378305 0.010887 0.051218
0.069926 0.049519 -0.175516
0.045830 0.109244 -0.086326
-0.229240 -0.097152 -0.174518
0.354173 -0.046576 -0.161566
0.238504 0.008467 -0.175410
0.162250 0.049980 -0.112733
0.309615 0.014224 -0.156902
-0.016193 0.088035 -0.130969
0.034317 0.014303 -0.171258
-0.218800 -0.046984 -0.175512
-0.150890 -0.025942 -0.172628
0.396541 0.004532 0.020377
0.205652 0.045521 -0.013841
0.074815 0.009869 -0.172164
0.110131 0.079389 0.103798
0.175950 0.050173 -0.043685
0.391444 -0.007324 -0.102966
0.091716 0.085193 0.128474
-0.264440 -0.084160 -0.176222
0.127716 0.062565 -0.144622
0.299073 0.034763 -0.027974
-0.182170 0.036260 -0.159836
0.181255 0.034158 -0.160148
0.068431 0.104180 -0.040924
0.414681 -0.067105 -0.097164
0.406015 -0.096133 0.091606
0.185431 0.045817 -0.065081
0.275586 0.017971 -0.167527
0.391363 -0.051839 0.136868
0.318742 0.025219 0.106502
0.283654 0.034750 -0.088886
0.404380 0.001489 0.001202
0.292945 -0.074874 -0.192649
0.394028 0.004466 -0.039141
0.434854 -0.061499 -0.013819
0.414450 -0.034823 0.097262
0.271589 0.039457 0.002195
0.268762 0.039142 -0.039803
0.001728 -0.060863 -0.171547
0.157035 0.062976 -0.003283
0.254619 0.039198 -0.088856
0.418844 -0.055651 0.091673
0.311354 0.031696 0.048416
0.415340 -0.028568 0.076997
0.109926 0.083008 0.078063
0.055709 0.110286 -0.003702
-0.039466 0.094101 -0.127529
0.322894 0.023690 -0.108136
0.412851 -0.007296 -0.033220
-0.240890 0.042769 -0.163438
0.059149 -0.021996 -0.174227
0.397991 -0.035763 0.126311
0.113068 0.084749 -0.031339
0.034722 0.047188 -0.150853
0.066645 0.098996 -0.098584
0.140882 0.071772 0.005523
0.414846 -0.025260 0.035086
0.305025 0.023936 -0.139986
0.146068 0.064711 0.073441
0.271646 -0.120094 -0.156988
0.088662 0.094032 -0.058078
0.283869 -0.008081 -0.175313
0.086459 0.089241 -0.106316
0.089601 -0.009739 -0.173984
0.384565 0.001561 0.088834
0.437496 -0.050262 0.009612
0.359585 0.020352 0.002121
-0.087581 0.006755 -0.170153
0.123569 0.080760 0.006595
0.375671 -0.059313 0.149122
0.346724 0.023578 -0.033089
-0.132583 -0.039583 -0.169875
0.413491 -0.079815 -0.048764
0.260812 -0.124734 0.169323
-0.037835 -0.058490 -0.171271
0.407448 -0.066007 0.117755
-0.217378 -0.116515 -0.155996
0.171807 0.012668 -0.169654
0.331464 0.027076 -0.044818
-0.011477 -0.044560 -0.170015
-0.062569 -0.059609 -0.172881
0.387421 0.001480 -0.083609
0.136860 0.062362 -0.123229
0.350959 0.007609 -0.130222
0.039732 0.115208 -0.034076
0.317222 -0.017175 -0.170836
0.029511 0.110994 0.111385
0.356388 -0.011451 0.149039
0.348584 -0.077133 -0.160580
-0.180036 0.016865 -0.169652
0.126048 0.066692 0.132091
0.321682 0.020431 -0.130407
0.386384 -0.004700 0.108437
0.265585 -0.123619 0.151178
0.139268 0.065436 0.096913
0.147810 0.062331 -0.083141
0.356670 0.014492 0.092003
0.401922 -0.071297 -0.084650
0.233724 0.038575 0.130882
0.171902 0.054702 0.004111
0.307133 0.018938 0.153140
0.055627 0.074810 -0.137522
0.126045 0.077499 0.055510
0.431094 -0.035763 -0.027585
0.271866 0.036802 0.086876
0.117462 0.079681 -0.076571
0.040024 0.115703 -0.012544
0.278742 -0.114587 0.136967
0.290330 0.008038 -0.169811
0.145203 0.068116 0.036676
0.242283 0.035612 -0.155546
-0.236022 -0.042550 -0.173873
0.050925 0.111667 0.036809
0.400877 -0.023127 0.107714
0.041744 0.109627 0.097875
0.301690 0.027352 -0.123022
0.305129 -0.052186 -0.172103
0.121797 0.070915 -0.120571
-0.229567 -0.122090 -0.174487
0.299530 0.032363 0.082323
0.415160 -0.007329 -0.009281
0.010548 0.006250 -0.172571
0.063787 0.099472 0.107960
0.078138 0.041512 -0.152848
0.052668 0.109579 -0.045655
0.271608 0.033593 0.121185
0.272551 -0.112700 -0.180200
0.387016 0.004647 0.070744
0.418250 -0.055838 -0.074420
0.059779 0.018003 -0.170314
-0.267925 -0.110021 -0.170836
-0.020713 -0.002136 -0.173198
-0.148596 -0.044733 -0.172862
0.335556 0.027275 -0.002528
0.156038 0.062748 -0.022782
0.393737 -0.041976 -0.133417
0.381381 -0.083774 -0.130697
-0.204317 -0.105707 -0.152532
0.049680 0.109370 -0.066114
