0.077102 0.100588 0.014196
0.078566 0.100226 -0.011444
0.080236 0.099262 0.001011
0.060662 0.106706 0.013363
0.088825 0.095628 -0.009156
0.074481 0.101757 0.002807
0.085059 0.097242 -0.002324
0.076287 0.101327 -0.018057
0.058297 0.107475 -0.004898
0.090675 0.094949 0.009339
0.065503 0.104847 0.009008
0.080768 0.099396 0.019904
-0.150634 0.103311 0.109789
-0.173105 0.090753 -0.104873
-0.113771 0.112579 -0.077674
-0.119232 0.098877 -0.113415
-0.123179 0.110039 -0.021856
-0.135286 0.104536 -0.069807
-0.154955 0.091992 -0.110922
-0.163147 0.101764 -0.045878
-0.158048 0.105028 0.027045
-0.159736 0.096738 -0.094344
-0.141944 0.107864 0.011084
-0.156343 0.104162 0.068814
-0.123491 0.112303 0.059063
-0.151465 0.101703 -0.058252
-0.172014 0.098858 -0.065098
-0.126551 0.105137 -0.090410
-0.146898 0.099504 -0.084305
-0.129324 0.110571 0.000145
-0.183017 0.099637 0.005254
-0.173017 0.100586 0.093303
-0.142414 0.108201 0.045231
-0.134852 0.099890 -0.104067
-0.136157 0.107292 -0.037758
-0.180830 0.098622 0.049497
-0.110177 0.106810 -0.101460
-0.147821 0.105876 -0.010937
-0.122122 0.109838 -0.051260
-0.139387 0.090890 -0.117240
-0.182064 0.093432 -0.086533
-0.115435 0.114660 0.025238
-0.169218 0.101163 -0.022288
-0.136683 0.108357 0.081877
0.387553 -0.054373 0.140247
0.378316 -0.043407 0.148136
0.390124 -0.059719 0.135992
0.393762 -0.054875 0.133404
0.392700 -0.045885 0.136259
0.380111 -0.075246 0.139837
0.388230 -0.044806 0.140128
0.386721 -0.034911 0.140385
0.389319 -0.041888 0.139150
0.383056 -0.047728 0.144532
0.381468 -0.057402 0.145842
0.379335 -0.066268 0.144670
0.389538 -0.067390 0.134325
0.386002 -0.058627 0.140709
0.380026 -0.051192 0.147008
0.386420 -0.071770 0.135198
0.389812 -0.047609 0.138452
0.390598 -0.052432 0.137307
0.372986 -0.072417 0.146658
0.376079 -0.061027 0.148063
0.382591 -0.062727 0.142649
0.388351 -0.063745 0.136797
0.384398 -0.067473 0.139467
0.380738 -0.038056 0.146895
0.395565 -0.049390 0.131952
0.384081 -0.053234 0.143805
0.393027 -0.038505 0.134975
0.388656 -0.051129 0.139431
0.374783 -0.054749 0.149568
0.394368 -0.058967 0.131882
0.384705 -0.041751 0.143355
0.385039 -0.048529 0.143531
0.124952 0.078505 0.038347
0.114477 0.084213 0.004447
0.140319 0.071309 0.016094
0.134191 0.074885 0.001293
0.134981 0.074118 0.021104
0.128158 0.077573 0.012325
0.120823 0.081476 0.002058
0.120129 0.081609 0.019672
0.123228 0.079861 0.025244
0.118551 0.082116 0.008549
0.129308 0.077054 0.023341
0.121984 0.080080 0.030782
0.137756 0.072240 0.033391
0.122602 0.080204 0.013797
0.116610 0.083251 0.015263
0.132784 0.075441 0.008787
0.124374 0.079640 0.007529
0.133262 0.074896 0.027981
0.112114 0.085065 0.020397
0.117401 0.082262 0.035432
0.127373 0.077388 0.030169
0.128920 0.077549 0.005031
0.130261 0.076290 0.017090
0.112851 0.084521 0.028938
0.138807 0.072430 0.006618
0.125114 0.079066 0.019148
0.135006 0.074251 0.013536
0.126864 0.078943 -0.002019
0.111329 0.085586 0.011220
0.140329 0.071291 0.025074
0.117246 0.082423 0.025030
0.130843 0.076018 0.035758
-0.104445 0.068321 -0.139397
-0.147232 0.082131 -0.130615
-0.093767 0.064643 -0.141581
-0.084955 0.072994 -0.137332
-0.094358 0.084818 -0.130948
-0.125535 0.045825 -0.148485
-0.113402 0.085234 -0.130949
-0.114164 0.095905 -0.123716
-0.103817 0.090544 -0.127197
-0.130473 0.079020 -0.133602
-0.134004 0.065540 -0.140017
-0.136218 0.052470 -0.145429
-0.090385 0.054633 -0.145577
-0.116639 0.064099 -0.141150
-0.141009 0.073500 -0.135654
-0.103896 0.047889 -0.147920
-0.104485 0.079291 -0.134606
-0.095632 0.075047 -0.136669
-0.153553 0.049616 -0.146112
-0.145212 0.060420 -0.141707
-0.126296 0.058683 -0.143584
-0.105102 0.059148 -0.143643
-0.115043 0.053560 -0.145581
-0.135442 0.090699 -0.125740
-0.078603 0.081756 -0.133080
-0.124438 0.070594 -0.137882
-0.086259 0.093000 -0.126227
-0.111759 0.073468 -0.137075
-0.155644 0.068526 -0.137378
-0.078665 0.063983 -0.141709
-0.124270 0.087110 -0.128649
-0.118982 0.078289 -0.134247
0.184178 0.045623 0.087942
0.160234 0.045913 0.044265
0.206378 0.044937 0.058688
0.200445 0.045530 0.042293
0.195289 0.045082 0.063427
0.187520 0.045741 0.053182
0.181443 0.046202 0.041795
0.180168 0.045913 0.059665
0.183271 0.045868 0.068052
0.177029 0.045937 0.049915
0.189647 0.045782 0.066171
0.180218 0.045543 0.076323
0.206186 0.044750 0.077336
0.182893 0.045971 0.055511
0.167822 0.045808 0.056863
0.193711 0.045252 0.049866
0.184727 0.045944 0.048300
0.195808 0.045427 0.070580
0.154438 0.046329 0.063912
0.172428 0.045966 0.082896
0.187842 0.045931 0.073762
0.189049 0.045948 0.045009
0.190606 0.045338 0.058706
0.167367 0.045965 0.073218
0.211863 0.044728 0.049428
0.185855 0.045917 0.060918
0.197408 0.045118 0.056289
0.187269 0.046308 0.038176
0.140149 0.046010 0.052169
0.219766 0.044818 0.068669
0.176579 0.045894 0.066145
0.190903 0.045565 0.081061
0.332002 -0.091270 0.158340
0.331661 -0.064979 0.161606
0.367833 -0.095838 0.138718
0.315058 -0.070326 0.153354
0.354308 -0.068719 0.146719
0.307544 -0.048980 0.167495
0.343217 -0.082363 0.124453
0.338197 -0.043717 0.147406
0.363768 -0.072721 0.148007
0.342978 -0.095575 0.151747
0.298309 -0.096778 0.150342
0.289630 -0.088802 0.168289
0.318686 -0.093636 0.157513
0.348228 -0.085965 0.155178
0.322042 -0.047410 0.168514
0.296469 -0.064628 0.172317
0.354254 -0.096644 0.141256
0.352737 -0.097955 0.123587
0.302974 -0.095645 0.156679
0.301321 -0.092754 0.168400
0.339741 -0.096117 0.142423
0.316053 -0.094883 0.130997
0.344462 -0.054296 0.159198
0.352322 -0.082899 0.152312
0.335308 -0.074817 0.158922
0.332700 -0.098096 0.133813
0.319152 -0.081032 0.166111
0.330246 -0.084872 0.151636
0.357561 -0.047879 0.151257
0.321855 -0.095586 0.157493
0.365039 -0.088317 0.125454
0.309264 -0.076828 0.167886
-0.009215 -0.068185 -0.172331
-0.039582 -0.059989 -0.172626
-0.000653 -0.071707 -0.172066
0.005145 -0.066336 -0.172684
-0.002120 -0.059621 -0.172313
-0.020373 -0.084344 -0.167890
-0.015267 -0.059231 -0.172390
-0.017661 -0.052249 -0.171024
-0.009689 -0.055912 -0.171598
-0.028279 -0.061643 -0.172726
-0.028792 -0.070077 -0.172065
-0.029276 -0.078788 -0.169988
0.004268 -0.078616 -0.170541
-0.016906 -0.070920 -0.172071
-0.034304 -0.065019 -0.172480
-0.005912 -0.082118 -0.168782
-0.008921 -0.061897 -0.172874
-0.002701 -0.064917 -0.172565
-0.040782 -0.081204 -0.169271
-0.037013 -0.073117 -0.171636
-0.022901 -0.074615 -0.171421
-0.007910 -0.074841 -0.171404
-0.014690 -0.078384 -0.170234
-0.031956 -0.055021 -0.171500
0.010112 -0.061203 -0.172717
-0.023275 -0.066709 -0.172546
0.002615 -0.055016 -0.171391
-0.014370 -0.065079 -0.172613
-0.044640 -0.067777 -0.172600
0.012353 -0.071948 -0.172013
-0.023351 -0.057471 -0.171903
-0.019565 -0.062473 -0.172390
0.168875 0.053947 0.054917
0.161132 0.059049 0.021314
0.180870 0.047390 0.031901
0.176686 0.050529 0.018478
0.176680 0.049612 0.037477
0.171556 0.053390 0.029236
0.165790 0.056576 0.019280
0.164704 0.057124 0.035547
0.166678 0.055189 0.041524
0.163941 0.057044 0.025077
0.172528 0.052610 0.039669
0.166889 0.055570 0.047062
0.179568 0.048149 0.048993
0.167478 0.055410 0.030824
0.162826 0.058173 0.031493
0.175533 0.051223 0.025859
0.168784 0.054823 0.025035
0.175930 0.050438 0.043568
0.159258 0.060247 0.036770
0.163111 0.057548 0.051305
0.171033 0.052720 0.045922
0.172399 0.053034 0.022271
0.172852 0.051778 0.033596
0.158991 0.059739 0.044436
0.180101 0.048284 0.023739
0.169193 0.054497 0.036087
0.176494 0.049975 0.030679
0.170805 0.054279 0.015002
0.159034 0.060090 0.027787
0.181699 0.047393 0.041535
0.162999 0.057560 0.040638
0.173629 0.051464 0.051677
0.111076 0.023673 -0.028442
0.111382 0.044973 -0.087882
0.128197 -0.015782 -0.103426
0.089222 0.041694 -0.098030
0.120575 0.041986 -0.106505
0.087324 0.048186 -0.067082
0.109824 0.037633 -0.132315
0.101340 0.038802 -0.119742
0.146864 0.048387 -0.058483
0.120487 -0.021101 -0.014828
0.077675 0.007204 -0.103343
0.052332 0.031853 -0.087769
0.092428 0.019266 -0.081260
0.129131 0.045165 -0.073790
0.100024 0.043819 -0.032345
0.054231 0.027748 -0.030597
0.134970 -0.017439 -0.058021
0.101973 -0.008370 -0.119457
0.074902 0.010907 -0.059095
0.082608 0.003192 -0.014672
0.104975 -0.006241 -0.081348
0.077768 0.024372 -0.119269
0.123185 0.045157 -0.047842
0.136527 0.044372 -0.026697
0.116850 0.042275 -0.004271
0.105536 0.020409 -0.104881
0.088595 0.031930 0.007582
0.109543 0.034562 -0.056760
0.141427 0.039804 -0.096217
0.101619 -0.008433 -0.049038
0.134331 0.043782 -0.122975
0.087333 0.025892 -0.045064
0.374849 -0.090417 0.141786
0.394097 -0.080866 0.114927
0.398320 -0.094705 0.114115
0.406602 -0.094231 0.099147
0.393860 -0.085518 0.123226
0.388896 -0.096096 0.114874
0.404634 -0.085036 0.105674
0.397107 -0.067316 0.119749
0.387490 -0.080751 0.131403
0.397389 -0.089174 0.115423
0.381377 -0.093473 0.133993
0.377424 -0.095108 0.134107
0.381177 -0.095807 0.131187
0.393779 -0.094858 0.120594
0.388423 -0.090543 0.123921
0.398055 -0.096004 0.107337
0.398924 -0.084626 0.115455
0.392569 -0.092626 0.123231
0.370963 -0.096948 0.126964
0.368036 -0.094086 0.141599
0.385231 -0.095785 0.130331
0.401965 -0.095955 0.104987
0.391455 -0.095636 0.121065
0.377005 -0.072688 0.138613
0.404095 -0.090890 0.107175
0.387654 -0.090547 0.128963
0.394191 -0.076392 0.124193
0.405992 -0.091002 0.095000
0.379555 -0.094016 0.121224
0.391762 -0.094082 0.122736
0.391913 -0.076795 0.124310
0.380960 -0.087441 0.136849
0.271178 0.027841 0.153982
0.260731 0.035296 0.119245
0.297840 0.026742 0.130720
0.290216 0.030530 0.114926
0.290065 0.027619 0.136030
0.280145 0.031334 0.126018
0.270233 0.034162 0.115559
0.267528 0.032303 0.134244
0.271196 0.030810 0.139992
0.265976 0.033800 0.124725
0.280308 0.029608 0.138569
0.266901 0.030477 0.147254
0.291518 0.025318 0.147461
0.271646 0.032624 0.127690
0.260454 0.033878 0.132405
0.287379 0.030188 0.122873
0.275897 0.032589 0.120166
0.285304 0.027659 0.143069
0.252389 0.035051 0.137191
0.258075 0.030971 0.151816
0.276442 0.029132 0.145571
0.282226 0.032015 0.118339
0.283446 0.029844 0.131395
0.253398 0.032695 0.145909
0.296767 0.028015 0.121442
0.275211 0.031345 0.133157
0.290891 0.028443 0.128140
0.280035 0.033160 0.111407
0.253873 0.035773 0.127074
0.296203 0.025967 0.139855
0.261613 0.032206 0.141135
0.281577 0.026764 0.151056
0.352401 -0.006614 0.148460
0.328443 0.003480 0.147579
0.362458 -0.009826 0.142313
0.365485 -0.006330 0.134838
0.359010 -0.002711 0.137765
0.352787 -0.020015 0.156105
0.352664 0.001656 0.139586
0.344981 0.006664 0.138802
0.350630 0.001732 0.140648
0.344181 0.000368 0.145462
0.345397 -0.007188 0.153175
0.342371 -0.013366 0.158285
0.363926 -0.017173 0.146398
0.354471 -0.006792 0.146620
0.335616 -0.002049 0.150970
0.361962 -0.017981 0.148568
0.356349 -0.001127 0.139026
0.358707 -0.005460 0.142250
0.327992 -0.015146 0.160808
0.332327 -0.007945 0.158573
0.350309 -0.010847 0.153608
0.361827 -0.010347 0.144271
0.356387 -0.014419 0.151487
0.330038 0.005621 0.147661
0.365910 -0.004549 0.132206
0.348638 -0.003946 0.148938
0.357030 0.002161 0.133168
0.357639 -0.001993 0.138878
0.317618 -0.002704 0.153940
0.367199 -0.010945 0.137799
0.342419 0.002914 0.145516
0.348795 -0.002329 0.147787
0.237038 0.036955 0.137433
0.222505 0.041298 0.100250
0.265169 0.035303 0.112416
0.257517 0.037796 0.096238
0.257564 0.035934 0.118285
0.246237 0.038497 0.107576
0.234156 0.040606 0.096871
0.231682 0.039215 0.116011
0.235975 0.038356 0.122130
0.229262 0.040403 0.106453
0.246503 0.037454 0.120576
0.231839 0.038401 0.130291
0.258396 0.034897 0.130169
0.236366 0.039435 0.109304
0.222783 0.040420 0.114350
0.254179 0.037526 0.104282
0.240822 0.039469 0.101567
0.251387 0.036344 0.125583
0.213908 0.041362 0.119623
0.222124 0.039016 0.135222
0.242119 0.037552 0.127989
0.248568 0.038977 0.099747
0.249902 0.037448 0.113352
0.216365 0.039804 0.128783
0.264379 0.035959 0.103081
0.240833 0.038605 0.114774
0.257540 0.036238 0.110286
0.245752 0.039875 0.092976
0.213510 0.041709 0.108324
0.263888 0.034924 0.122443
0.225271 0.039416 0.123631
0.248012 0.035989 0.133934
0.148597 0.066318 0.035356
0.139037 0.071761 0.003704
0.162782 0.059024 0.014494
0.157319 0.062463 0.000874
0.157803 0.061724 0.019377
0.151520 0.065357 0.011093
0.144667 0.069031 0.001654
0.144007 0.069415 0.017985
0.146603 0.067584 0.023071
0.142581 0.069666 0.007489
0.152831 0.064754 0.021405
0.146055 0.067914 0.028325
0.160751 0.059937 0.030665
0.146531 0.067821 0.012538
0.141075 0.070863 0.013803
0.156027 0.063112 0.007868
0.148107 0.067163 0.006638
0.156542 0.062544 0.025770
0.136871 0.072852 0.018555
0.141741 0.070102 0.032508
0.150844 0.065054 0.027661
0.152393 0.065131 0.004476
0.153425 0.063905 0.015484
0.137222 0.072332 0.026388
0.161541 0.060062 0.005809
0.148823 0.066764 0.017592
0.157863 0.061889 0.012245
0.150383 0.066497 -0.002273
0.136297 0.073096 0.010096
0.163199 0.059035 0.023094
0.141513 0.070138 0.023004
0.154160 0.063736 0.032976
0.043815 -0.095153 -0.085064
0.027883 -0.095863 -0.128481
0.061120 -0.095449 -0.136740
-0.003596 -0.095519 -0.138399
0.039351 -0.095785 -0.142214
-0.012878 -0.095957 -0.124484
0.026849 -0.095221 -0.152875
0.005266 -0.095870 -0.154444
0.077725 -0.095568 -0.126808
0.064335 -0.095552 -0.087098
-0.026594 -0.096055 -0.135660
-0.030515 -0.096052 -0.114181
0.009206 -0.095589 -0.126042
0.029443 -0.095610 -0.096802
0.009099 -0.095486 -0.100961
-0.023439 -0.095004 -0.086556
0.060894 -0.095422 -0.116725
0.052117 -0.095534 -0.151989
-0.018397 -0.095260 -0.104612
-0.006368 -0.095590 -0.094570
0.039820 -0.095021 -0.112235
-0.016399 -0.096006 -0.149375
0.051085 -0.095276 -0.101573
0.073478 -0.095537 -0.103219
0.030202 -0.094575 -0.073693
0.016028 -0.095712 -0.140867
0.000164 -0.095227 -0.079611
0.020604 -0.095118 -0.113369
0.046627 -0.095675 -0.128543
0.018838 -0.094603 -0.086131
0.073869 -0.096212 -0.147405
-0.001419 -0.095670 -0.112549
0.324246 0.003069 0.156869
0.319027 0.018707 0.134366
0.347860 0.001881 0.142509
0.346621 0.008470 0.129266
0.339162 0.007161 0.142482
0.338125 -0.011548 0.148654
0.332461 0.016733 0.129243
0.323222 0.016531 0.138494
0.325667 0.011645 0.145538
0.327341 0.014834 0.136387
0.328815 0.006601 0.151705
0.323634 0.000141 0.157890
0.342278 -0.009210 0.154595
0.334455 0.009589 0.142732
0.322239 0.013323 0.145332
0.345264 -0.004083 0.142050
0.335045 0.013203 0.135379
0.339346 0.004747 0.147498
0.316907 -0.002195 0.154121
0.313957 0.004902 0.158929
0.332293 0.001615 0.154046
0.342721 0.007198 0.135725
0.339682 -0.000316 0.148347
0.308792 0.014407 0.149180
0.348271 0.007291 0.132726
0.328958 0.010505 0.146548
0.335285 0.011721 0.136622
0.338596 0.013545 0.125042
0.315617 0.013904 0.143692
0.346246 0.000182 0.146379
0.322078 0.013736 0.145555
0.329643 0.005230 0.152466
-0.067066 0.024798 -0.166691
-0.100028 0.034118 -0.161373
-0.059819 0.020382 -0.167829
-0.053302 0.027034 -0.165985
-0.060359 0.034383 -0.161889
-0.079042 0.005710 -0.169096
-0.074676 0.035612 -0.161469
-0.077667 0.041443 -0.155397
-0.068596 0.038924 -0.158424
-0.087823 0.031909 -0.163244
-0.088058 0.022366 -0.166720
-0.087535 0.011977 -0.168626
-0.056086 0.012430 -0.169393
-0.075060 0.020843 -0.167324
-0.093827 0.028190 -0.164449
-0.065131 0.006989 -0.169232
-0.067898 0.032194 -0.163688
-0.061171 0.028702 -0.165515
-0.098331 0.009918 -0.168382
-0.095948 0.019155 -0.167448
-0.081340 0.016730 -0.168231
-0.066655 0.016391 -0.168406
-0.073739 0.011792 -0.168668
-0.093293 0.039615 -0.157030
-0.049924 0.032929 -0.163172
-0.082310 0.025930 -0.165798
-0.056177 0.039358 -0.157477
-0.073314 0.028314 -0.165331
-0.103292 0.025064 -0.165651
-0.049145 0.020674 -0.167882
-0.083754 0.037112 -0.159644
-0.079045 0.031548 -0.163654
-0.039555 -0.077610 -0.090036
-0.059250 -0.072279 -0.146936
-0.006201 -0.079090 -0.153532
-0.099130 -0.071573 -0.158111
-0.040520 -0.076628 -0.161186
-0.120817 -0.073970 -0.144914
-0.060501 -0.077958 -0.164080
-0.083896 -0.072915 -0.168154
0.017955 -0.077435 -0.139886
-0.009911 -0.075824 -0.079946
-0.140830 -0.076343 -0.158098
-0.154145 -0.074180 -0.135296
-0.094754 -0.078274 -0.141728
-0.051465 -0.073060 -0.112504
-0.088702 -0.070739 -0.107583
-0.148028 -0.071094 -0.086262
-0.010800 -0.079065 -0.125881
-0.017930 -0.078498 -0.165587
-0.137094 -0.075522 -0.115884
-0.118320 -0.074867 -0.090657
-0.042034 -0.079918 -0.138039
-0.115265 -0.076998 -0.164617
-0.021879 -0.073049 -0.106689
0.011361 -0.075602 -0.101539
-0.060977 -0.068901 -0.074140
-0.076074 -0.080602 -0.156299
-0.095553 -0.073693 -0.075982
-0.073912 -0.077281 -0.122972
-0.027404 -0.073419 -0.150361
-0.075716 -0.077651 -0.093708
0.013084 -0.074504 -0.165571
-0.107657 -0.074348 -0.119140
0.013890 0.120557 -0.029742
-0.031101 0.120597 -0.076637
0.036322 0.114185 -0.060783
0.026905 0.115173 -0.078597
0.029459 0.116311 -0.053499
0.019966 0.118201 -0.065766
0.003993 0.119740 -0.078988
0.003909 0.120871 -0.058668
0.010122 0.120535 -0.048543
-0.002955 0.120780 -0.070382
0.022863 0.118955 -0.050099
0.007038 0.120619 -0.039898
0.031885 0.116058 -0.037811
0.010276 0.120068 -0.064704
-0.017468 0.121340 -0.062366
0.025682 0.116507 -0.069433
0.012782 0.119108 -0.072807
0.025995 0.117885 -0.045683
-0.039114 0.123063 -0.053333
-0.007320 0.122113 -0.033739
0.019345 0.119736 -0.041907
0.020586 0.117790 -0.075692
0.024661 0.117719 -0.058581
-0.020143 0.122956 -0.042886
0.033772 0.113645 -0.071375
0.016974 0.119762 -0.056884
0.029663 0.116142 -0.062684
0.017126 0.117789 -0.082799
-0.064781 0.121793 -0.067937
0.036554 0.114538 -0.047090
-0.003109 0.121826 -0.049883
0.024698 0.119066 -0.034484
0.113046 0.084494 0.018070
0.100970 0.089883 -0.017782
0.129937 0.076705 -0.005098
0.122755 0.080083 -0.021014
0.123996 0.079661 0.000146
0.116299 0.083005 -0.009376
0.107994 0.086946 -0.020420
0.107605 0.087354 -0.001607
0.111231 0.085623 0.004354
0.105712 0.087731 -0.013334
0.117843 0.082658 0.002466
0.109713 0.085932 0.010264
0.126950 0.078007 0.013212
0.110200 0.085779 -0.007782
0.103599 0.089028 -0.006141
0.121374 0.080744 -0.013018
0.112028 0.085109 -0.014559
0.122061 0.080565 0.007449
0.098814 0.090941 -0.000649
0.104762 0.088312 0.015259
0.115757 0.083130 0.009645
0.117060 0.082864 -0.017154
0.118912 0.081801 -0.004252
0.099689 0.090589 0.008483
0.127875 0.077692 -0.015168
0.113149 0.084640 -0.002181
0.123985 0.079655 -0.007918
0.114703 0.084165 -0.024472
0.097687 0.091418 -0.010458
0.129649 0.076807 0.004454
0.104450 0.088328 0.004187
0.119585 0.081859 0.015607
-0.001637 -0.044123 -0.169234
-0.024999 -0.037632 -0.168751
0.007049 -0.045718 -0.169871
0.011963 -0.041979 -0.169787
0.005128 -0.037044 -0.169365
-0.009035 -0.054483 -0.169357
-0.005422 -0.037049 -0.169327
-0.006069 -0.028356 -0.169047
-0.000577 -0.033441 -0.169165
-0.015670 -0.039643 -0.169148
-0.015244 -0.045114 -0.168957
-0.016252 -0.050455 -0.168967
0.011801 -0.049743 -0.170002
-0.007192 -0.045724 -0.169247
-0.021052 -0.042308 -0.168780
0.001961 -0.052373 -0.169639
-0.000598 -0.039446 -0.169544
0.004277 -0.041843 -0.169485
-0.026606 -0.051838 -0.168949
-0.021828 -0.046866 -0.169016
-0.011345 -0.047753 -0.169258
0.000041 -0.047660 -0.169553
-0.005146 -0.050009 -0.169481
-0.017626 -0.032008 -0.168610
0.018494 -0.038150 -0.169863
-0.011664 -0.043159 -0.169056
0.010587 -0.031300 -0.169133
-0.005102 -0.042149 -0.169371
-0.031259 -0.043755 -0.168790
0.021198 -0.045208 -0.170010
-0.011569 -0.035371 -0.168878
-0.008488 -0.040202 -0.169002
0.043819 0.112690 -0.024750
0.030983 0.114383 -0.054772
0.058006 0.107396 -0.044261
0.052087 0.108681 -0.057411
0.053181 0.109090 -0.039829
0.046581 0.110937 -0.047699
0.038598 0.112783 -0.057067
0.038600 0.113363 -0.041911
0.041871 0.112725 -0.036563
0.036220 0.113530 -0.050539
0.047962 0.111196 -0.037867
0.040280 0.113387 -0.031226
0.055486 0.108839 -0.029190
0.040989 0.112611 -0.046237
0.033628 0.114485 -0.044762
0.050915 0.109536 -0.050298
0.042644 0.111962 -0.051928
0.051287 0.110238 -0.034334
0.028958 0.116002 -0.039980
0.035599 0.114920 -0.027004
0.046209 0.111872 -0.032243
0.047247 0.110618 -0.054430
0.048989 0.110339 -0.043348
0.030626 0.115664 -0.032529
0.056161 0.107415 -0.051770
0.043863 0.112134 -0.041943
0.053172 0.108744 -0.045799
0.045131 0.111101 -0.059848
0.026339 0.115636 -0.048497
0.057929 0.107783 -0.036059
0.035463 0.114350 -0.036700
0.049475 0.111109 -0.027025
0.120118 -0.094754 -0.026803
0.109447 -0.071047 -0.047206
0.139165 -0.094792 -0.059929
0.086611 -0.083133 -0.064596
0.119453 -0.085781 -0.070961
0.080632 -0.060943 -0.044653
0.108537 -0.096732 -0.082599
0.101821 -0.063547 -0.076910
0.147836 -0.085533 -0.046479
0.131908 -0.095251 -0.014981
0.073137 -0.094429 -0.068269
0.071725 -0.094996 -0.046853
0.087405 -0.094799 -0.049679
0.124154 -0.091368 -0.041451
0.100731 -0.061710 -0.017552
0.076311 -0.075481 -0.013703
0.138118 -0.094716 -0.036564
0.130290 -0.094616 -0.080982
0.075535 -0.094224 -0.029157
0.086482 -0.094966 -0.014799
0.121148 -0.095330 -0.058206
0.089304 -0.095338 -0.081974
0.135556 -0.061601 -0.028443
0.148386 -0.094383 -0.020229
0.121857 -0.080191 -0.011615
0.100891 -0.094434 -0.064812
0.104365 -0.095870 -0.009775
0.106762 -0.095348 -0.044661
0.137747 -0.063846 -0.066389
0.101828 -0.094340 -0.026357
0.149309 -0.093773 -0.077250
0.091620 -0.088120 -0.034019
0.305472 0.015451 0.156188
0.299623 0.027378 0.126371
0.330193 0.015074 0.135642
0.324379 0.020600 0.122036
0.323384 0.016132 0.140436
0.315721 0.021236 0.132309
0.307791 0.025600 0.123168
0.303953 0.022961 0.139019
0.306581 0.020545 0.144339
0.303816 0.024971 0.130828
0.314699 0.018750 0.143120
0.302823 0.019609 0.150451
0.323985 0.012204 0.149867
0.308486 0.023170 0.133426
0.298335 0.024944 0.137726
0.321749 0.019948 0.129268
0.312554 0.023246 0.126910
0.319285 0.015744 0.146445
0.290584 0.026303 0.141732
0.293962 0.020136 0.154027
0.311376 0.017579 0.148734
0.317651 0.022507 0.125172
0.317866 0.019281 0.136969
0.290242 0.023181 0.149082
0.329820 0.017151 0.127659
0.310622 0.021359 0.138476
0.324482 0.017680 0.133452
0.316027 0.024269 0.118777
0.292846 0.027688 0.133199
0.328521 0.013530 0.143221
0.298591 0.022511 0.145283
0.315249 0.014133 0.153091
0.236321 -0.094525 0.068579
0.220170 -0.093845 0.019487
0.251661 -0.095005 0.007014
0.194131 -0.094506 0.005587
0.233591 -0.094593 0.001766
0.186717 -0.085517 0.027197
0.221158 -0.094214 -0.014377
0.205468 -0.082615 -0.011476
0.266317 -0.093919 0.019523
0.258119 -0.094390 0.071101
0.174528 -0.094366 0.011664
0.170574 -0.094474 0.033604
0.201630 -0.094465 0.022631
0.225292 -0.095043 0.053192
0.208939 -0.088302 0.056491
0.175079 -0.092950 0.072550
0.252771 -0.094572 0.033066
0.245097 -0.094048 -0.013471
0.180160 -0.093985 0.049975
0.193961 -0.095039 0.063377
0.234557 -0.094464 0.034033
0.185559 -0.094495 -0.010024
0.246158 -0.093541 0.051590
0.265696 -0.094815 0.049916
0.225526 -0.094836 0.086383
0.212279 -0.094293 0.003661
0.198572 -0.094187 0.081291
0.214960 -0.093949 0.037412
0.242153 -0.084779 0.016602
0.214799 -0.094348 0.068956
0.265029 -0.095144 -0.004873
0.196920 -0.095202 0.041493
0.017008 -0.064958 -0.171565
-0.010644 -0.058713 -0.170577
0.026306 -0.067625 -0.171922
0.032103 -0.062761 -0.171715
0.023759 -0.057921 -0.170778
0.007083 -0.080792 -0.170525
0.011302 -0.057645 -0.170644
0.009348 -0.051640 -0.169097
0.016630 -0.054792 -0.169786
-0.000526 -0.059956 -0.171031
-0.000576 -0.066559 -0.171362
-0.001216 -0.074577 -0.171036
0.031395 -0.074089 -0.171831
0.009931 -0.067278 -0.171620
-0.005979 -0.062634 -0.171067
0.020403 -0.078047 -0.170951
0.017267 -0.059967 -0.171345
0.023761 -0.062123 -0.171480
-0.011529 -0.077455 -0.170860
-0.008070 -0.069092 -0.171447
0.004581 -0.070553 -0.171647
0.018562 -0.070545 -0.171663
0.011978 -0.074010 -0.171305
-0.003463 -0.054458 -0.169439
0.038092 -0.058707 -0.171346
0.004122 -0.063936 -0.171427
0.029483 -0.053973 -0.169609
0.012064 -0.062497 -0.171406
-0.015561 -0.064601 -0.171358
0.040988 -0.067721 -0.172101
0.004017 -0.056525 -0.170033
0.007464 -0.060308 -0.170918
0.061358 0.106862 -0.016498
0.048787 0.109704 -0.048914
0.076543 0.100392 -0.037474
0.070009 0.102337 -0.051820
0.071202 0.102636 -0.032808
0.064070 0.105006 -0.041337
0.055878 0.107579 -0.051429
0.055801 0.108216 -0.034823
0.059280 0.107212 -0.029207
0.053573 0.108444 -0.044484
0.065481 0.105165 -0.030777
0.057635 0.107860 -0.023595
0.073880 0.101974 -0.021122
0.058186 0.107175 -0.039811
0.051256 0.109611 -0.038219
0.068746 0.103229 -0.044292
0.059982 0.106423 -0.045882
0.069283 0.103783 -0.026628
0.046860 0.111311 -0.033219
0.052977 0.109751 -0.018984
0.063693 0.105819 -0.024474
0.064777 0.104688 -0.048557
0.066583 0.104235 -0.036672
0.048031 0.110965 -0.024999
0.074490 0.100679 -0.045933
0.061076 0.106478 -0.035096
0.071137 0.102301 -0.039508
0.062537 0.105389 -0.054557
0.045085 0.111196 -0.042203
0.076388 0.100686 -0.028759
0.052615 0.109306 -0.029323
0.067233 0.104871 -0.018882
-0.074077 0.093818 -0.124966
-0.123379 0.102903 -0.117134
-0.062915 0.090870 -0.127070
-0.053910 0.097872 -0.122964
-0.065226 0.105902 -0.117385
-0.094372 0.074448 -0.135442
-0.086386 0.106141 -0.117176
-0.086640 0.112250 -0.110714
-0.075872 0.109846 -0.113917
-0.104309 0.101148 -0.119938
-0.104335 0.091884 -0.125795
-0.106981 0.080262 -0.131563
-0.058170 0.082444 -0.131611
-0.087306 0.090095 -0.126952
-0.115675 0.096843 -0.122119
-0.071741 0.076154 -0.134263
-0.075043 0.102469 -0.120218
-0.065041 0.099308 -0.122381
-0.128080 0.078397 -0.132700
-0.116603 0.087198 -0.127934
-0.096558 0.086017 -0.129448
-0.073564 0.086074 -0.129664
-0.083887 0.081081 -0.131886
-0.111042 0.108586 -0.112584
-0.046883 0.104292 -0.119019
-0.094957 0.095662 -0.123651
-0.055655 0.110947 -0.112778
-0.081663 0.097683 -0.122941
-0.133924 0.093246 -0.123859
-0.046093 0.091166 -0.126973
-0.097754 0.106621 -0.115279
-0.088887 0.101147 -0.120567
0.196689 0.043495 0.125877
0.163968 0.046977 0.077710
0.234906 0.041566 0.093947
0.225539 0.043797 0.073767
0.225503 0.042220 0.101383
0.209237 0.044789 0.087384
0.188007 0.046767 0.074389
0.185166 0.045437 0.097112
0.192190 0.044792 0.105641
0.179916 0.046661 0.085463
0.208950 0.043905 0.103936
0.186886 0.044622 0.116695
0.226744 0.041371 0.116216
0.193359 0.045647 0.088418
0.167744 0.046390 0.095200
0.220659 0.043648 0.082726
0.200221 0.045818 0.079331
0.216555 0.043014 0.110592
0.151244 0.047230 0.102745
0.170656 0.045180 0.122675
0.201919 0.044367 0.113323
0.212673 0.045230 0.077494
0.214755 0.043731 0.095215
0.160366 0.045937 0.114158
0.234944 0.041832 0.082026
0.200830 0.044857 0.096266
0.224251 0.042412 0.090720
0.207591 0.046034 0.069648
0.143360 0.047226 0.087251
0.234953 0.041039 0.106451
0.176051 0.045740 0.107442
0.211846 0.042634 0.120104
-0.022871 -0.021514 -0.171984
-0.050467 -0.010129 -0.171615
-0.015459 -0.024767 -0.172240
-0.009904 -0.019200 -0.172629
-0.015658 -0.009985 -0.172274
-0.032880 -0.038167 -0.170277
-0.028016 -0.009484 -0.172151
-0.030445 -0.000513 -0.171604
-0.022660 -0.004838 -0.171927
-0.040072 -0.012842 -0.171955
-0.040818 -0.023703 -0.171494
-0.040719 -0.032657 -0.170677
-0.012245 -0.032201 -0.171659
-0.029545 -0.024432 -0.171776
-0.045363 -0.017444 -0.171506
-0.020589 -0.036454 -0.170878
-0.022676 -0.013442 -0.172519
-0.016982 -0.017171 -0.172320
-0.050668 -0.035087 -0.170225
-0.047949 -0.026805 -0.171156
-0.034873 -0.028292 -0.171538
-0.022096 -0.028622 -0.171806
-0.028115 -0.032414 -0.171207
-0.043606 -0.003366 -0.171214
-0.006284 -0.012548 -0.172577
-0.035962 -0.019956 -0.171791
-0.012388 -0.002908 -0.171857
-0.027782 -0.017844 -0.172123
-0.053996 -0.020682 -0.171359
-0.005543 -0.025648 -0.172308
-0.035794 -0.006910 -0.171607
-0.032624 -0.014283 -0.171870
0.383541 -0.035652 0.142256
0.388819 -0.026901 0.127908
0.397422 -0.040366 0.129259
0.401248 -0.037233 0.121973
0.391471 -0.032008 0.130658
0.395260 -0.052500 0.134043
0.395373 -0.029615 0.123090
0.385571 -0.023001 0.126655
0.385787 -0.029280 0.134115
0.393139 -0.032012 0.128251
0.387242 -0.037429 0.139512
0.387194 -0.043156 0.141658
0.390633 -0.047183 0.139205
0.393998 -0.039193 0.132614
0.390576 -0.033719 0.133546
0.398362 -0.048402 0.129035
0.392543 -0.031078 0.128472
0.392712 -0.036027 0.132343
0.389496 -0.049856 0.139393
0.382919 -0.039215 0.143664
0.390982 -0.042676 0.137541
0.400668 -0.042792 0.126065
0.394635 -0.045663 0.134031
0.378448 -0.025023 0.137931
0.398882 -0.034708 0.123866
0.388291 -0.034522 0.136324
0.386206 -0.026752 0.130161
0.399554 -0.032882 0.120733
0.391837 -0.035399 0.132925
0.393318 -0.039281 0.133320
0.387301 -0.027970 0.131017
0.384429 -0.032411 0.139053
0.184996 0.045830 0.039112
0.179716 0.048987 0.003005
0.194108 0.041507 0.013161
0.191161 0.043532 0.000017
0.189979 0.043148 0.018873
0.186778 0.045550 0.011208
0.182831 0.047465 0.000769
0.181914 0.048019 0.016194
0.182998 0.046696 0.023368
0.181604 0.047576 0.006381
0.186985 0.045105 0.021428
0.183539 0.047018 0.029267
0.194025 0.041975 0.030519
0.183920 0.046699 0.012839
0.181100 0.048451 0.012579
0.189637 0.044179 0.007469
0.184732 0.046383 0.007604
0.190386 0.043688 0.024210
0.178889 0.049510 0.018559
0.181477 0.048085 0.034455
0.186649 0.045039 0.027294
0.187096 0.045237 0.003759
0.187211 0.044409 0.015400
0.178727 0.049355 0.026160
0.194538 0.042078 0.005567
0.184685 0.046443 0.018177
0.189893 0.043412 0.013097
0.185834 0.046161 -0.003476
0.178790 0.049390 0.008926
0.197095 0.041563 0.022754
0.181202 0.048159 0.020821
0.187942 0.044513 0.033700
-0.059891 0.048518 -0.148646
-0.117640 0.056626 -0.145743
-0.044922 0.046592 -0.149963
-0.037187 0.050972 -0.147869
-0.051137 0.057848 -0.145147
-0.076809 0.038981 -0.153841
-0.074809 0.057699 -0.145285
-0.076269 0.065902 -0.142473
-0.063932 0.061671 -0.143736
-0.095225 0.054470 -0.146712
-0.091947 0.048243 -0.149194
-0.093715 0.041995 -0.152036
-0.037483 0.042314 -0.151831
-0.074338 0.046407 -0.149813
-0.107763 0.051322 -0.147603
-0.051382 0.040695 -0.153277
-0.061281 0.054742 -0.146806
-0.049669 0.051709 -0.147511
-0.119152 0.041521 -0.152917
-0.104819 0.045598 -0.150537
-0.083090 0.044653 -0.150721
-0.056493 0.044525 -0.150783
-0.066108 0.042581 -0.151960
-0.103541 0.062381 -0.143382
-0.029682 0.055913 -0.146019
-0.083205 0.050374 -0.148276
-0.041031 0.062850 -0.143038
-0.067948 0.051095 -0.147696
-0.129670 0.048653 -0.148674
-0.025446 0.046947 -0.149940
-0.087253 0.059648 -0.144381
-0.076380 0.053523 -0.146659
0.172642 0.052960 0.023548
0.164334 0.057650 -0.007553
0.184653 0.045917 0.002563
0.180107 0.048955 -0.010112
0.180152 0.048407 0.007714
0.175102 0.052078 -0.000213
0.168905 0.055164 -0.009478
0.168312 0.055976 0.005821
0.170139 0.054073 0.011209
0.167171 0.055667 -0.003971
0.176382 0.051447 0.009664
0.170618 0.054606 0.016379
0.183587 0.046880 0.018248
0.170931 0.054110 0.001301
0.166328 0.056904 0.002054
0.179165 0.049843 -0.003309
0.172139 0.053396 -0.004243
0.179664 0.049293 0.013432
0.162827 0.058968 0.006902
0.167022 0.056510 0.020443
0.174688 0.051591 0.015358
0.175894 0.051534 -0.006631
0.176508 0.050498 0.003905
0.162550 0.058559 0.014150
0.183671 0.046778 -0.005102
0.172811 0.053371 0.006197
0.180175 0.048716 0.001218
0.174022 0.052800 -0.013269
0.162267 0.058680 -0.001377
0.185697 0.046032 0.011356
0.166464 0.056452 0.010687
0.177483 0.050532 0.020792
0.386749 -0.063128 0.140186
0.410899 -0.055751 0.112453
0.404879 -0.072099 0.115006
0.411661 -0.069651 0.104508
0.402796 -0.060615 0.124629
0.395948 -0.082431 0.117133
0.413238 -0.059806 0.107546
0.407970 -0.049605 0.118575
0.398349 -0.057384 0.131197
0.409343 -0.063037 0.113678
0.395019 -0.066890 0.132487
0.391735 -0.072629 0.132456
0.387108 -0.076928 0.133256
0.402715 -0.070197 0.120338
0.405037 -0.064088 0.120362
0.402421 -0.078689 0.110890
0.407919 -0.059298 0.117173
0.401698 -0.066162 0.123842
0.391365 -0.080141 0.125812
0.386583 -0.069867 0.137576
0.395720 -0.073270 0.126930
0.408128 -0.074711 0.106375
0.399492 -0.075974 0.120036
0.394663 -0.052254 0.135834
0.409866 -0.066790 0.110554
0.398860 -0.063620 0.128276
0.402311 -0.053590 0.126754
0.414163 -0.064185 0.099772
0.404790 -0.068282 0.116647
0.397909 -0.069158 0.125861
0.405352 -0.055459 0.121557
0.393126 -0.060705 0.135310
-0.041059 -0.048410 -0.134162
-0.066378 0.027892 -0.135039
0.010231 -0.046410 -0.132519
-0.088526 0.019603 -0.134265
-0.018971 0.021158 -0.133597
-0.103504 0.037689 -0.133838
-0.046610 0.020150 -0.133757
-0.054150 0.041609 -0.133748
0.003343 0.018869 -0.134113
-0.006378 -0.029022 -0.134466
-0.100583 -0.062391 -0.131977
-0.101593 -0.025230 -0.133258
-0.065420 -0.050837 -0.132112
-0.029806 -0.023535 -0.134343
-0.080942 0.042843 -0.135245
-0.107796 0.012287 -0.135493
-0.001113 -0.066542 -0.132479
-0.017018 -0.051831 -0.132108
-0.078247 -0.069339 -0.132412
-0.085053 -0.041569 -0.134534
-0.026310 -0.070570 -0.131401
-0.073123 -0.021100 -0.132450
-0.032540 0.037789 -0.135139
0.011300 -0.012049 -0.134035
-0.030458 0.002487 -0.135774
-0.052771 -0.029548 -0.133654
-0.068757 0.004938 -0.135815
-0.049047 -0.005952 -0.133755
-0.005593 0.039082 -0.133627
-0.052647 -0.068975 -0.133120
-0.010802 -0.003674 -0.132339
-0.091832 -0.003960 -0.134935
0.089384 0.095253 -0.007849
0.076267 0.099255 -0.043568
0.106405 0.087346 -0.030778
0.098842 0.090046 -0.046832
0.100419 0.090192 -0.025718
0.092233 0.093202 -0.035239
0.083590 0.096484 -0.046382
0.083521 0.097282 -0.027661
0.087378 0.095903 -0.021767
0.081298 0.097471 -0.038836
0.094069 0.093162 -0.023497
0.085629 0.096472 -0.015661
0.103392 0.089115 -0.012662
0.085994 0.095834 -0.033527
0.079017 0.098941 -0.031792
0.097480 0.090940 -0.038625
0.087986 0.094943 -0.040384
0.098422 0.091332 -0.018558
0.074095 0.100956 -0.026474
0.080498 0.098843 -0.010713
0.092018 0.093851 -0.016354
0.093006 0.092817 -0.043100
0.095138 0.092198 -0.030101
0.075351 0.100621 -0.017353
0.104093 0.087941 -0.040580
0.089157 0.094841 -0.028240
0.100358 0.089920 -0.033479
0.090557 0.093720 -0.050103
0.072813 0.101076 -0.036100
0.106115 0.087659 -0.021191
0.080230 0.098421 -0.021761
0.096005 0.092680 -0.010214
0.147907 0.066979 0.006445
0.137506 0.072035 -0.026214
0.162319 0.058832 -0.014916
0.156357 0.062085 -0.029008
0.157201 0.061699 -0.009814
0.150502 0.065389 -0.018562
0.143387 0.069022 -0.028246
0.142933 0.069697 -0.011289
0.145759 0.067906 -0.005977
0.141340 0.069845 -0.022356
0.152065 0.064930 -0.007791
0.145031 0.068530 -0.000631
0.160163 0.060192 0.001733
0.145385 0.068028 -0.017012
0.139733 0.071236 -0.015775
0.155103 0.062975 -0.021840
0.147023 0.067175 -0.023118
0.155859 0.062728 -0.003198
0.135499 0.073530 -0.010766
0.140755 0.070875 0.003849
0.150041 0.065455 -0.001387
0.151282 0.064998 -0.025332
0.152550 0.063997 -0.013945
0.136133 0.073023 -0.002501
0.160856 0.059688 -0.023855
0.147882 0.066935 -0.011768
0.157308 0.061667 -0.017279
0.149175 0.066245 -0.032180
0.134656 0.073603 -0.019609
0.162623 0.058965 -0.006066
0.140381 0.070644 -0.006026
0.153631 0.064082 0.004023
0.268679 -0.003874 0.155002
0.262088 0.001345 0.128921
0.285008 -0.008922 0.125916
0.248933 0.003322 0.120714
0.271471 -0.001389 0.121459
0.244117 0.003170 0.137395
0.272286 -0.002685 0.093688
0.261716 0.000833 0.108142
0.294884 -0.012765 0.135980
0.277516 -0.007940 0.165259
0.236168 0.001798 0.122593
0.230216 0.004007 0.137203
0.250821 -0.001863 0.134221
0.268103 -0.000779 0.143755
0.259521 0.001763 0.152807
0.237338 0.003920 0.156198
0.280210 -0.009510 0.142966
0.276473 -0.008907 0.112066
0.238173 -0.001490 0.146296
0.246360 -0.001136 0.159456
0.267756 -0.008440 0.134715
0.245957 0.001597 0.103521
0.278839 -0.004549 0.150852
0.289069 -0.011052 0.154267
0.267120 -0.000718 0.166124
0.258904 -0.004394 0.120794
0.254698 0.001430 0.168987
0.259500 -0.000207 0.140264
0.278344 -0.003758 0.133332
0.257502 -0.004740 0.154523
0.292741 -0.009821 0.110573
0.250262 0.001795 0.147210
0.187033 0.045591 0.053559
0.162794 0.045618 0.008447
0.203847 0.045181 0.022548
0.197673 0.045541 0.006450
0.195728 0.045190 0.028128
0.188874 0.045645 0.018147
0.184202 0.046025 0.005953
0.183418 0.045859 0.024133
0.186311 0.045857 0.033194
0.180181 0.045740 0.014145
0.190760 0.045757 0.031002
0.182918 0.045458 0.041488
0.202416 0.044987 0.042288
0.185618 0.045868 0.020781
0.171083 0.045658 0.021126
0.193214 0.045233 0.014822
0.187161 0.045740 0.013675
0.195583 0.045567 0.034627
0.158047 0.046086 0.028652
0.175892 0.045825 0.048125
0.189995 0.045725 0.038622
0.189815 0.045829 0.009612
0.191575 0.045355 0.023758
0.171879 0.045775 0.037991
0.205952 0.044977 0.014024
0.187668 0.045855 0.025917
0.196265 0.045291 0.021361
0.188470 0.046058 0.002306
0.143069 0.045776 0.016628
0.210933 0.045070 0.033997
0.180403 0.045815 0.030440
0.192024 0.045625 0.046534
-0.045758 0.034316 -0.162632
-0.084930 0.041543 -0.154883
-0.037004 0.030367 -0.164470
-0.030543 0.035978 -0.160804
-0.039222 0.041531 -0.154861
-0.057794 0.020100 -0.168311
-0.056254 0.042605 -0.154515
-0.058405 0.048348 -0.144562
-0.048750 0.045536 -0.149439
-0.070531 0.039127 -0.157883
-0.068351 0.032230 -0.163408
-0.068471 0.024691 -0.167044
-0.032163 0.024938 -0.167210
-0.055274 0.030548 -0.164221
-0.078021 0.036511 -0.159892
-0.041849 0.021151 -0.167655
-0.046869 0.039361 -0.157905
-0.039284 0.036480 -0.160781
-0.083479 0.023699 -0.167268
-0.077282 0.030158 -0.164913
-0.061702 0.027517 -0.165870
-0.044261 0.028208 -0.165368
-0.051591 0.024625 -0.166540
-0.077370 0.046484 -0.147720
-0.026023 0.040370 -0.156804
-0.062452 0.034528 -0.161769
-0.032801 0.046031 -0.147686
-0.052359 0.036491 -0.160627
-0.090555 0.034210 -0.162042
-0.024275 0.030901 -0.163825
-0.066254 0.043879 -0.152126
-0.058568 0.038797 -0.158386
0.368074 -0.019208 0.143760
0.373521 -0.008288 0.122804
0.387689 -0.021158 0.125828
0.391631 -0.018525 0.114855
0.379948 -0.015928 0.128914
0.385964 -0.027842 0.132968
0.384188 -0.011104 0.117401
0.373583 -0.006003 0.125491
0.371913 -0.012250 0.134226
0.380399 -0.013302 0.124235
0.374368 -0.018873 0.137839
0.372501 -0.022678 0.142438
0.379729 -0.027111 0.139621
0.382337 -0.018690 0.129329
0.375085 -0.014779 0.130689
0.389692 -0.025323 0.126169
0.381475 -0.013007 0.124176
0.380831 -0.019097 0.131059
0.371307 -0.024492 0.138908
0.364606 -0.019728 0.144689
0.378936 -0.022483 0.137848
0.390726 -0.020632 0.120673
0.384300 -0.023530 0.132629
0.360405 -0.007751 0.138304
0.389057 -0.017606 0.118758
0.375755 -0.016175 0.133977
0.375937 -0.010490 0.127602
0.389267 -0.014136 0.112296
0.369930 -0.015270 0.129342
0.383301 -0.022148 0.130826
0.373264 -0.010460 0.130104
0.370937 -0.016615 0.139251
0.256151 0.036450 0.112915
0.241665 0.040413 0.076586
0.282328 0.034357 0.089321
0.273797 0.036781 0.072956
0.274582 0.035166 0.094623
0.263215 0.037559 0.084199
0.252117 0.039607 0.073203
0.250773 0.038359 0.092317
0.255236 0.037556 0.098091
0.248098 0.039393 0.082777
0.264410 0.036648 0.096706
0.250906 0.037732 0.105528
0.275982 0.034215 0.106651
0.254398 0.038535 0.086023
0.242890 0.039564 0.090357
0.270804 0.036632 0.081225
0.258274 0.038488 0.078336
0.269457 0.035564 0.101787
0.234954 0.040474 0.095285
0.242914 0.038407 0.110587
0.260435 0.036703 0.103969
0.265298 0.037990 0.076437
0.267385 0.036612 0.089743
0.237474 0.039098 0.104311
0.280663 0.035071 0.079999
0.258826 0.037773 0.090997
0.274794 0.035393 0.086950
0.262652 0.038889 0.069776
0.234745 0.040756 0.084832
0.280766 0.034101 0.098987
0.245142 0.038613 0.099304
0.266217 0.035429 0.110182
-0.039835 0.110116 -0.114652
-0.083997 0.113096 -0.109016
-0.030495 0.106868 -0.116829
-0.024463 0.110553 -0.113254
-0.035503 0.114504 -0.108712
-0.055793 0.098775 -0.122663
-0.054158 0.114313 -0.109395
-0.052605 0.117299 -0.100285
-0.045010 0.116200 -0.104446
-0.067522 0.111987 -0.112117
-0.063635 0.108400 -0.115844
-0.066568 0.101878 -0.120051
-0.025458 0.102849 -0.119589
-0.050926 0.106502 -0.116788
-0.077187 0.110386 -0.113582
-0.036256 0.099580 -0.121323
-0.041620 0.112711 -0.111442
-0.033095 0.111333 -0.113566
-0.086362 0.101187 -0.120324
-0.074136 0.106165 -0.117040
-0.058422 0.104171 -0.119146
-0.038460 0.105249 -0.118392
-0.046496 0.101965 -0.120402
-0.074098 0.116010 -0.102408
-0.018776 0.113368 -0.110052
-0.056877 0.109981 -0.114341
-0.026768 0.116802 -0.102310
-0.045953 0.110408 -0.114366
-0.093291 0.108002 -0.114536
-0.015457 0.107389 -0.115349
-0.062568 0.114731 -0.107232
-0.051286 0.112276 -0.112280
0.059800 -0.087340 -0.168384
0.018932 -0.076652 -0.172626
0.080573 -0.090610 -0.166340
0.088696 -0.083797 -0.169551
0.070631 -0.075814 -0.171791
0.044017 -0.100751 -0.155012
0.047127 -0.075536 -0.172983
0.046723 -0.065643 -0.173161
0.056647 -0.071080 -0.173118
0.031627 -0.079146 -0.172398
0.030331 -0.088798 -0.168121
0.029980 -0.096873 -0.161707
0.091436 -0.096728 -0.159457
0.045950 -0.089465 -0.168042
0.023919 -0.083089 -0.170499
0.071952 -0.098640 -0.157463
0.059916 -0.078957 -0.171874
0.071965 -0.083873 -0.169655
0.016105 -0.097986 -0.159065
0.021654 -0.091786 -0.165831
0.038086 -0.093611 -0.165323
0.064897 -0.093026 -0.165307
0.053452 -0.096375 -0.162313
0.028533 -0.069796 -0.173271
0.101582 -0.078058 -0.170693
0.037582 -0.084423 -0.170163
0.082232 -0.069641 -0.172269
0.051717 -0.083616 -0.170858
0.013065 -0.086532 -0.169451
0.108088 -0.090397 -0.164036
0.037481 -0.073323 -0.172677
0.044715 -0.080758 -0.171403
0.290775 0.028785 0.127082
0.279611 0.034462 0.092886
0.314224 0.026571 0.104786
0.306395 0.029888 0.089187
0.306963 0.027629 0.109675
0.297203 0.030748 0.100091
0.288163 0.033341 0.089458
0.286790 0.031815 0.107738
0.290454 0.030603 0.113306
0.284735 0.033001 0.098360
0.298308 0.029444 0.111921
0.286631 0.030617 0.119887
0.308821 0.026005 0.121386
0.289811 0.031966 0.101787
0.280629 0.033227 0.105566
0.303895 0.029691 0.097160
0.293140 0.031903 0.094584
0.303125 0.027855 0.116482
0.273608 0.034325 0.110157
0.279702 0.031362 0.124678
0.294969 0.029237 0.118808
0.299008 0.031289 0.092542
0.300795 0.029495 0.105201
0.275103 0.032585 0.118737
0.312699 0.027724 0.095613
0.293380 0.030919 0.106760
0.307484 0.028195 0.102325
0.296890 0.032422 0.085902
0.274433 0.034830 0.100672
0.312785 0.026174 0.113739
0.281911 0.031878 0.113896
0.299851 0.027602 0.124708
-0.026632 -0.006641 -0.172011
-0.055060 0.004498 -0.171026
-0.019389 -0.010582 -0.172297
-0.013605 -0.004362 -0.172429
-0.019430 0.004805 -0.171567
-0.037464 -0.025470 -0.170542
-0.032091 0.005466 -0.171488
-0.034476 0.013179 -0.170204
-0.026554 0.009720 -0.170831
-0.044315 0.002069 -0.171577
-0.045386 -0.009266 -0.171600
-0.045464 -0.019282 -0.170984
-0.016362 -0.018921 -0.171860
-0.033595 -0.010019 -0.171892
-0.049899 -0.002426 -0.171328
-0.024855 -0.023682 -0.171149
-0.026551 0.001576 -0.172144
-0.020719 -0.002151 -0.172096
-0.055430 -0.022083 -0.170439
-0.053004 -0.012682 -0.171298
-0.039250 -0.014466 -0.171767
-0.026191 -0.014843 -0.172054
-0.032478 -0.019152 -0.171418
-0.048004 0.010640 -0.170109
-0.010197 0.002520 -0.171962
-0.040118 -0.005145 -0.171766
-0.016154 0.010975 -0.170682
-0.031767 -0.002720 -0.171992
-0.058770 -0.005843 -0.171292
-0.009703 -0.011457 -0.172313
-0.039949 0.007648 -0.170705
-0.036709 0.000863 -0.171513
0.115180 0.083546 -0.005097
0.102390 0.088403 -0.042250
0.131857 0.075196 -0.029065
0.124355 0.078393 -0.045474
0.125856 0.078332 -0.023572
0.117973 0.081619 -0.033450
0.109470 0.085347 -0.044957
0.109266 0.086120 -0.025590
0.113005 0.084467 -0.019360
0.107315 0.086249 -0.037597
0.119730 0.081457 -0.021202
0.111679 0.084951 -0.013158
0.129033 0.076837 -0.010152
0.111893 0.084428 -0.031685
0.105237 0.087730 -0.030189
0.123066 0.079221 -0.037118
0.113688 0.083593 -0.038752
0.124075 0.079378 -0.016144
0.100584 0.089721 -0.024475
0.106768 0.087398 -0.008041
0.117741 0.082017 -0.013867
0.118589 0.081301 -0.041497
0.120683 0.080448 -0.028132
0.101593 0.089491 -0.015094
0.129590 0.076064 -0.039282
0.114828 0.083401 -0.026013
0.125721 0.078271 -0.031822
0.116132 0.082439 -0.048988
0.099358 0.089993 -0.034590
0.131665 0.075463 -0.019029
0.106249 0.087170 -0.019592
0.121601 0.080842 -0.007682
-0.013430 0.121410 -0.044516
-0.043413 0.117720 -0.100443
0.010545 0.116750 -0.086828
0.002765 0.114847 -0.102491
0.002911 0.118233 -0.080094
-0.007443 0.118334 -0.091791
-0.022891 0.117203 -0.102696
-0.022954 0.120100 -0.083815
-0.017360 0.120721 -0.074270
-0.027939 0.119140 -0.095275
-0.005870 0.119955 -0.076552
-0.020534 0.121191 -0.062844
0.005822 0.118866 -0.062765
-0.017669 0.119475 -0.090070
-0.036738 0.120035 -0.087602
-0.000100 0.117118 -0.095122
-0.013922 0.118150 -0.097608
-0.000368 0.119928 -0.071657
-0.049892 0.121324 -0.079637
-0.031228 0.122024 -0.052913
-0.009679 0.120994 -0.067438
-0.005818 0.117170 -0.099939
-0.003146 0.118568 -0.085334
-0.040761 0.121596 -0.067813
0.009525 0.115126 -0.096671
-0.011727 0.119988 -0.082873
0.004012 0.117363 -0.089021
-0.009863 0.115695 -0.105696
-0.061164 0.119403 -0.092828
0.011233 0.117611 -0.073604
-0.028999 0.121178 -0.075880
-0.003457 0.120547 -0.055757
0.038239 0.113499 -0.049789
0.021913 0.114420 -0.082624
0.053835 0.107311 -0.070882
0.047046 0.108214 -0.084964
0.048519 0.109309 -0.066111
0.041057 0.110991 -0.074770
0.031343 0.112666 -0.084827
0.031660 0.113872 -0.068642
0.035631 0.113306 -0.062778
0.028687 0.113790 -0.078008
0.042773 0.111600 -0.064048
0.034127 0.114055 -0.056878
0.051152 0.109225 -0.054568
0.034553 0.112886 -0.073423
0.025482 0.114916 -0.071788
0.045842 0.109405 -0.077536
0.036334 0.112035 -0.079567
0.046413 0.110677 -0.060062
0.020091 0.116507 -0.066610
0.028704 0.115719 -0.052211
0.040810 0.112440 -0.057976
0.041623 0.110452 -0.082000
0.043915 0.110513 -0.070016
0.022608 0.116430 -0.058436
0.051641 0.107089 -0.079019
0.038090 0.112484 -0.068629
0.048487 0.108811 -0.072726
0.039022 0.110676 -0.087630
0.015891 0.115932 -0.075939
0.053863 0.107859 -0.062133
0.028256 0.115011 -0.062867
0.044526 0.111719 -0.052335
0.039040 -0.052575 -0.169634
0.014023 -0.047288 -0.168974
0.052359 -0.054096 -0.170301
0.058841 -0.049858 -0.169809
0.046690 -0.046109 -0.169341
0.030644 -0.069390 -0.170444
0.034251 -0.046276 -0.169468
0.034243 -0.036954 -0.168685
0.039999 -0.042805 -0.168924
0.023504 -0.048869 -0.169467
0.023391 -0.053748 -0.169541
0.022216 -0.060863 -0.169855
0.060147 -0.060044 -0.170734
0.032446 -0.054210 -0.169784
0.017669 -0.051167 -0.169266
0.044633 -0.064242 -0.170555
0.040112 -0.048468 -0.169704
0.047445 -0.050239 -0.169609
0.012174 -0.064515 -0.170006
0.016540 -0.055798 -0.169744
0.027623 -0.056805 -0.170056
0.041762 -0.056531 -0.170178
0.035069 -0.060000 -0.170304
0.022122 -0.041668 -0.168579
0.069685 -0.046563 -0.169630
0.027555 -0.051791 -0.169559
0.055453 -0.040880 -0.168665
0.034691 -0.050793 -0.169760
0.006856 -0.052316 -0.169420
0.076054 -0.053737 -0.170156
0.028087 -0.044973 -0.168922
0.030976 -0.049000 -0.169246
0.307291 0.023763 0.131705
0.297589 0.030959 0.097706
0.330499 0.021261 0.109119
0.323448 0.025341 0.093861
0.323391 0.022505 0.114120
0.314483 0.026300 0.104805
0.305937 0.029539 0.094421
0.303772 0.027720 0.112354
0.307083 0.026180 0.118077
0.302322 0.029169 0.102893
0.314960 0.024704 0.116554
0.303575 0.026065 0.124538
0.325061 0.020410 0.125616
0.307213 0.027808 0.106387
0.297989 0.029361 0.110113
0.320919 0.025080 0.101691
0.310624 0.027768 0.099311
0.319637 0.022710 0.120911
0.291006 0.030627 0.114713
0.296341 0.026984 0.129163
0.311752 0.024405 0.123330
0.316288 0.027017 0.097205
0.317487 0.024810 0.109867
0.291902 0.028619 0.123234
0.329378 0.022727 0.099956
0.310277 0.026524 0.111555
0.324071 0.023298 0.106635
0.314378 0.028416 0.090474
0.292079 0.031345 0.105296
0.329054 0.020649 0.117846
0.298900 0.027748 0.118597
0.316233 0.022331 0.128965
0.392656 -0.093981 0.121569
0.405846 -0.091618 0.077390
0.410337 -0.094673 0.086782
0.414423 -0.094661 0.067313
0.406353 -0.093510 0.095747
0.406681 -0.095833 0.089057
0.413024 -0.093258 0.071192
0.408810 -0.083948 0.089833
0.401727 -0.092194 0.103937
0.408648 -0.095029 0.081386
0.399930 -0.095034 0.103208
0.396787 -0.094974 0.109318
0.398825 -0.095260 0.110091
0.405843 -0.095243 0.090902
0.402819 -0.095472 0.090386
0.409944 -0.095004 0.081776
0.409074 -0.092920 0.084897
0.404691 -0.095267 0.098395
0.392608 -0.095889 0.098941
0.390659 -0.095080 0.115901
0.402007 -0.095789 0.104846
0.411372 -0.095128 0.074973
0.405887 -0.095374 0.093544
0.395252 -0.088825 0.108421
0.413926 -0.094104 0.077519
0.402583 -0.094135 0.098705
0.407034 -0.088698 0.094813
0.413943 -0.094101 0.059296
