-0.391655 -0.063599 0.124642
-0.328790 -0.071500 0.159409
-0.269377 -0.121023 0.164645
-0.319312 0.007870 0.167325
-0.368973 0.033467 0.130104
-0.416948 -0.067992 0.038833
-0.411355 -0.002739 0.064003
-0.249409 -0.040253 0.166619
-0.326448 -0.087547 0.081168
-0.209437 -0.101401 0.160098
-0.248268 0.031806 0.164503
-0.284767 -0.027455 0.108895
-0.181119 -0.025469 0.173747
-0.346666 -0.085857 0.010561
-0.412629 -0.070788 -0.040948
-0.133678 -0.084965 0.165936
-0.408348 0.038520 0.000365
-0.206599 -0.089414 0.092968
-0.209398 -0.027961 0.113388
-0.297804 0.056487 0.079736
-0.413929 -0.003166 -0.062739
-0.096009 -0.014019 0.171118
-0.063128 -0.089883 0.160825
-0.253524 -0.096841 0.005330
-0.146643 0.047349 0.153028
-0.336399 0.046767 -0.005367
-0.333974 -0.085788 -0.067430
-0.114967 -0.091879 0.088007
-0.400339 -0.057411 -0.120637
-0.206597 0.083564 0.087357
-0.020124 -0.020715 0.167264
0.012933 -0.091877 0.156879
-0.181798 0.005569 0.053676
-0.060277 0.043986 0.154082
-0.160101 -0.093216 0.012391
-0.375063 0.032123 -0.116337
-0.240142 0.066200 0.003879
-0.036897 -0.091407 0.083940
-0.118340 0.102565 0.105184
-0.229532 -0.092221 -0.079075
0.089533 -0.095353 0.158071
-0.337093 -0.074529 -0.159546
-0.290654 -0.029151 -0.108551
-0.295641 0.050222 -0.077275
0.069619 -0.023460 0.164640
0.026728 0.033794 0.155756
-0.264048 -0.118829 -0.152916
-0.285771 -0.108713 -0.170563
-0.078180 -0.096581 -0.004562
-0.233266 -0.122964 -0.141555
0.043526 -0.095567 0.081765
-0.268554 -0.111543 -0.167492
-0.045820 -0.000652 0.057282
-0.156146 -0.091581 -0.069916
0.163265 -0.090825 0.165422
-0.182018 -0.008858 -0.056572
-0.323467 0.012631 -0.161425
-0.298547 -0.037614 -0.171136
-0.023140 0.112764 0.108989
-0.245762 -0.113471 -0.170267
-0.264488 -0.085061 -0.174073
-0.218614 -0.115918 -0.153489
0.106897 0.040734 0.165172
-0.272105 -0.066342 -0.173280
-0.156382 0.106809 -0.003207
-0.212608 -0.026757 -0.109465
-0.231258 -0.122906 -0.171435
-0.204736 -0.105767 -0.149724
0.242563 -0.115728 0.176420
-0.279140 -0.016339 -0.172838
-0.229471 -0.097741 -0.172250
0.162260 -0.002726 0.167207
0.028143 0.106680 0.112768
-0.088370 0.119413 0.030943
0.004860 -0.092350 0.004119
0.235632 -0.117832 0.160141
-0.280387 0.008675 -0.172852
0.258288 -0.124430 0.168648
0.046185 0.100642 0.115718
-0.227167 -0.068446 -0.171824
-0.196314 -0.095560 -0.160470
-0.198212 -0.095910 -0.163733
-0.235868 -0.045202 -0.170499
0.070281 0.090483 0.124853
-0.244564 -0.029424 -0.170670
-0.205049 0.074142 -0.090993
-0.094069 -0.095461 -0.084809
-0.241225 -0.026087 -0.170156
0.127297 -0.094995 0.076861
0.091573 0.081351 0.129581
-0.262108 0.034987 -0.164928
0.040846 0.106792 0.098937
0.022485 0.112238 0.087170
-0.218524 -0.049019 -0.172028
0.063067 0.096958 0.108973
0.262882 -0.123524 0.150489
0.140273 0.051383 0.139725
0.125104 0.061626 0.133257
0.110113 0.072118 0.126547
0.236207 -0.043751 0.164406
-0.246115 0.036829 -0.160566
-0.187410 -0.066612 -0.169967
-0.242012 0.039810 -0.162379
0.166750 0.038409 0.144551
0.074622 0.092990 0.100885
0.281553 -0.117816 0.153363
-0.001542 0.118598 0.053841
-0.233549 0.019159 -0.172688
0.089571 0.086967 0.099234
-0.208033 -0.013252 -0.173779
-0.219655 0.039469 -0.159846
-0.153524 -0.085634 -0.168266
0.062680 0.102078 0.081998
0.109398 0.077096 0.104844
0.039602 0.111816 0.067586
0.277037 -0.114286 0.136113
0.082167 -0.096369 0.002084
0.195875 0.038407 0.143788
-0.129269 -0.090382 -0.162268
0.199362 -0.097147 0.081492
0.196829 -0.035161 0.107609
-0.167065 -0.043465 -0.172703
-0.199952 0.023810 -0.167022
0.163418 0.043941 0.116807
-0.020312 -0.097170 -0.084990
-0.182736 0.076721 -0.129092
0.263593 -0.115020 0.114885
-0.050079 0.000220 -0.062957
0.011503 0.116948 0.033322
0.319982 -0.069977 0.169975
-0.121302 -0.089732 -0.166513
0.137947 0.062123 0.097965
-0.172511 -0.015032 -0.172754
-0.182558 0.032965 -0.158320
-0.148470 -0.047293 -0.170409
0.248434 0.023597 0.156247
-0.180118 0.013963 -0.168332
0.027174 0.116864 0.035434
-0.135950 -0.061289 -0.170923
0.109059 0.082262 0.078934
0.059201 0.106353 0.052225
0.126293 0.072098 0.085289
-0.150833 -0.028008 -0.170326
0.237880 0.033577 0.147935
0.154536 0.052594 0.095548
0.081112 0.096565 0.062181
-0.132507 -0.041293 -0.167313
-0.097419 -0.091613 -0.164597
-0.161292 0.013590 -0.165181
0.050335 0.111298 0.037130
0.168476 0.049426 0.094616
-0.163780 0.045110 -0.156405
0.261012 0.030457 0.148729
0.232988 0.035243 0.130438
0.103248 0.085874 0.059354
-0.134193 -0.013758 -0.167064
-0.109193 -0.058514 -0.169386
-0.119548 0.109096 -0.099122
0.204551 0.039869 0.107559
-0.075227 -0.093596 -0.162714
0.145181 0.061972 0.074296
-0.108046 -0.036060 -0.165098
-0.041012 0.125505 -0.038887
0.085804 0.095635 0.039535
0.124858 0.076139 0.056390
0.167121 0.048654 0.074304
0.273264 -0.042440 0.107561
-0.118510 -0.017912 -0.172916
0.036476 0.115041 0.006031
0.190209 0.044255 0.085343
0.107089 -0.018515 -0.004957
0.305806 0.014389 0.152951
-0.049486 -0.096759 -0.161169
0.168660 -0.095949 0.003341
0.320174 0.003798 0.156934
-0.081352 -0.066057 -0.171875
0.140749 0.066665 0.055252
0.067317 0.104979 0.019063
-0.055119 -0.087218 -0.164317
0.338230 -0.013416 0.158107
-0.117241 0.017229 -0.164207
0.061275 -0.094295 -0.081279
0.371670 -0.085827 0.146641
0.109123 0.085330 0.032156
0.325304 -0.005714 0.145032
0.285198 0.026840 0.129461
-0.063257 -0.061381 -0.169531
0.270442 0.031297 0.121015
0.373525 -0.062960 0.149328
-0.101187 0.067252 -0.139787
0.038550 0.114374 -0.011952
-0.097102 0.090476 -0.127422
0.054905 0.109660 -0.003396
0.090640 0.094607 0.012452
0.255497 0.035987 0.104938
0.164618 0.052919 0.047063
0.143828 0.066178 0.037843
-0.079854 -0.013679 -0.167688
-0.087767 0.003512 -0.167522
0.354317 -0.015190 0.149025
0.190798 0.042844 0.057652
-0.022820 -0.090713 -0.164972
0.375667 -0.043436 0.147586
-0.054375 -0.039348 -0.166207
0.129790 0.075504 0.025821
0.314201 0.019902 0.133489
0.317063 -0.092660 0.082474
-0.039028 -0.060009 -0.167789
-0.085111 0.026319 -0.163474
0.123660 0.077693 0.017750
-0.078637 0.040918 -0.151646
0.038646 0.113798 -0.033845
0.054566 0.109071 -0.024639
0.080551 0.099191 -0.009905
-0.064779 0.097560 -0.123435
0.389423 -0.054999 0.136743
0.122254 0.079621 0.007647
-0.062991 0.072414 -0.135702
0.185429 0.042417 0.035530
0.390952 -0.076222 0.127300
-0.020250 -0.064713 -0.169784
0.153082 0.060785 0.018999
0.062403 0.106594 -0.027647
0.395204 -0.096380 0.116144
0.287884 0.031305 0.098227
0.362172 -0.004139 0.133859
0.270773 0.035121 0.087106
0.139198 0.070216 0.006731
0.019574 -0.090637 -0.157948
0.333655 0.016213 0.120113
-0.056662 0.016202 -0.166722
-0.032908 -0.017708 -0.164570
0.034514 0.113682 -0.054030
0.112573 0.084092 -0.010036
-0.012397 -0.046725 -0.166593
0.051846 0.108239 -0.045298
0.135616 -0.094450 -0.078106
0.317401 0.022989 0.106537
0.256083 -0.096665 0.007057
0.000238 -0.063061 -0.168750
0.067898 0.103431 -0.040167
-0.039381 0.091689 -0.126992
0.249963 0.039052 0.061120
-0.022134 -0.020611 -0.170286
0.396434 -0.037802 0.125882
0.169872 0.051541 0.005316
-0.030128 0.051981 -0.144628
0.155186 0.060557 -0.001965
0.405091 -0.068864 0.117327
-0.015371 0.110477 -0.107744
0.089994 0.093711 -0.037279
0.139208 0.069754 -0.013199
0.278745 0.032397 0.070648
0.186613 0.041557 0.007796
-0.034916 0.024447 -0.164937
0.384784 -0.019754 0.121720
0.279832 0.035129 0.072056
-0.023637 0.104325 -0.120997
0.023355 -0.080066 -0.171278
0.298416 0.030835 0.082255
-0.020952 -0.005879 -0.170256
0.111808 0.083310 -0.030103
0.009602 0.115331 -0.092181
0.049120 0.108387 -0.065862
0.020962 -0.054043 -0.166989
0.314929 0.026827 0.085754
0.403537 -0.097793 0.091342
-0.008228 0.116265 -0.110624
-0.015508 0.085167 -0.130480
0.363937 0.006037 0.108211
0.407628 -0.049626 0.112428
-0.013104 0.016214 -0.167030
0.154223 0.060598 -0.021269
0.064808 0.102868 -0.069058
0.088041 0.093140 -0.057176
0.014313 -0.028696 -0.170657
0.403132 -0.074261 0.091260
0.384535 -0.007169 0.107695
-0.000722 0.065517 -0.140284
0.045572 0.107554 -0.086105
0.169096 0.050967 -0.021475
0.398977 -0.025398 0.107178
0.339520 0.019559 0.085179
0.355036 0.012612 0.091680
0.206115 -0.095401 -0.065474
0.120361 0.078830 -0.048427
0.217998 0.044183 0.004928
0.011543 0.092384 -0.125952
0.288012 0.034446 0.050168
0.010179 0.003073 -0.170392
0.145250 0.064685 -0.042153
0.410714 -0.096607 0.071062
0.084753 0.093108 -0.077031
0.322071 0.026907 0.064673
0.017266 0.027245 -0.158959
0.204585 0.042267 -0.012864
0.013595 0.019444 -0.166684
0.416427 -0.058261 0.090978
0.412164 -0.037611 0.096137
0.264311 0.038128 0.022687
0.382887 -0.000715 0.088295
0.309435 0.030099 0.048806
0.049648 0.103071 -0.108027
0.403163 -0.019732 0.091327
0.174336 0.046685 -0.042097
0.066550 0.097978 -0.098539
0.338050 -0.095380 0.009901
0.109321 -0.092663 -0.157724
0.034257 0.064846 -0.141248
0.369132 0.008812 0.077955
0.035067 0.044365 -0.149533
0.033348 0.009846 -0.169277
0.116672 0.078648 -0.075544
0.064650 0.089445 -0.109097
0.041015 0.090632 -0.126939
0.198695 0.042082 -0.033969
0.058292 -0.026035 -0.171131
0.348519 0.019326 0.059995
0.134111 0.069327 -0.071577
0.412655 -0.094564 0.052658
0.100937 0.083669 -0.092398
0.072389 -0.021713 -0.162729
0.054169 -0.008102 -0.171466
0.406911 -0.063383 0.059683
0.164268 0.050842 -0.062594
0.053978 0.046901 -0.147941
0.294597 0.034125 0.022470
0.412901 -0.031050 0.076167
0.397517 -0.011213 0.074407
0.086526 0.087893 -0.105288
0.423693 -0.048800 0.073937
0.055554 0.073183 -0.136871
0.385150 0.002848 0.069878
0.268903 0.038310 0.002820
0.086311 -0.039731 -0.169673
0.328979 0.026189 0.037062
0.073485 0.092728 -0.119861
0.120944 0.073746 -0.092648
0.058609 0.013393 -0.168596
0.399730 -0.007211 0.069806
0.146716 0.059877 -0.082071
0.151679 0.059319 -0.078029
0.184528 0.041275 -0.064148
0.423556 -0.089314 0.045056
0.072700 0.067757 -0.139046
0.077334 0.038399 -0.151441
0.410314 -0.071715 0.038152
0.073952 0.005762 -0.170497
0.376332 0.009383 0.050438
0.088608 -0.017427 -0.171127
0.231300 -0.117632 -0.115589
0.194066 -0.034227 -0.103538
0.410604 -0.027831 0.054317
0.234176 0.042052 -0.040213
0.268520 0.037978 -0.018337
0.080447 0.025295 -0.163712
0.298456 0.033965 -0.000395
0.140796 0.060088 -0.104220
0.318473 0.029607 0.009841
0.174719 0.041471 -0.091954
0.097509 0.049175 -0.146230
0.120867 0.069542 -0.119800
0.429166 -0.044952 0.048361
0.119537 -0.027365 -0.169710
0.422839 -0.093832 0.019838
0.344906 0.022363 0.016702
0.068912 0.046414 -0.174848
0.397485 -0.000730 0.041037
0.372814 0.011995 0.028485
0.110922 0.073557 -0.133709
0.135912 0.059802 -0.122561
0.329739 0.020271 0.000530
0.109106 0.011511 -0.166941
0.161149 0.047025 -0.111768
0.412167 -0.027871 0.034359
0.055322 0.044075 -0.192743
0.266657 0.038145 -0.039097
0.118253 0.040600 -0.149551
0.192175 -0.097160 -0.159721
0.333196 0.025921 -0.002490
0.314334 -0.090567 -0.071147
0.432466 -0.053454 0.028482
0.296671 0.033585 -0.027510
0.258537 -0.124624 -0.130164
0.429998 -0.073006 0.013937
0.127092 0.059027 -0.143764
0.357179 0.018196 0.001842
0.394235 0.002006 0.019601
0.155310 0.047097 -0.133173
0.408733 -0.019520 0.016732
0.140332 0.006691 -0.167471
0.110284 0.044608 -0.172148
0.318152 0.029701 -0.027570
0.345788 0.021960 -0.013537
0.375485 0.011907 0.000922
0.261323 0.037820 -0.069650
0.267991 0.030863 -0.069190
0.428202 -0.084347 -0.009858
0.434256 -0.052839 0.009343
0.168206 -0.022441 -0.168839
0.426279 -0.033418 0.009514
0.292631 0.033141 -0.057127
0.269235 -0.045264 -0.111227
0.411873 -0.073892 -0.024072
0.248963 -0.117499 -0.163259
0.401698 -0.001201 0.000677
0.253393 0.037689 -0.088388
0.409371 -0.022346 -0.004609
0.416173 -0.096121 -0.034912
0.344607 0.022095 -0.032743
0.170342 0.005141 -0.167822
0.269429 -0.119832 -0.155487
0.431796 -0.064157 -0.014130
0.329601 0.026166 -0.044479
0.239225 0.038128 -0.106054
0.182164 -0.011807 -0.172390
0.285035 -0.111883 -0.144472
0.414262 -0.091242 -0.041250
0.188074 0.042724 -0.142659
0.411585 -0.028017 -0.015184
0.433713 -0.044608 -0.008838
0.255419 -0.121693 -0.173081
0.180358 0.030255 -0.159021
0.412800 -0.009825 -0.009843
0.394120 0.002224 -0.018387
0.224024 0.038485 -0.124239
0.410935 -0.082341 -0.048253
0.203578 0.037178 -0.143383
0.282146 0.032659 -0.088744
0.363651 0.015327 -0.039039
0.409021 -0.061768 -0.044044
0.325966 0.025509 -0.063364
0.307355 0.029142 -0.078337
0.428855 -0.055211 -0.033939
0.197645 0.013940 -0.168756
0.427872 -0.038484 -0.027342
0.413676 -0.095579 -0.064780
0.270539 -0.113311 -0.178714
0.405083 -0.073221 -0.064574
0.350029 0.018731 -0.060647
0.391487 0.002569 -0.038711
0.416505 -0.029573 -0.038292
0.410422 -0.009870 -0.033161
0.216224 -0.006333 -0.173964
0.285922 -0.105322 -0.171300
0.221662 0.037421 -0.152213
0.291356 0.029574 -0.107722
0.257960 0.032772 -0.134190
0.399367 -0.073509 -0.084273
0.386888 0.001913 -0.059241
0.405774 -0.010133 -0.053311
0.406993 -0.095581 -0.092830
0.340199 0.018705 -0.090148
0.279994 0.029513 -0.128806
0.241483 0.032461 -0.155624
0.427021 -0.052042 -0.063176
0.237563 0.002929 -0.174164
0.370202 0.008695 -0.075989
0.416069 -0.057686 -0.074169
0.281262 -0.096741 -0.193363
0.321842 0.021658 -0.108185
0.339759 -0.099153 -0.153505
0.411666 -0.029867 -0.069983
0.300756 0.026011 -0.123234
0.370317 -0.068872 -0.119789
0.370299 -0.099890 -0.135274
0.321222 -0.081509 -0.162723
0.397120 -0.015857 -0.076803
0.302707 -0.072948 -0.173083
0.250066 0.022415 -0.167685
0.262214 -0.009714 -0.174088
0.385218 -0.000931 -0.083417
0.412080 -0.069581 -0.097071
0.379483 -0.086072 -0.128381
0.381442 -0.085424 -0.127288
0.304096 -0.055590 -0.170191
0.399794 -0.087728 -0.116968
0.271257 0.006355 -0.166461
0.360605 0.008622 -0.101325
0.291785 -0.076885 -0.191428
0.329864 -0.075079 -0.164573
0.417264 -0.049735 -0.092570
0.304120 0.021836 -0.140280
0.320795 0.018285 -0.130417
0.336184 0.015866 -0.121096
0.347051 -0.079239 -0.158263
0.403602 -0.021633 -0.091404
0.274847 0.014376 -0.167279
0.282768 -0.012412 -0.173939
0.335277 -0.004536 -0.132286
0.289225 0.022213 -0.153755
0.292973 -0.049646 -0.188146
0.310799 -0.039442 -0.170922
0.389233 -0.010308 -0.102699
0.280296 -0.031774 -0.193101
0.363116 -0.072087 -0.152465
0.289177 0.004647 -0.169757
0.399955 -0.058387 -0.122085
0.405038 -0.038307 -0.109155
0.301885 -0.008840 -0.170574
0.349398 0.004999 -0.130011
0.308620 0.011998 -0.157179
0.315897 -0.021061 -0.169095
0.367967 -0.004237 -0.124599
0.333826 -0.035464 -0.165718
0.352443 -0.049177 -0.159631
0.381618 -0.053583 -0.141168
0.389651 -0.027080 -0.123227
0.330808 -0.004863 -0.157096
0.391746 -0.044198 -0.131944
0.358307 -0.013043 -0.143161
0.365426 -0.033807 -0.150404
