0.024051 -0.013217 0.167519
-0.235754 -0.043906 -0.125198
0.007914 -0.086896 -0.092329
0.250143 0.030953 -0.151083
-0.009907 0.090548 -0.042156
-0.275591 -0.126046 -0.175612
-0.406975 -0.089607 -0.063324
-0.194087 0.044363 -0.084453
-0.307527 0.009935 0.172606
-0.224180 -0.078678 0.092495
-0.223703 -0.105741 0.169488
-0.003323 -0.080300 0.081117
0.242724 -0.111349 0.001045
0.140052 -0.080018 -0.165668
-0.424292 0.009140 -0.074271
0.166709 0.057872 0.041883
0.436649 -0.004616 0.060048
-0.415393 -0.007556 0.060705
0.000365 0.083404 0.117621
0.001767 0.098484 -0.148321
0.330457 -0.014473 -0.165680
-0.048089 0.093493 0.037244
-0.428091 -0.067945 0.027611
-0.237218 -0.040463 -0.178214
0.311153 0.023677 -0.094504
0.312789 0.018733 0.069959
-0.356281 0.015522 0.150060
0.210553 -0.032727 -0.169371
-0.303747 0.015216 -0.177270
-0.317697 0.015757 -0.077919
0.371529 -0.094356 -0.089552
-0.312231 -0.048785 0.104889
-0.351036 0.016631 0.000352
-0.183515 -0.089035 -0.170919
-0.364252 -0.066933 -0.057150
0.026375 -0.021725 0.053969
0.353604 -0.073108 -0.176051
0.179442 -0.107889 0.065650
0.134444 -0.016804 0.179883
-0.365740 -0.087582 0.019064
-0.271498 -0.062074 0.167498
-0.045809 -0.085960 0.154410
-0.358435 -0.071159 0.082879
-0.097333 0.082989 -0.136603
0.075574 0.027194 0.148845
0.150875 -0.027392 -0.021528
0.397664 -0.072544 -0.141547
0.413913 -0.038301 -0.009164
0.256561 -0.105545 -0.097755
-0.126435 0.047903 0.155686
-0.411528 -0.067740 0.122358
0.446986 -0.100482 0.056604
0.455073 -0.098750 -0.060981
0.089615 -0.090777 0.080508
0.146391 0.032627 -0.165602
-0.184075 0.039860 0.065483
-0.221942 0.020124 -0.181719
0.047905 0.089875 0.050404
-0.001747 0.032836 0.172129
0.302487 -0.122546 -0.148396
-0.356564 -0.065848 0.166616
-0.241082 0.028499 0.005762
0.369657 0.025195 -0.008238
-0.363792 -0.055996 -0.163966
-0.079396 -0.096232 -0.098853
-0.435620 0.013682 -0.009218
0.439541 -0.019236 -0.091563
0.300594 0.014235 0.143973
0.252578 -0.043059 -0.105121
0.080886 0.073982 -0.120906
0.378686 0.007397 -0.153761
0.197890 0.003912 0.162298
0.300451 -0.048297 0.107735
-0.090442 0.084710 0.130845
0.115027 0.071146 -0.065148
-0.119161 -0.064937 0.166553
0.383891 -0.099913 0.070210
-0.154312 -0.068850 0.033018
-0.133502 -0.005494 0.047462
0.277392 -0.039653 0.163081
0.007287 -0.084078 0.006015
-0.198052 -0.098473 -0.090884
-0.166581 -0.025342 0.181884
0.009326 -0.008714 -0.090046
0.374761 0.005763 0.150255
-0.273947 -0.092938 -0.095676
-0.110502 -0.021902 -0.193609
0.304618 -0.081930 0.001721
0.167955 -0.091839 0.165896
-0.283932 -0.132257 0.138457
0.117748 0.070768 0.105421
0.110596 -0.082920 0.152036
-0.141768 -0.020632 -0.080112
-0.250219 -0.104934 -0.000826
0.135054 -0.095497 -0.003979
0.291090 -0.128518 0.167080
-0.245925 0.028263 0.171444
-0.129122 -0.091734 -0.168119
0.220039 0.046089 0.102307
0.370465 -0.076957 0.155839
-0.165857 0.037117 -0.171027
-0.043581 0.019831 -0.177370
0.014523 -0.013533 -0.179307
-0.066238 -0.106876 -0.028970
0.068192 0.011369 -0.171623
-0.083559 -0.012641 0.180066
0.031201 -0.095161 -0.172998
-0.390577 0.007393 -0.148542
-0.104588 -0.089908 0.075823
0.102201 -0.100586 -0.084456
0.117487 0.048356 0.170372
-0.195912 -0.032209 0.120097
-0.279001 -0.031807 -0.123357
0.387860 -0.098177 0.005979
0.247975 -0.099805 -0.169361
-0.011382 -0.082794 0.159633
0.204752 0.051171 -0.075763
-0.395262 -0.070011 -0.131760
-0.294159 0.023945 0.088003
-0.117801 0.056040 -0.026466
0.177546 -0.094941 -0.113644
0.321336 -0.041891 -0.114637
0.214578 -0.031522 0.100809
0.433359 -0.068300 0.126525
0.283581 0.024691 -0.015210
0.135946 -0.033705 -0.164491
0.269422 -0.089880 0.081095
-0.033822 -0.071542 -0.169593
