-0.118855 0.136299 0.084343
0.242923 -0.211604 -0.309569
0.255559 -0.234339 0.320614
-0.268613 -0.232895 0.313314
0.262261 0.207715 0.305868
0.223671 0.216600 -0.212321
0.286279 -0.042470 0.021704
0.001713 0.048168 -0.174464
-0.193426 0.229819 -0.146531
0.108685 0.047049 0.181196
0.270080 0.009443 -0.284093
0.260851 -0.011863 0.328499
0.001690 0.214039 0.208994
0.176591 0.042281 -0.109790
0.273209 -0.100337 -0.141887
0.274385 -0.099958 0.181044
-0.114922 0.080845 -0.070102
-0.159858 0.216744 0.208209
0.155833 0.197841 0.198336
0.250218 0.083625 0.207975
0.089548 0.161071 -0.181392
-0.032404 0.057978 0.175738
0.257845 0.138066 -0.323286
-0.176533 0.222294 0.004883
0.201608 -0.138061 0.268043
0.236405 0.039131 0.092097
0.281873 0.018379 -0.158053
-0.140546 0.095491 0.192149
0.262746 -0.108134 -0.262589
0.263861 0.107762 -0.214726
0.223664 0.040922 -0.014501
-0.018441 0.151049 -0.170382
-0.132592 0.130719 -0.157525
0.262876 0.087612 0.311450
0.042538 0.125399 0.175500
0.288683 -0.001207 0.174638
0.096174 0.048660 -0.178955
0.288076 -0.021007 -0.072968
-0.129566 0.180577 -0.064313
-0.157551 0.215869 0.111989
-0.059829 0.146241 0.179576
0.176202 0.093729 -0.187670
-0.110416 0.064091 0.032306
0.260851 -0.109406 0.328498
0.251415 0.212678 0.218788
0.272560 -0.099233 0.080398
0.272933 -0.099163 -0.053018
0.168067 0.117780 0.188371
0.263061 0.217565 -0.308705
0.266405 -0.070302 0.254873
0.188965 0.034651 0.195095
0.192024 -0.139623 -0.258528
0.280945 -0.051945 -0.212730
0.288343 -0.022364 0.100933
-0.119536 0.065789 0.111925
0.266370 0.008923 0.246136
0.266654 0.149351 0.251762
-0.124592 0.175954 0.024374
0.072999 0.188251 0.188838
0.269420 0.169382 -0.247879
0.175239 0.163665 -0.192531
0.221426 0.029265 -0.191809
0.264710 -0.051169 -0.318255
-0.132396 0.155250 0.148180
0.041588 0.053802 0.175935
0.270195 0.089375 -0.278112
-0.189880 0.229591 -0.059235
0.283787 0.019439 0.000808
-0.106504 0.113851 -0.009569
0.261038 0.033145 -0.094743
0.223439 0.147600 0.201587
0.056870 0.106544 -0.174219
-0.126650 0.069718 -0.140268
0.260851 0.148951 0.328499
-0.135216 0.189889 -0.125323
0.106403 0.107971 0.179033
0.256518 -0.110722 -0.327437
-0.058065 0.208533 0.205960
0.284993 -0.042262 -0.138973
0.266863 0.007559 -0.223134
-0.090623 0.061330 0.180404
0.273484 -0.099429 0.021718
-0.006099 0.166050 0.175635
0.159419 0.037355 -0.164250
0.254696 -0.165715 0.321334
0.281972 0.017570 0.060715
0.234089 -0.115031 0.227461
0.230228 0.153173 -0.201165
-0.174827 0.224590 0.060277
-0.121855 0.138133 -0.105157
-0.123072 0.174820 0.197528
0.113587 0.221292 0.221945
0.127424 0.124265 -0.180441
0.282681 -0.040635 0.208869
0.278589 -0.080852 0.132393
0.266476 0.067738 0.254820
0.262709 0.057616 -0.318574
-0.012950 0.105027 0.171219
0.267586 0.029710 0.292478
0.248428 0.034072 0.141026
-0.000578 0.104541 -0.168225
0.273355 -0.100121 -0.204298
0.262821 0.033674 -0.043175
-0.114813 0.135176 -0.055627
0.226102 -0.140097 -0.293014
0.279311 -0.081045 -0.098247
0.269662 -0.030760 -0.258046
0.207832 0.042428 0.030414
0.233765 -0.114686 -0.225648
-0.132778 0.176624 0.104274
0.243781 0.037610 0.206357
-0.148693 0.211174 -0.035155
0.269545 0.047739 -0.258054
0.244037 0.035774 -0.138381
0.283620 -0.062257 -0.027768
-0.111030 0.104886 0.051392
-0.179107 0.225262 -0.102652
0.267240 0.109125 0.271904
-0.124213 0.115586 0.129304
0.263498 -0.071712 0.304852
0.267714 -0.032133 0.277463
-0.101239 0.213578 0.212854
-0.145772 0.208218 -0.163895
0.288230 -0.022305 -0.177655
0.260194 0.189703 -0.210448
0.256509 -0.110557 0.268216
-0.111501 0.063245 -0.030644
0.094598 0.149571 0.181576
0.224571 0.040073 -0.072944
0.195831 0.208223 0.206377
0.284763 -0.042085 0.147486
0.071038 0.218812 0.217560
0.216770 0.088255 -0.196247
0.259900 0.169344 0.215953
-0.180505 0.227079 0.173688
0.260038 -0.001050 -0.322923
0.156957 0.058904 0.185041
0.260851 0.048772 0.328499
0.265593 0.209476 -0.268474
0.290269 -0.021404 -0.013361
0.232366 -0.139530 0.298889
0.287533 -0.001092 -0.108698
-0.132144 0.186295 0.064783
0.211402 0.087649 0.197003
0.265753 0.188987 0.270092
0.284193 -0.061803 0.057205
0.267737 0.169285 -0.288321
0.256385 0.178247 -0.327460
0.039032 0.165305 0.180637
-0.070720 0.107541 0.176294
0.166921 0.157904 0.192139
-0.129144 0.066930 0.151060
0.279523 0.018008 0.121272
0.259862 0.034722 0.031997
0.288080 -0.022055 0.060466
-0.119269 0.098335 -0.109005
-0.194999 0.230182 0.094395
0.262695 0.097501 -0.316619
0.269286 0.127913 -0.268175
0.265992 0.068236 -0.218945
-0.117963 0.127845 0.187318
0.265287 0.113105 0.232406
0.244698 -0.171939 -0.311348
-0.271718 -0.193483 0.314725
0.281403 -0.061317 -0.172970
-0.113117 0.064813 0.071083
0.268677 -0.072499 -0.286230
0.007415 0.072576 0.173394
0.197779 0.124678 -0.193297
0.058173 0.048050 -0.177148
-0.114718 0.145650 0.044752
0.265380 0.148926 0.291253
0.189803 0.206226 -0.202584
0.207589 0.037701 -0.138861
-0.130540 0.186414 -0.015898
0.261578 0.023839 0.177958
0.074949 0.067681 0.177621
-0.116632 0.095178 0.091452
0.261662 -0.090491 0.226280
0.283387 -0.061329 -0.069573
0.007619 0.133306 0.173304
0.267097 -0.071923 -0.237692
0.017421 0.192775 0.187011
0.178181 0.053591 -0.187751
-0.146026 0.206636 0.041104
0.284742 0.009551 -0.194175
0.035656 0.213293 0.207186
-0.093203 0.151063 0.185413
-0.148299 0.205426 0.178558
0.092840 0.193424 -0.189731
-0.041171 0.186543 0.187038
-0.140724 0.206200 0.138941
0.286164 -0.040623 -0.099561
0.143688 0.088962 0.182621
-0.116629 0.155417 -0.000024
-0.155536 0.218896 -0.134466
0.042969 0.092781 0.175302
0.105312 0.187982 0.192883
0.265719 -0.031779 0.234991
0.148179 0.063713 -0.181428
0.288363 -0.001116 -0.047846
0.239486 0.064737 -0.201386
0.282820 -0.001230 0.205986
0.233732 -0.114939 -0.273180
-0.143422 0.200495 -0.084457
-0.108194 0.085439 0.009311
-0.135195 0.170821 -0.150293
-0.193453 0.232273 -0.019483
0.260851 -0.051408 0.328498
-0.140313 0.064296 0.192057
-0.091873 0.188609 0.196819
0.281606 -0.062094 0.170986
-0.053447 0.080704 0.176936
0.264900 0.049547 0.229791
-0.124253 0.145405 0.113449
0.259864 0.148230 -0.208307
0.257523 0.139042 0.211798
0.157751 0.124416 -0.184403
0.027952 0.116240 -0.172746
-0.118506 0.165162 -0.040397
0.215184 0.049664 0.197712
0.074137 0.127617 0.178010
0.284106 -0.060610 0.110933
0.289187 -0.001194 0.144860
0.260851 0.188495 0.328498
0.203614 0.168982 -0.198189
0.216285 0.040159 -0.100997
0.254677 -0.194887 0.321351
-0.142522 0.142532 0.192927
0.265296 0.189889 0.241097
0.238298 0.038504 0.050956
-0.128647 0.148906 -0.133024
-0.114532 0.085577 0.185954
0.195533 0.114083 0.194327
-0.033684 0.156581 0.176278
0.278535 0.019041 -0.077614
-0.115697 0.059086 -0.087985
0.018206 0.083957 -0.172249
0.270465 -0.032480 -0.286034
0.268436 0.088910 -0.237648
-0.125462 0.157532 -0.079493
0.263511 -0.091376 -0.308640
0.261443 0.209702 -0.229501
-0.148154 0.208297 0.069159
0.267872 0.028207 -0.304096
0.281508 -0.081204 -0.008029
-0.148491 0.182944 0.203644
0.142185 0.147724 0.186620
0.267260 0.008995 0.274851
-0.025903 0.205397 0.199293
0.260989 0.025539 -0.173704
-0.158054 0.215569 -0.060081
0.212996 0.187516 0.205045
0.260779 -0.109592 -0.235806
0.234108 -0.116001 0.254515
-0.155043 0.212832 -0.105207
0.261380 0.032857 0.085705
0.168584 0.215694 0.213249
0.262319 0.129445 0.308864
-0.139758 0.165086 0.179448
-0.123772 0.085232 0.129155
0.237142 0.103719 -0.201331
0.216305 -0.122419 0.282782
0.282809 -0.062497 0.083190
-0.134454 0.106089 0.169241
0.142848 0.103449 -0.181174
-0.110752 0.095301 -0.049021
0.242191 0.107803 0.204468
0.190059 0.167607 0.197527
0.265840 -0.032476 0.302930
-0.034890 0.117924 0.173020
0.265177 0.074852 0.226713
-0.116920 0.120107 -0.087830
-0.141399 0.196571 0.091018
0.267645 0.128041 -0.229381
-0.130939 0.087602 -0.157621
0.235561 0.036950 0.117270
0.282016 0.018184 0.159882
0.283511 -0.062485 -0.114646
0.265144 0.009112 0.306530
-0.178928 0.227815 0.029197
0.261856 0.168631 0.306201
0.173117 0.077579 0.188677
0.204647 -0.122484 -0.271190
0.287258 -0.001169 0.075949
0.277242 -0.080668 0.209815
0.286656 -0.020682 0.189582
0.260771 -0.109580 -0.287096
-0.090985 0.120846 0.180549
0.261349 0.018668 -0.201908
0.267756 0.050028 0.271505
0.091250 0.210355 0.206952
-0.155280 0.210500 0.004363
-0.066546 0.059944 0.178474
0.260853 -0.108149 0.291863
-0.111708 0.124605 -0.034269
0.093367 0.087948 0.178831
0.287983 -0.041442 -0.038458
0.268797 -0.011748 -0.243810
0.268746 0.067970 -0.298085
0.280091 -0.011649 -0.218904
0.268231 -0.011614 0.291958
0.268899 0.028832 -0.243806
0.134363 0.206150 0.203796
0.290233 -0.001136 0.010505
0.279030 0.018740 -0.118354
0.242785 0.172620 -0.205873
0.289504 -0.040317 0.044924
0.198517 0.032622 -0.195688
0.050015 0.192968 0.189562
0.269989 0.109366 -0.253965
0.064091 0.106654 0.175923
0.272529 -0.100649 -0.076265
0.268634 -0.011478 -0.303991
0.282973 -0.082364 -0.039339
-0.132186 0.193133 -0.038021
0.264727 0.158291 -0.308465
0.255649 0.057517 0.210168
-0.069453 0.188159 0.191361
0.289164 -0.001073 -0.148093
0.284179 -0.030681 -0.204520
0.289430 -0.020491 -0.133061
0.147834 0.035095 -0.183965
0.272929 -0.100615 0.122209
-0.132119 0.175616 -0.107640
-0.189422 0.228356 -0.082445
0.217093 0.195789 -0.205432
0.239138 0.168327 0.206427
-0.115160 0.062795 0.186204
-0.123651 0.165673 0.050900
0.131302 0.045868 0.182693
-0.133794 0.195891 0.018885
-0.128922 0.109020 -0.150699
0.283134 0.019176 -0.039386
0.061472 0.167818 0.180613
-0.157502 0.220892 0.136465
-0.119617 0.125731 0.104094
-0.090553 0.098493 0.180376
-0.126270 0.156233 0.090456
0.278392 -0.081339 -0.164184
0.115271 0.128046 0.181159
0.188635 0.092824 0.192219
0.169383 0.039653 -0.144746
-0.109346 0.115241 0.032042
-0.110191 0.075382 0.051169
0.279953 -0.082481 0.110527
0.262822 0.197954 -0.318556
0.279658 -0.082457 -0.122888
0.286019 -0.041693 0.125581
0.286216 -0.041117 0.086630
0.256361 -0.022150 -0.327464
0.084873 0.048292 0.179620
0.233750 -0.116031 -0.247458
0.267517 -0.050335 0.289539
-0.109703 0.063452 -0.008909
-0.133524 0.180372 -0.085717
0.219603 0.207662 0.209946
-0.025831 0.078504 0.172966
-0.013995 0.132727 0.171664
0.262788 0.210137 0.266435
0.219163 0.134742 -0.198613
0.271705 -0.101042 0.202319
0.169713 0.034018 -0.189877
0.186495 -0.137174 0.252892
0.028664 0.074340 0.174732
0.240760 0.134783 -0.203629
-0.117242 0.098627 -0.087789
0.268641 0.149209 -0.268227
0.280150 0.017860 0.099992
0.280150 -0.081350 0.071690
0.272334 -0.101100 -0.183060
0.231063 0.127765 0.202745
0.260176 0.033442 -0.073488
0.265622 -0.070859 0.276126
0.287574 -0.001185 0.116877
0.265562 0.169273 0.285116
0.265713 -0.052217 0.240795
0.269306 0.068983 -0.258069
0.269371 -0.051997 -0.258065
0.286842 -0.061102 0.036183
0.286416 -0.001069 -0.169105
0.266712 -0.011487 0.251719
0.011439 0.112573 0.171631
0.113376 0.208003 0.201984
