-0.120187 0.134454 0.085192
0.241069 -0.217420 -0.311377
0.249567 -0.238146 0.318265
-0.268900 -0.238780 0.313578
0.265402 0.203229 0.309042
0.222267 0.216191 -0.215446
0.285456 -0.046280 0.022678
0.000565 0.045448 -0.175243
-0.193073 0.225686 -0.148451
0.109086 0.044266 0.181441
0.268217 0.002929 -0.284721
0.260072 -0.015049 0.330261
0.001878 0.210378 0.210533
0.173773 0.040048 -0.109476
0.270876 -0.106051 -0.140970
0.269483 -0.103704 0.182206
-0.116225 0.077092 -0.070333
-0.159860 0.214664 0.211857
0.156947 0.193906 0.200656
0.248697 0.081966 0.206585
0.087220 0.159845 -0.184187
-0.031977 0.056353 0.177531
0.255342 0.132954 -0.324049
-0.178822 0.222447 0.006745
0.198494 -0.140922 0.264909
0.235626 0.039148 0.093001
0.280265 0.011397 -0.157517
-0.143305 0.094850 0.194889
0.259820 -0.113572 -0.264166
0.262151 0.105523 -0.218746
0.224343 0.041148 -0.015501
-0.022340 0.145872 -0.170898
-0.133718 0.127789 -0.157579
0.264383 0.084514 0.313916
0.041357 0.123478 0.175655
0.287625 -0.004231 0.175121
0.093899 0.046374 -0.178353
0.285524 -0.027180 -0.072771
-0.132517 0.178437 -0.061915
-0.157712 0.212556 0.115794
-0.060484 0.144652 0.180404
0.175110 0.089058 -0.188385
-0.113057 0.061300 0.032207
0.257740 -0.113070 0.327159
0.249200 0.210592 0.219411
0.271323 -0.104083 0.080922
0.269680 -0.104642 -0.051046
0.165817 0.115885 0.188059
0.262478 0.215851 -0.310191
0.263552 -0.073312 0.254718
0.186817 0.032799 0.194984
0.188331 -0.143878 -0.257685
0.278600 -0.054607 -0.213937
0.286266 -0.026528 0.101621
-0.121668 0.062973 0.112816
0.266267 0.004826 0.248168
0.267942 0.145677 0.254651
-0.125307 0.170741 0.028214
0.070753 0.186957 0.189560
0.266369 0.165004 -0.250866
0.175076 0.164782 -0.195440
0.219538 0.026541 -0.193097
0.263405 -0.057730 -0.319205
-0.134067 0.152226 0.152000
0.041098 0.051305 0.174746
0.268406 0.083266 -0.281297
-0.191703 0.226329 -0.058398
0.283276 0.015883 0.001036
-0.108714 0.111601 -0.008726
0.260103 0.029645 -0.094178
0.224679 0.144466 0.202307
0.054224 0.104053 -0.175918
-0.128277 0.065835 -0.142485
0.256745 0.146039 0.328702
-0.137460 0.187853 -0.125083
0.107609 0.105695 0.179123
0.252864 -0.114411 -0.330010
-0.059147 0.205416 0.206809
0.280165 -0.049738 -0.138347
0.265551 0.001607 -0.222852
-0.091150 0.061309 0.179427
0.271582 -0.104952 0.022914
-0.006252 0.164253 0.175901
0.158113 0.034294 -0.165940
0.251116 -0.169055 0.318876
0.280198 0.015453 0.061014
0.231664 -0.119028 0.225121
0.229973 0.150560 -0.201600
-0.177790 0.219973 0.065488
-0.122907 0.136963 -0.103860
-0.125248 0.172937 0.198867
0.115099 0.220417 0.222091
0.126704 0.121139 -0.180263
0.282200 -0.043679 0.208956
0.276147 -0.085283 0.133043
0.267956 0.065513 0.256554
0.261044 0.050625 -0.318860
-0.012317 0.101221 0.171635
0.265402 0.026963 0.292827
0.248209 0.030731 0.142598
-0.001891 0.101319 -0.169298
0.271678 -0.104586 -0.204862
0.261939 0.031292 -0.044948
-0.116343 0.132028 -0.053856
0.226403 -0.145220 -0.294542
0.278453 -0.085713 -0.098693
0.267199 -0.037807 -0.259222
0.205839 0.040726 0.030907
0.233556 -0.117192 -0.228490
-0.135427 0.174342 0.106367
0.240892 0.034585 0.205981
-0.152569 0.208584 -0.033649
0.268313 0.041597 -0.258468
0.243581 0.034212 -0.139009
0.281164 -0.066830 -0.028146
-0.114357 0.100594 0.052806
-0.180142 0.219866 -0.102318
0.264612 0.106662 0.271618
-0.124371 0.113444 0.131728
0.257844 -0.074793 0.304255
0.264032 -0.034859 0.277597
-0.104135 0.212436 0.214546
-0.145384 0.202981 -0.163168
0.285549 -0.026274 -0.178206
0.260407 0.185354 -0.212009
0.251987 -0.114266 0.267496
-0.111368 0.057499 -0.028646
0.095190 0.147104 0.181029
0.221687 0.037787 -0.073519
0.195249 0.205011 0.208164
0.285412 -0.044661 0.147673
0.070248 0.215366 0.219252
0.214994 0.084338 -0.197169
0.258897 0.165741 0.217363
-0.181735 0.226411 0.176421
0.257483 -0.006296 -0.324283
0.154550 0.057164 0.185710
0.259903 0.045649 0.328659
0.263266 0.203519 -0.269731
0.287874 -0.026918 -0.013880
0.227873 -0.142400 0.297215
0.285343 -0.007685 -0.110105
-0.133451 0.181241 0.069064
0.211772 0.084882 0.196626
0.265161 0.188139 0.269947
0.282926 -0.065258 0.058397
0.266797 0.169976 -0.292548
0.254780 0.169750 -0.326423
0.039004 0.164731 0.179624
-0.068586 0.107190 0.176734
0.167579 0.156627 0.192651
-0.131747 0.064365 0.151588
0.277514 0.013241 0.121742
0.260876 0.033012 0.031945
0.287369 -0.026057 0.061543
-0.120653 0.096935 -0.108730
-0.196929 0.226520 0.099529
0.261730 0.094435 -0.319257
0.268548 0.123034 -0.269466
0.263693 0.062216 -0.220561
-0.119622 0.127601 0.189140
0.265505 0.108174 0.233468
0.245946 -0.175748 -0.315138
-0.275057 -0.196372 0.314925
0.280320 -0.065627 -0.173312
-0.112772 0.063607 0.070565
0.267739 -0.078031 -0.287226
0.007479 0.070961 0.172474
0.197354 0.122256 -0.196247
0.056332 0.044061 -0.177035
-0.117631 0.143283 0.047158
0.263846 0.146371 0.292165
0.188471 0.205463 -0.203677
0.205961 0.033853 -0.138871
-0.134101 0.182777 -0.011631
0.261754 0.020438 0.178075
0.075450 0.065277 0.177566
-0.118233 0.091100 0.093689
0.261988 -0.095247 0.225133
0.281829 -0.066736 -0.068607
0.007283 0.130342 0.173178
0.265634 -0.078895 -0.238385
0.017506 0.193244 0.186107
0.175904 0.047643 -0.188162
-0.146747 0.201857 0.045122
0.282688 0.005658 -0.195968
0.037364 0.210705 0.208994
-0.096091 0.149272 0.186372
-0.149698 0.203006 0.183107
0.092651 0.190616 -0.191191
-0.043074 0.185492 0.188127
-0.140763 0.204528 0.143106
0.285924 -0.044280 -0.098772
0.143191 0.087901 0.182918
-0.117966 0.152528 0.000958
-0.156399 0.215055 -0.133159
0.043637 0.094643 0.174561
0.104489 0.183548 0.194370
0.264551 -0.035607 0.235070
0.146197 0.060444 -0.181653
0.285988 -0.008007 -0.047565
0.238595 0.061774 -0.203818
0.279337 -0.004328 0.205326
0.232602 -0.118520 -0.274501
-0.145740 0.195663 -0.082486
-0.110992 0.082734 0.009425
-0.135756 0.166573 -0.150304
-0.193534 0.228957 -0.017244
0.260211 -0.054486 0.328813
-0.141159 0.060948 0.193681
-0.091734 0.185742 0.197815
0.279732 -0.066440 0.170696
-0.053345 0.081478 0.176933
0.262778 0.045987 0.230672
-0.125810 0.141214 0.118310
0.259282 0.143637 -0.210985
0.256336 0.133941 0.212798
0.156355 0.122287 -0.186867
0.028458 0.113126 -0.173455
-0.119133 0.164625 -0.039788
0.211810 0.047615 0.197637
0.073621 0.125274 0.177109
0.284987 -0.064166 0.109849
0.286713 -0.005245 0.145440
0.260884 0.184574 0.330341
0.201743 0.170291 -0.201637
0.213070 0.037540 -0.102368
0.251343 -0.198585 0.318301
-0.145040 0.138486 0.194805
0.265908 0.187475 0.240127
0.238310 0.036016 0.051067
-0.130795 0.144589 -0.132415
-0.117428 0.084907 0.187407
0.195550 0.111715 0.194815
-0.032870 0.155595 0.176686
0.275975 0.014200 -0.078185
-0.115405 0.055110 -0.088044
0.018189 0.082019 -0.174239
0.268294 -0.039318 -0.285269
0.267030 0.084790 -0.241754
-0.127246 0.154255 -0.078695
0.262296 -0.094980 -0.312046
0.259601 0.206794 -0.232953
-0.149102 0.206672 0.070674
0.266757 0.023022 -0.305901
0.281398 -0.085854 -0.006941
-0.152162 0.179866 0.204638
0.142796 0.141680 0.187058
0.265840 0.005171 0.275782
-0.025659 0.204769 0.199755
0.258207 0.018103 -0.173109
-0.159414 0.214416 -0.059806
0.211381 0.183741 0.207807
0.257817 -0.115489 -0.235625
0.231589 -0.118984 0.252528
-0.157195 0.209532 -0.101803
0.259997 0.029980 0.086656
0.167950 0.215876 0.213036
0.262706 0.126465 0.311525
-0.142302 0.163009 0.182552
-0.126353 0.081507 0.131441
0.236161 0.097721 -0.201793
0.211316 -0.125458 0.281633
0.282594 -0.064933 0.082438
-0.136997 0.104616 0.170308
0.143350 0.100598 -0.181837
-0.110663 0.092146 -0.048471
0.241569 0.106266 0.204627
0.189106 0.164701 0.199513
0.262217 -0.034231 0.301997
-0.034821 0.117352 0.173926
0.263883 0.073200 0.226515
-0.119780 0.116292 -0.087228
-0.142987 0.192140 0.094256
0.266614 0.123367 -0.231039
-0.133601 0.081560 -0.158205
0.232118 0.034775 0.117269
0.280519 0.014138 0.159620
0.284182 -0.065037 -0.115585
0.263367 0.005153 0.307829
-0.180735 0.219939 0.032586
0.262423 0.166308 0.306524
0.172288 0.075504 0.189382
0.203350 -0.126702 -0.271955
0.283484 -0.005307 0.075406
0.272659 -0.084862 0.210379
0.284956 -0.024903 0.190119
0.259886 -0.114771 -0.287659
-0.093113 0.118623 0.181520
0.260284 0.014143 -0.203228
0.266509 0.047988 0.271239
0.090005 0.209511 0.207000
-0.156050 0.205795 0.009138
-0.065448 0.059971 0.179523
0.258470 -0.113986 0.290409
-0.113657 0.121350 -0.032960
0.092412 0.089799 0.176711
0.286417 -0.046212 -0.036168
0.266691 -0.017162 -0.244695
0.266722 0.061094 -0.298604
0.280056 -0.016734 -0.219886
0.264806 -0.014237 0.290799
0.267952 0.026519 -0.246233
0.131649 0.203457 0.205167
0.290386 -0.003642 0.009183
0.278736 0.014823 -0.118474
0.240846 0.169797 -0.207845
0.289958 -0.044293 0.045212
0.195839 0.028779 -0.195504
0.048736 0.189524 0.190440
0.269901 0.103492 -0.255485
0.065969 0.104889 0.175810
0.269170 -0.106651 -0.075200
0.267425 -0.018552 -0.304007
0.284193 -0.084908 -0.039127
-0.134213 0.188358 -0.034342
0.264175 0.153107 -0.309259
0.256078 0.055098 0.210469
-0.070231 0.188052 0.192224
0.286574 -0.006970 -0.148769
0.282986 -0.034786 -0.205910
0.287493 -0.030184 -0.131059
0.146109 0.032202 -0.183275
0.273348 -0.103210 0.121739
-0.133001 0.172005 -0.105572
-0.190385 0.222925 -0.080111
0.216799 0.193230 -0.205479
0.239907 0.163362 0.208096
-0.116052 0.060394 0.188055
-0.124538 0.166062 0.050761
0.129575 0.044529 0.183085
-0.136038 0.191477 0.022120
-0.131616 0.105866 -0.150912
0.279286 0.012507 -0.038324
0.060009 0.163676 0.179944
-0.160630 0.218451 0.141298
-0.122816 0.125064 0.104926
-0.092428 0.097410 0.181398
-0.127785 0.151279 0.094042
0.275674 -0.088244 -0.162870
0.116302 0.124804 0.182358
0.189919 0.092694 0.192858
0.167181 0.035597 -0.146575
-0.109786 0.110251 0.034761
-0.108691 0.073137 0.053681
0.275003 -0.087937 0.112310
0.261074 0.194312 -0.321341
0.279763 -0.088143 -0.122899
0.285039 -0.045673 0.126497
0.286300 -0.046387 0.087933
0.254925 -0.027359 -0.329248
0.085647 0.045267 0.179516
0.231972 -0.120670 -0.246143
0.265731 -0.053254 0.289381
-0.108788 0.062211 -0.008373
-0.133113 0.176089 -0.084048
0.218847 0.205844 0.210740
-0.026565 0.076944 0.173381
-0.013842 0.133541 0.171397
0.264433 0.205859 0.268638
0.216590 0.130688 -0.200331
0.270416 -0.103884 0.201885
0.168721 0.030277 -0.191531
0.183860 -0.137567 0.251664
0.028251 0.071389 0.173815
0.239914 0.129012 -0.204147
-0.118344 0.095621 -0.087776
0.268531 0.144223 -0.270919
0.277838 0.013506 0.099874
0.278233 -0.082758 0.071531
0.270502 -0.104186 -0.183829
0.229106 0.124112 0.204614
0.259711 0.032523 -0.075767
0.260554 -0.074137 0.276070
0.285638 -0.004508 0.117387
0.265205 0.168016 0.285863
0.266674 -0.057042 0.241225
0.268127 0.062379 -0.261344
0.268295 -0.056811 -0.259427
0.283567 -0.065592 0.036590
0.284591 -0.007396 -0.168846
0.267463 -0.017068 0.253416
0.010927 0.110815 0.171271
0.114096 0.203055 0.203445
