-0.003112 0.094060 0.169943
-0.007461 0.107648 0.170395
-0.021447 0.066541 0.170794
-0.016550 0.108212 0.170142
-0.017545 0.122717 0.170660
-0.011934 0.113787 0.170512
-0.025441 0.104451 0.170465
-0.026405 0.089040 0.170837
-0.026730 0.076426 0.170946
-0.005985 0.077515 0.170499
-0.017749 0.088595 0.170570
-0.028581 0.097640 0.170848
-0.012835 0.070714 0.170333
-0.012969 0.102952 0.170120
-0.008608 0.098290 0.170371
-0.033536 0.071783 0.171384
-0.031848 0.083811 0.171011
-0.022314 0.083597 0.170574
-0.013256 0.082515 0.170201
-0.018387 0.076696 0.170516
-0.026778 0.117581 0.171280
-0.000595 0.103239 0.170169
-0.022404 0.094272 0.170646
-0.005619 0.117971 0.170728
-0.016893 0.097505 0.170230
-0.035961 0.092554 0.171050
0.000029 0.085957 0.170310
-0.021504 0.112587 0.170688
-0.020303 0.102071 0.170790
0.253295 -0.111839 0.319073
0.238957 -0.115555 0.240966
0.262439 -0.106804 0.260037
0.258822 -0.109056 0.229661
0.259293 -0.109095 0.273957
0.256208 -0.111527 0.259689
0.251956 -0.113546 0.234266
0.251044 -0.113931 0.268412
0.252728 -0.112817 0.284980
0.248943 -0.114303 0.247576
0.255779 -0.111256 0.280304
0.251346 -0.113439 0.298200
0.260108 -0.108333 0.296588
0.252888 -0.112979 0.262851
0.243831 -0.115180 0.260431
0.257675 -0.109841 0.250971
0.253869 -0.112436 0.252754
0.257690 -0.109449 0.282514
0.235459 -0.116087 0.275167
0.245312 -0.114386 0.308464
0.255523 -0.111496 0.291456
0.255653 -0.111000 0.241829
0.256308 -0.111133 0.268029
0.242861 -0.115771 0.289792
0.261632 -0.107568 0.244587
0.254304 -0.111938 0.274235
0.259365 -0.108667 0.263553
0.255060 -0.111336 0.215105
0.228350 -0.116659 0.253731
0.262740 -0.106536 0.283004
0.248699 -0.114521 0.276447
0.256792 -0.110012 0.305701
-0.034309 0.152172 0.175462
-0.057483 0.164891 0.179391
-0.028933 0.147867 0.174384
-0.023349 0.154354 0.174850
-0.027985 0.165199 0.177109
-0.043895 0.127614 0.174240
-0.037927 0.166026 0.177442
-0.039092 0.177463 0.180092
-0.032888 0.170600 0.178581
-0.048067 0.161918 0.177818
-0.048930 0.149266 0.176603
-0.049332 0.137071 0.175393
-0.026278 0.138103 0.173445
-0.039254 0.148254 0.175430
-0.052414 0.156257 0.177868
-0.033874 0.131355 0.173270
-0.033947 0.161616 0.176461
-0.029423 0.157415 0.175705
-0.058301 0.133238 0.176242
-0.055458 0.144565 0.176707
-0.044470 0.144030 0.175269
-0.034409 0.142732 0.174141
-0.040134 0.137334 0.174351
-0.050294 0.173245 0.180827
-0.020288 0.161990 0.176249
-0.044334 0.153723 0.176495
-0.025338 0.173737 0.178715
-0.038197 0.156595 0.175961
-0.062593 0.152026 0.178346
-0.019583 0.147063 0.174136
-0.043784 0.169201 0.178918
-0.041957 0.160639 0.177424
-0.138594 0.180459 0.137211
-0.136358 0.192595 0.092191
-0.130684 0.166711 0.097655
-0.129512 0.170546 0.082962
-0.136296 0.183622 0.109904
-0.128185 0.152302 0.102618
-0.133822 0.186512 0.085981
-0.139353 0.197441 0.101429
-0.138412 0.187525 0.119030
-0.133457 0.181078 0.091983
-0.135589 0.176293 0.123772
-0.134117 0.168914 0.123797
-0.132712 0.159025 0.127491
-0.131881 0.170050 0.104979
-0.133653 0.179095 0.101941
-0.128575 0.158785 0.094240
-0.135598 0.187346 0.098477
-0.134031 0.175848 0.110086
-0.130127 0.156163 0.113754
-0.135274 0.170476 0.133277
-0.132297 0.164447 0.115423
-0.128308 0.163679 0.087217
-0.130511 0.161793 0.105821
-0.141366 0.193362 0.126768
-0.131199 0.173889 0.089283
-0.136179 0.180784 0.116766
-0.139794 0.195155 0.113780
-0.131387 0.180379 0.078889
-0.131860 0.174024 0.097441
-0.134121 0.172397 0.114867
-0.137487 0.190075 0.105786
-0.138156 0.183162 0.126803
-0.135697 -0.019957 0.148685
-0.133654 0.030885 0.089109
-0.092977 -0.078084 0.075655
-0.173820 0.019753 0.052331
-0.110055 0.022810 0.052974
-0.202505 0.028751 0.112516
-0.110686 0.021152 -0.016027
-0.125120 0.028112 0.020777
-0.089271 0.009437 0.101355
-0.128366 -0.076223 0.189992
-0.206169 -0.099587 0.058281
-0.259314 -0.043177 0.098904
-0.157933 -0.086437 0.118237
-0.115179 -0.034527 0.111849
-0.144726 0.030755 0.148708
-0.241195 0.019884 0.172735
-0.104452 -0.089131 0.142923
-0.108670 -0.111434 0.013481
-0.220147 -0.111466 0.145116
-0.197117 -0.060902 0.180286
-0.115878 -0.122282 0.100029
-0.162239 -0.034747 -0.000191
-0.115462 0.025495 0.128786
-0.105093 -0.019100 0.162786
-0.126618 0.022431 0.171998
-0.123740 -0.061885 0.048525
-0.157343 0.007949 0.196091
-0.136147 -0.006010 0.088374
-0.111509 0.031928 0.091705
-0.143658 -0.115565 0.173404
-0.090567 -0.001861 0.022010
-0.176840 0.006415 0.132042
-0.120407 0.055160 0.113972
-0.111870 0.065232 0.058382
-0.117004 0.044093 0.065740
-0.114611 0.046403 0.046486
-0.115156 0.058333 0.078976
-0.121021 0.016847 0.071743
-0.112521 0.059475 0.050653
-0.112398 0.071458 0.069105
-0.115930 0.061890 0.089084
-0.113358 0.055555 0.059528
-0.118284 0.052607 0.093812
-0.120441 0.043707 0.097063
-0.122809 0.033124 0.099775
-0.116850 0.047713 0.074039
-0.114741 0.054782 0.070795
-0.119089 0.031417 0.061152
-0.113246 0.060951 0.065668
-0.116783 0.051456 0.079496
-0.121614 0.026529 0.084825
-0.121601 0.045675 0.108568
-0.119847 0.042306 0.087605
-0.116463 0.041026 0.052521
-0.118987 0.038382 0.075510
-0.116540 0.067353 0.097544
-0.114527 0.048757 0.055613
-0.116878 0.055835 0.085755
-0.114299 0.067803 0.082277
-0.113072 0.053941 0.040525
-0.115227 0.050088 0.065289
-0.118449 0.048159 0.085978
-0.113798 0.064519 0.074162
-0.117843 0.057203 0.100430
-0.032433 0.211265 0.204314
-0.068340 0.215019 0.217610
-0.023706 0.204947 0.198707
-0.016938 0.210861 0.204154
-0.024983 0.217512 0.214462
-0.047579 0.191641 0.190198
-0.041161 0.216243 0.214273
-0.041058 0.222679 0.234942
-0.032638 0.220719 0.224573
-0.055469 0.212197 0.210638
-0.053969 0.206315 0.202784
-0.055425 0.197746 0.195468
-0.020125 0.199825 0.193830
-0.041535 0.203621 0.199785
-0.062319 0.210016 0.208410
-0.029963 0.193519 0.191272
-0.032198 0.213643 0.209796
-0.025680 0.211401 0.204872
-0.070181 0.195136 0.195283
-0.062919 0.203955 0.201664
-0.048155 0.200820 0.197725
-0.031837 0.202373 0.197559
-0.039550 0.197611 0.194566
-0.059715 0.220733 0.231724
-0.011436 0.215971 0.210139
-0.047682 0.208643 0.204700
-0.016078 0.222967 0.227618
-0.038387 0.209657 0.204366
-0.075182 0.206626 0.206231
-0.010297 0.205929 0.200528
-0.050325 0.217895 0.220171
-0.043805 0.214034 0.210019
0.258336 -0.036931 0.330278
0.266425 -0.017287 0.302275
0.265015 -0.056262 0.304267
0.266389 -0.050423 0.295522
0.263791 -0.029610 0.315026
0.263284 -0.079313 0.309271
0.266850 -0.026023 0.297469
0.265016 -0.007440 0.309771
0.262410 -0.024323 0.320582
0.266291 -0.033710 0.301932
0.261507 -0.042888 0.324761
0.260040 -0.057308 0.323564
0.259847 -0.067620 0.325963
0.264028 -0.051927 0.311362
0.265142 -0.035362 0.309232
0.264234 -0.070111 0.303145
0.265532 -0.025440 0.307151
0.263560 -0.041742 0.314371
0.261888 -0.074192 0.317704
0.258698 -0.050509 0.328945
0.262264 -0.059381 0.316213
0.266064 -0.062290 0.296950
0.263597 -0.064361 0.310032
0.261102 -0.014607 0.326443
0.266000 -0.043143 0.300322
0.262243 -0.035812 0.319706
0.262835 -0.014758 0.318280
0.267144 -0.036099 0.293152
0.265708 -0.044820 0.306764
0.261940 -0.048315 0.319071
0.264789 -0.018693 0.312088
0.260438 -0.029876 0.325064
-0.251979 -0.112282 -0.097115
-0.271382 -0.109561 -0.174286
-0.231900 -0.113915 -0.174309
-0.286069 -0.108142 -0.190664
-0.249657 -0.115254 -0.185880
-0.287980 -0.102482 -0.151449
-0.265114 -0.113240 -0.226089
-0.279831 -0.108070 -0.207386
-0.207115 -0.114992 -0.151608
-0.235817 -0.111803 -0.083541
-0.288979 -0.110592 -0.172357
-0.289920 -0.105923 -0.140258
-0.278174 -0.114205 -0.162423
-0.258435 -0.112437 -0.126687
-0.279410 -0.106238 -0.118533
-0.290666 -0.105422 -0.095799
-0.228154 -0.114553 -0.136607
-0.245317 -0.116274 -0.209012
-0.288481 -0.110284 -0.115772
-0.280536 -0.110739 -0.090770
-0.251065 -0.117037 -0.147972
-0.288460 -0.113316 -0.211704
-0.240349 -0.112929 -0.115227
-0.213799 -0.112745 -0.109408
-0.264813 -0.108574 -0.077449
-0.269526 -0.113759 -0.188137
-0.285769 -0.107649 -0.066239
-0.266381 -0.112932 -0.145984
-0.251715 -0.110510 -0.157609
-0.266486 -0.114900 -0.108199
-0.215457 -0.112811 -0.200476
-0.281237 -0.110858 -0.133325
-0.015974 0.127671 0.171412
-0.034062 0.140601 0.172311
-0.011332 0.123429 0.170885
-0.006922 0.129156 0.170992
-0.010690 0.140327 0.172098
-0.023333 0.104510 0.170989
-0.018854 0.141042 0.171661
-0.019857 0.153280 0.172950
-0.014756 0.145602 0.172571
-0.026957 0.137439 0.171846
-0.027651 0.124891 0.171609
-0.027967 0.113698 0.171340
-0.009252 0.114401 0.170939
-0.019814 0.124088 0.171318
-0.030197 0.131896 0.172010
-0.015502 0.108524 0.170615
-0.015593 0.136624 0.171462
-0.011895 0.132524 0.171437
-0.034689 0.109701 0.171717
-0.032806 0.120409 0.171668
-0.024066 0.120055 0.171079
-0.015978 0.118852 0.170673
-0.020567 0.113923 0.170925
-0.028627 0.148944 0.173391
-0.004454 0.136735 0.171881
-0.024130 0.129209 0.171567
-0.008935 0.149013 0.172956
-0.019092 0.131982 0.171212
-0.037761 0.127603 0.172090
-0.003606 0.122500 0.171198
-0.023589 0.144569 0.172495
-0.022148 0.135757 0.172088
0.040332 0.040940 0.176862
0.009794 0.047724 0.175302
0.049627 0.039644 0.177080
0.053944 0.042145 0.177230
0.044985 0.048336 0.176610
0.029736 0.021234 0.177130
0.034161 0.048032 0.175911
0.032701 0.060023 0.175616
0.039760 0.051699 0.175800
0.022666 0.046247 0.175631
0.021715 0.040577 0.176195
0.021463 0.032910 0.176467
0.055136 0.033120 0.178128
0.033351 0.039978 0.176786
0.015603 0.043125 0.175961
0.044101 0.029397 0.177220
0.040336 0.045562 0.176033
0.045982 0.043838 0.176778
0.007981 0.028212 0.176503
0.015403 0.037278 0.176240
0.027409 0.038155 0.176726
0.041352 0.037547 0.177150
0.035720 0.034338 0.176982
0.019198 0.054656 0.175230
0.060186 0.046165 0.177257
0.027084 0.042565 0.176145
0.049775 0.053969 0.176687
0.035179 0.043002 0.176501
0.001824 0.040639 0.175808
0.065691 0.038651 0.178012
0.027594 0.051243 0.175516
0.030349 0.045162 0.176036
0.234352 0.059165 0.334943
0.104970 0.091103 0.335472
0.247219 0.050198 0.332833
0.253058 0.062454 0.330700
0.244687 0.090565 0.332571
0.204977 0.020806 0.335736
0.196740 0.090930 0.334889
0.208632 0.116977 0.334822
0.224643 0.101220 0.333944
0.158066 0.079808 0.335572
0.171381 0.053515 0.336179
0.161638 0.031631 0.336322
0.251935 0.033774 0.331915
0.209803 0.051643 0.334959
0.124467 0.070344 0.336356
0.241205 0.022759 0.334002
0.232347 0.080727 0.333473
0.245078 0.069043 0.332917
0.105969 0.026211 0.336417
0.135533 0.043595 0.336016
0.189859 0.040688 0.336007
0.238027 0.041563 0.333584
0.221458 0.033397 0.335022
0.140644 0.108116 0.336165
0.254835 0.078229 0.330571
0.192554 0.063418 0.335570
0.250641 0.108935 0.332548
0.224157 0.066425 0.334448
0.076956 0.060544 0.335995
0.255169 0.049217 0.330731
0.175390 0.098506 0.336132
0.210042 0.075573 0.335827
0.264063 -0.053567 0.322795
0.268481 -0.037448 0.285348
0.266597 -0.071568 0.288276
0.267538 -0.066959 0.275445
0.266918 -0.048147 0.301086
0.264977 -0.092947 0.294142
0.268403 -0.045540 0.278840
0.267956 -0.029237 0.294267
0.266405 -0.043173 0.308461
0.267938 -0.052312 0.284763
0.265459 -0.058938 0.314241
0.264081 -0.071058 0.313289
0.263865 -0.082330 0.315993
0.266255 -0.067562 0.297026
0.267448 -0.053119 0.294041
0.265633 -0.084129 0.286139
0.267910 -0.045264 0.290735
0.266329 -0.058887 0.300774
0.264357 -0.088483 0.304878
0.263707 -0.066169 0.320955
0.265067 -0.075088 0.304427
0.267046 -0.077128 0.278889
0.265618 -0.078736 0.295913
0.265997 -0.035899 0.316385
0.267541 -0.061304 0.282216
0.265790 -0.053241 0.307306
0.266756 -0.034331 0.304782
0.268294 -0.054486 0.272055
0.267554 -0.060847 0.290628
0.265190 -0.064501 0.306455
0.267622 -0.039536 0.297864
0.265272 -0.048236 0.315428
0.031947 0.060942 0.174344
0.008629 0.076307 0.172954
0.038381 0.056941 0.174520
0.043933 0.062696 0.174605
0.038641 0.076166 0.174440
0.022516 0.037744 0.174565
0.027817 0.076581 0.173642
0.026439 0.091470 0.173726
0.032966 0.082570 0.173999
0.017045 0.072809 0.173191
0.015965 0.058049 0.173706
0.016066 0.046462 0.173999
0.041372 0.047506 0.175208
0.026214 0.057545 0.174118
0.012964 0.065936 0.173361
0.033457 0.041504 0.174711
0.032280 0.071314 0.173906
0.037454 0.066722 0.174559
0.007460 0.042693 0.173913
0.009868 0.053141 0.173411
0.021057 0.052966 0.174000
0.032263 0.052067 0.174449
0.026552 0.046756 0.174313
0.015081 0.086232 0.173482
0.047277 0.071699 0.174581
0.020678 0.062936 0.173793
0.041382 0.086839 0.174615
0.027561 0.065712 0.173944
0.004719 0.060950 0.172954
0.048395 0.054938 0.175061
0.021559 0.081102 0.173611
0.023315 0.070346 0.173908
-0.130827 0.159058 0.113436
-0.127051 0.170756 0.077977
-0.123581 0.145827 0.082199
-0.122043 0.149612 0.070490
-0.128171 0.162413 0.092369
-0.121878 0.131848 0.086615
-0.125160 0.165232 0.072832
-0.129503 0.175634 0.085387
-0.129874 0.165926 0.099277
-0.125351 0.159917 0.077691
-0.128081 0.154775 0.103652
-0.127119 0.147157 0.103509
-0.126129 0.138550 0.106710
-0.124707 0.148808 0.088528
-0.125878 0.158029 0.085833
-0.121914 0.137915 0.079827
-0.127124 0.165878 0.083047
-0.126544 0.155114 0.092422
-0.123739 0.135704 0.095846
-0.128100 0.149468 0.110986
-0.125508 0.143843 0.096324
-0.121253 0.142627 0.073653
-0.123853 0.140680 0.088837
-0.132047 0.171634 0.105505
-0.123567 0.153128 0.075633
-0.128231 0.159253 0.097893
-0.130557 0.172975 0.095247
-0.123187 0.159390 0.067330
-0.124461 0.152814 0.082346
-0.126875 0.151438 0.096641
-0.128591 0.168773 0.088936
-0.129960 0.162011 0.105446
0.264451 -0.074358 0.317394
0.266911 -0.060715 0.268818
0.263900 -0.089997 0.274016
0.264556 -0.086631 0.255506
0.265708 -0.069927 0.288107
0.261493 -0.106106 0.279757
0.266088 -0.068431 0.260491
0.266923 -0.052898 0.279332
0.265807 -0.065514 0.298019
0.265785 -0.073780 0.268587
0.264765 -0.078850 0.303514
0.263174 -0.088204 0.304140
0.262277 -0.098567 0.306834
0.264197 -0.086233 0.283141
0.265764 -0.074286 0.279750
0.262346 -0.099460 0.269456
0.266322 -0.067738 0.275284
0.264610 -0.079507 0.288275
0.261513 -0.103065 0.292715
0.263288 -0.085817 0.314075
0.262955 -0.092834 0.294816
0.263738 -0.094274 0.261224
0.262959 -0.095255 0.283402
0.266185 -0.059089 0.307134
0.264941 -0.082417 0.264866
0.265002 -0.073959 0.295504
0.266334 -0.057795 0.292305
0.265631 -0.076028 0.249683
0.265442 -0.080736 0.274619
0.263637 -0.084426 0.294449
0.266429 -0.062577 0.283849
0.265277 -0.070202 0.307386
-0.174149 -0.115685 0.014546
-0.193204 -0.116845 -0.050547
-0.150433 -0.116314 -0.061196
-0.233256 -0.116172 -0.066501
-0.178538 -0.117160 -0.070268
-0.243690 -0.117657 -0.041174
-0.191458 -0.116866 -0.097785
-0.220098 -0.118083 -0.094188
-0.125064 -0.116018 -0.043886
-0.147442 -0.115104 0.018465
-0.261949 -0.115921 -0.059163
-0.270944 -0.116288 -0.027543
-0.218117 -0.116120 -0.047298
-0.190416 -0.115706 -0.005618
-0.214209 -0.116995 -0.005946
-0.259017 -0.115838 0.013050
-0.148686 -0.115622 -0.029883
-0.163340 -0.116790 -0.090432
-0.251626 -0.115025 -0.011955
-0.234332 -0.115647 0.006612
-0.179204 -0.116085 -0.025835
-0.249339 -0.117055 -0.087597
-0.162808 -0.116799 -0.008468
-0.132442 -0.115764 -0.008937
-0.191171 -0.115277 0.037898
-0.207208 -0.116474 -0.069457
-0.227104 -0.115491 0.032693
-0.203743 -0.115874 -0.027472
-0.168796 -0.117305 -0.045553
-0.204335 -0.115508 0.015590
-0.132628 -0.116697 -0.080817
-0.228479 -0.116317 -0.023142
-0.123097 0.136065 0.107115
-0.118731 0.149621 0.071091
-0.116281 0.120978 0.074712
-0.114636 0.125147 0.063220
-0.120090 0.140384 0.085652
-0.115438 0.105444 0.079701
-0.116933 0.143485 0.065617
-0.120949 0.154919 0.078552
-0.121614 0.144204 0.092263
-0.117303 0.137259 0.070558
-0.120554 0.131191 0.097475
-0.120046 0.122316 0.097082
-0.119350 0.112881 0.100224
-0.117379 0.124181 0.081791
-0.118152 0.135434 0.079017
-0.115175 0.111946 0.072864
-0.118910 0.143986 0.076131
-0.118896 0.131726 0.085513
-0.117177 0.109393 0.089174
-0.120928 0.125186 0.104879
-0.118497 0.118485 0.088975
-0.114181 0.116969 0.066278
-0.116931 0.115139 0.081557
-0.123599 0.150319 0.099058
-0.115920 0.129582 0.068521
-0.120441 0.136321 0.091337
-0.122148 0.151975 0.088433
-0.115311 0.136405 0.060247
-0.116950 0.129071 0.075747
-0.119531 0.127378 0.090186
-0.120245 0.147519 0.082327
-0.122045 0.139975 0.098964
0.255141 0.017583 0.331940
0.265245 0.044821 0.306608
0.264775 -0.003275 0.309454
0.265991 0.003372 0.301367
0.262268 0.027553 0.319036
0.263399 -0.028241 0.314494
0.266147 0.032628 0.302593
0.263315 0.059494 0.314240
0.260346 0.033916 0.324325
0.265740 0.023062 0.307306
0.259602 0.010674 0.327416
0.258416 -0.005694 0.326640
0.258196 -0.015681 0.328804
0.263488 0.001214 0.315986
0.264264 0.020480 0.313941
0.264252 -0.017992 0.308924
0.264376 0.035106 0.312281
0.262432 0.012380 0.318520
0.261531 -0.022546 0.321816
0.256147 0.002471 0.330654
0.261426 -0.006249 0.320194
0.265979 -0.009483 0.302572
0.263385 -0.011717 0.314950
0.258328 0.050171 0.328969
0.265578 0.011757 0.306100
0.260629 0.019684 0.323339
0.260657 0.045265 0.322922
0.266439 0.020099 0.298986
0.265220 0.008593 0.311566
0.260665 0.005324 0.323008
0.263388 0.045136 0.315992
0.257755 0.026758 0.327759
-0.067089 0.221288 0.314072
-0.115541 0.214019 0.221891
-0.017719 0.224852 0.245209
-0.031740 0.214178 0.218372
-0.034724 0.223798 0.257912
-0.056141 0.220295 0.235963
-0.081374 0.211915 0.217170
-0.087913 0.221138 0.249641
-0.076840 0.222807 0.266475
-0.093559 0.217314 0.230100
-0.054445 0.223483 0.263173
-0.081706 0.222806 0.288435
-0.030027 0.225589 0.289118
-0.076993 0.219858 0.237356
-0.109902 0.221024 0.245459
-0.040926 0.219524 0.229581
-0.068470 0.215523 0.224827
-0.041902 0.225389 0.273517
-0.132243 0.223178 0.261407
-0.101191 0.222250 0.303367
-0.061495 0.224171 0.280553
-0.050502 0.215984 0.222045
-0.047801 0.222320 0.247838
-0.117701 0.222580 0.280061
-0.019866 0.220116 0.228428
-0.066480 0.221709 0.251137
-0.033444 0.222061 0.240925
-0.056348 0.210087 0.212954
-0.140738 0.219080 0.234141
-0.019537 0.226522 0.272159
-0.098593 0.222568 0.264604
-0.048725 0.223695 0.296743
-0.143355 0.195984 0.126969
-0.145431 0.205796 0.075301
-0.136991 0.185281 0.083086
-0.136850 0.188579 0.063587
-0.143176 0.198575 0.095325
-0.133265 0.172834 0.087735
-0.142655 0.201111 0.067899
-0.148422 0.209122 0.086267
-0.145589 0.202027 0.105671
-0.141531 0.197245 0.075850
-0.140953 0.193260 0.109149
-0.138798 0.187582 0.111680
-0.136656 0.178430 0.114768
-0.138061 0.188424 0.090065
-0.140760 0.195374 0.086988
-0.134358 0.178689 0.077993
-0.143373 0.201366 0.082567
-0.140257 0.192259 0.096298
-0.134840 0.176192 0.099782
-0.139737 0.188398 0.121741
-0.137372 0.183370 0.103971
-0.135131 0.183241 0.070311
-0.136006 0.181307 0.092359
-0.148793 0.206454 0.112931
-0.138653 0.191006 0.072548
-0.142517 0.196833 0.102256
-0.147575 0.207288 0.098738
-0.139679 0.196282 0.057094
-0.138738 0.191616 0.081453
-0.139357 0.189218 0.100801
-0.145520 0.203623 0.091113
-0.144100 0.198481 0.115191
0.013126 0.102420 0.171211
-0.005984 0.116379 0.170548
0.018403 0.098370 0.171185
0.023429 0.104039 0.171189
0.018992 0.116096 0.171436
0.004833 0.079220 0.171167
0.009744 0.116727 0.170715
0.008649 0.129265 0.171145
0.014259 0.121817 0.171263
0.000923 0.113146 0.170545
-0.000173 0.099240 0.170868
-0.000374 0.087721 0.171028
0.020521 0.088883 0.171660
0.008540 0.098826 0.171099
-0.002250 0.107002 0.170735
0.013623 0.082563 0.171221
0.013455 0.112080 0.170885
0.017857 0.107858 0.171314
-0.007024 0.084054 0.171081
-0.005554 0.094591 0.170768
0.003928 0.094356 0.170861
0.013039 0.093351 0.171004
0.007915 0.088006 0.171044
-0.000560 0.124803 0.171243
0.026235 0.112337 0.171568
0.003816 0.103996 0.170923
0.021096 0.125260 0.171823
0.009408 0.106920 0.170836
-0.009145 0.102495 0.170556
0.026828 0.096536 0.171719
0.004657 0.120460 0.170997
0.006047 0.111184 0.171113
-0.285091 0.164267 0.036351
-0.285177 0.191678 -0.007393
-0.285727 0.148859 -0.020581
-0.283135 0.184346 -0.047411
-0.278547 0.198176 -0.030409
-0.281521 0.204643 0.011548
-0.282994 0.189811 -0.081525
-0.278225 0.204576 -0.058511
-0.280558 0.176969 -0.014556
-0.285040 0.139418 0.078140
-0.282648 0.123231 -0.026815
-0.284160 0.161921 -0.002212
-0.284537 0.133611 -0.000167
-0.284877 0.151056 0.017502
-0.279291 0.205568 0.044984
-0.284487 0.182306 0.051942
-0.284104 0.131408 0.030726
-0.282924 0.114715 -0.059986
-0.282741 0.104503 0.015530
-0.285164 0.144883 0.049213
-0.282819 0.095577 -0.014915
-0.282398 0.149334 -0.081699
-0.281968 0.191364 0.029731
-0.284798 0.164379 0.063735
-0.280777 0.196647 0.073988
-0.284362 0.144893 -0.050180
-0.284264 0.175927 0.088192
-0.284734 0.165981 -0.036723
-0.276134 0.208614 -0.012166
-0.282145 0.109935 0.055025
-0.283522 0.167883 -0.065073
-0.284734 0.178033 0.013489
0.221618 -0.119224 0.262498
0.160734 -0.118284 0.180321
0.248236 -0.111552 0.213217
0.236094 -0.110558 0.155851
0.238615 -0.114378 0.224604
0.229061 -0.115457 0.209180
0.209219 -0.115023 0.164643
0.211571 -0.118116 0.217796
0.218022 -0.117849 0.230202
0.199212 -0.117601 0.193965
0.231892 -0.116626 0.227611
0.212392 -0.120067 0.241881
0.243484 -0.115182 0.243295
0.217668 -0.116425 0.209719
0.180751 -0.120118 0.210843
0.234779 -0.113297 0.198562
0.221123 -0.114994 0.198486
0.235853 -0.115495 0.234643
0.150616 -0.121260 0.222996
0.192793 -0.121898 0.251493
0.226834 -0.117826 0.238168
0.229488 -0.113168 0.179662
0.233814 -0.115482 0.217982
0.178919 -0.122216 0.234655
0.245915 -0.110526 0.189339
0.225272 -0.116619 0.220089
0.240805 -0.112410 0.211975
0.224044 -0.112071 0.126489
0.117317 -0.120987 0.202069
0.250252 -0.112353 0.230413
0.202171 -0.120373 0.227543
0.234500 -0.116933 0.249570
0.009602 0.128642 0.172838
-0.010966 0.142814 0.173043
0.014951 0.124081 0.172489
0.020318 0.130413 0.172875
0.015661 0.142580 0.173898
0.000725 0.104252 0.171647
0.006017 0.143375 0.173253
0.004852 0.156118 0.174561
0.010785 0.148496 0.174224
-0.003402 0.139257 0.172787
-0.004445 0.125565 0.172382
-0.004566 0.113479 0.171865
0.017265 0.114472 0.172450
0.004697 0.124659 0.172517
-0.006939 0.133095 0.172694
0.010040 0.107937 0.171746
0.009821 0.138673 0.173089
0.014363 0.134073 0.173166
-0.011849 0.109572 0.171711
-0.010097 0.120719 0.171986
-0.000181 0.120316 0.171971
0.009385 0.119005 0.172041
0.003985 0.113698 0.171864
-0.005132 0.151632 0.174377
0.023420 0.138693 0.173797
-0.000258 0.130299 0.172692
0.018181 0.152131 0.174893
0.005644 0.133205 0.172691
-0.014522 0.128446 0.172309
0.024142 0.123116 0.172931
0.000481 0.147058 0.173777
0.002107 0.137566 0.173300
-0.005248 0.164710 0.175778
-0.031209 0.176751 0.179044
0.000763 0.160471 0.174823
0.007043 0.167340 0.176407
0.001729 0.177632 0.179351
-0.016215 0.140779 0.172926
-0.009627 0.178288 0.178601
-0.010858 0.190062 0.183546
-0.003833 0.183155 0.181409
-0.021199 0.173794 0.177627
-0.022526 0.161720 0.175440
-0.022479 0.149723 0.173729
0.003770 0.151221 0.174006
-0.011263 0.160592 0.175077
-0.026110 0.168338 0.176917
-0.004632 0.144540 0.173084
-0.004870 0.173703 0.177642
-0.000034 0.169721 0.176604
-0.031908 0.146497 0.174000
-0.029292 0.157299 0.174921
-0.017321 0.156439 0.174177
-0.005527 0.155756 0.174214
-0.011953 0.150322 0.173631
-0.023665 0.185557 0.182609
0.010879 0.174794 0.178907
-0.017267 0.165822 0.175951
0.005423 0.186190 0.182893
-0.010059 0.168709 0.176153
-0.035779 0.164291 0.176450
0.011574 0.159809 0.175827
-0.016608 0.181261 0.180126
-0.014509 0.172774 0.177649
0.264712 -0.013160 0.320659
0.268323 0.004965 0.286570
0.268177 -0.031892 0.288788
0.268932 -0.026803 0.277687
0.267299 -0.007093 0.300818
0.267479 -0.055147 0.294707
0.268809 -0.003571 0.280678
0.267464 0.014560 0.294484
0.266615 -0.001721 0.307461
0.268592 -0.011117 0.285839
0.266326 -0.018761 0.313329
0.265533 -0.031849 0.312012
0.265866 -0.043120 0.314670
0.267639 -0.027886 0.297252
0.268072 -0.012673 0.294368
0.267757 -0.045498 0.287478
0.268152 -0.003120 0.291516
0.267273 -0.018371 0.300316
0.266693 -0.049591 0.304540
0.265007 -0.026256 0.319110
0.266695 -0.035424 0.303350
0.268860 -0.037764 0.280582
0.267456 -0.039813 0.295949
0.265711 0.006971 0.315141
0.268700 -0.020617 0.283603
0.266407 -0.012492 0.306834
0.266458 0.008343 0.304698
0.269081 -0.013235 0.275238
0.268498 -0.021240 0.291464
0.266449 -0.024227 0.305821
0.267557 0.003055 0.297743
0.265673 -0.007124 0.313801
0.030442 -0.014220 0.195615
0.030178 0.039084 0.191610
0.104134 -0.033934 0.204140
-0.007310 0.041381 0.183043
0.066240 0.038865 0.191304
-0.053640 0.038177 0.181866
0.041980 0.038376 0.175871
0.029800 0.041805 0.190565
0.112296 0.039503 0.194413
0.070042 -0.016171 0.199107
-0.076463 -0.051063 0.189714
-0.100901 0.015951 0.187368
-0.011126 -0.046970 0.196310
0.054952 0.012274 0.191041
-0.002878 0.038384 0.187092
-0.080020 0.037450 0.187626
0.078320 -0.131578 0.197606
0.050107 -0.068195 0.201961
-0.042316 -0.146976 0.186804
-0.044704 -0.007001 0.189664
0.037575 -0.168534 0.203739
-0.030201 0.024171 0.178543
0.058988 0.040946 0.195049
0.089995 0.023101 0.200047
0.042505 0.032286 0.202265
0.007871 0.002282 0.185777
-0.006009 0.029999 0.199667
0.021445 0.029136 0.193801
0.091017 0.039921 0.191875
0.009940 -0.108374 0.194939
0.079717 0.030503 0.185173
-0.032912 0.033593 0.185485
-0.289306 -0.009910 -0.082379
-0.289732 0.024489 -0.106011
-0.289715 -0.031594 -0.121513
-0.289014 0.016496 -0.137875
-0.288171 0.036177 -0.124037
-0.289136 0.048838 -0.098960
-0.288732 0.026830 -0.158453
-0.287834 0.051533 -0.143545
-0.288527 0.006379 -0.121932
-0.288597 -0.045548 -0.054029
-0.289819 -0.061689 -0.126179
-0.289684 -0.013644 -0.109068
-0.289905 -0.050128 -0.107219
-0.289220 -0.027639 -0.094058
-0.288084 0.054541 -0.073954
-0.289650 0.011019 -0.071943
-0.289321 -0.061186 -0.089177
-0.289316 -0.071411 -0.150763
-0.290290 -0.085583 -0.096589
-0.289948 -0.037776 -0.076614
-0.289754 -0.088533 -0.123500
-0.288846 -0.030290 -0.161663
-0.288828 0.029213 -0.083809
-0.288603 -0.017493 -0.062425
-0.288166 0.033142 -0.055777
-0.289605 -0.041374 -0.143076
-0.289111 0.004265 -0.048540
-0.289698 -0.012536 -0.133616
-0.287447 0.064668 -0.115327
-0.289448 -0.072827 -0.066490
-0.288964 -0.003811 -0.153785
-0.289810 0.005194 -0.096402
-0.113599 -0.028884 0.023588
-0.119698 0.012824 -0.042920
-0.108216 -0.084920 -0.055215
-0.161606 -0.009695 -0.093063
-0.112239 0.006093 -0.078473
-0.178383 0.023758 -0.024309
-0.117656 -0.000940 -0.148867
-0.117091 0.031202 -0.113273
-0.111438 -0.018893 -0.031399
-0.109457 -0.088978 0.071805
-0.194709 -0.106969 -0.087041
-0.242072 -0.062412 -0.040858
-0.141703 -0.093982 -0.025212
-0.108986 -0.062734 -0.010597
-0.119557 0.035276 0.029188
-0.206346 -0.005212 0.041614
-0.106155 -0.095901 0.013106
-0.113042 -0.119366 -0.119853
-0.198914 -0.122017 0.010233
-0.165016 -0.076100 0.049956
-0.108605 -0.131676 -0.031249
-0.155199 -0.061260 -0.147585
-0.113060 0.012009 0.004176
-0.108355 -0.053298 0.042217
-0.106898 0.008257 0.051106
-0.116645 -0.075677 -0.094581
-0.122113 -0.019105 0.078589
-0.115846 -0.039956 -0.056255
-0.121040 0.041559 -0.035065
-0.114548 -0.127037 0.048524
-0.115983 -0.030730 -0.107284
-0.146471 -0.023439 -0.005590
0.044143 0.078756 0.174712
0.022983 0.095542 0.173552
0.050015 0.074042 0.174883
0.055652 0.080294 0.175041
0.050780 0.094764 0.174972
0.035289 0.052164 0.174696
0.040515 0.095414 0.174214
0.039498 0.112806 0.174526
0.045571 0.101799 0.174693
0.030592 0.091262 0.173605
0.029472 0.075178 0.174090
0.029438 0.062199 0.174232
0.052562 0.063392 0.175449
0.039106 0.074692 0.174499
0.027013 0.083910 0.173727
0.045021 0.056330 0.174858
0.044489 0.089922 0.174372
0.049477 0.084804 0.175032
0.021835 0.057801 0.174130
0.023659 0.069882 0.173743
0.034180 0.069543 0.174288
0.044295 0.068433 0.174752
0.038714 0.062371 0.174502
0.029074 0.106452 0.174174
0.058709 0.089975 0.175032
0.034004 0.080634 0.174282
0.053213 0.106874 0.175298
0.040154 0.083759 0.174414
0.019219 0.078625 0.173402
0.059455 0.072034 0.175395
0.034847 0.100539 0.174203
0.036403 0.088786 0.174392
0.267119 -0.035885 0.300796
0.268116 -0.018735 0.266219
0.267663 -0.054470 0.268226
0.267927 -0.049702 0.256726
0.267912 -0.030022 0.280307
0.267257 -0.077659 0.274100
0.268138 -0.026706 0.259999
0.268039 -0.010949 0.273973
0.267764 -0.024815 0.286806
0.268090 -0.033782 0.265237
0.267522 -0.041337 0.292949
0.266781 -0.054351 0.291857
0.267232 -0.065577 0.294250
0.267605 -0.050485 0.276854
0.268035 -0.035571 0.273910
0.267209 -0.067980 0.266868
0.268209 -0.026536 0.270846
0.267611 -0.040888 0.279991
0.266988 -0.071953 0.284129
0.266960 -0.049024 0.299469
0.267095 -0.057817 0.282986
0.267830 -0.060287 0.260115
0.267279 -0.062456 0.275388
0.267564 -0.017334 0.294635
0.268020 -0.043415 0.262948
0.267361 -0.035314 0.286367
0.267725 -0.015300 0.283695
0.268106 -0.036150 0.254065
0.268112 -0.043978 0.271134
0.267214 -0.047026 0.285373
0.267981 -0.020944 0.277489
0.267542 -0.029986 0.293592
-0.113701 0.071961 0.080552
-0.108696 0.084390 0.039134
-0.112042 0.057652 0.042740
-0.110604 0.060525 0.029746
-0.110675 0.075844 0.054430
-0.114204 0.041075 0.048051
-0.109196 0.077532 0.032881
-0.108915 0.090381 0.047133
-0.111075 0.080058 0.061686
-0.109902 0.072282 0.038627
-0.112689 0.067834 0.067075
-0.114053 0.059359 0.067720
-0.115032 0.049354 0.070190
-0.112014 0.060992 0.050497
-0.110663 0.071536 0.047789
-0.113135 0.048419 0.040151
-0.109634 0.078552 0.043963
-0.111801 0.067337 0.054329
-0.114829 0.045329 0.058281
-0.114452 0.061531 0.077284
-0.113689 0.055406 0.059015
-0.111677 0.053678 0.033427
-0.113219 0.052573 0.050181
-0.111267 0.086131 0.069483
-0.110519 0.064266 0.035801
-0.111943 0.071933 0.060242
-0.110031 0.086925 0.057262
-0.109578 0.070374 0.026714
-0.110968 0.065583 0.044254
-0.112868 0.063229 0.059389
-0.109829 0.083093 0.051056
-0.112337 0.075297 0.070343
0.260187 -0.040196 0.329823
0.265354 -0.013044 0.317980
0.262784 -0.060306 0.311871
0.266470 -0.019261 0.294611
0.263326 -0.001080 0.305840
0.265220 0.009292 0.322652
0.264567 -0.011350 0.278867
0.265645 0.014982 0.289141
0.263530 -0.027424 0.309471
0.259872 -0.067158 0.333037
0.265054 -0.079703 0.309554
0.263210 -0.041756 0.323701
0.262609 -0.070034 0.321669
0.260655 -0.053777 0.323229
0.261676 0.016537 0.332991
0.262366 -0.020057 0.329085
0.261906 -0.087595 0.321168
0.263638 -0.088501 0.284389
0.261592 -0.103074 0.324549
0.260145 -0.060760 0.330292
0.263237 -0.108852 0.306831
0.266412 -0.056681 0.279709
0.261094 -0.002779 0.329025
0.260832 -0.048123 0.332691
0.258911 -0.005676 0.335133
0.264849 -0.069306 0.294389
0.258246 -0.029631 0.335112
0.265741 -0.044861 0.299045
0.262867 0.027333 0.315646
0.259609 -0.085454 0.332377
0.263792 -0.035527 0.288160
0.262826 -0.025144 0.327605
0.081745 0.039228 0.180437
0.046330 0.044832 0.177994
0.090512 0.038619 0.181086
0.095437 0.040836 0.181295
0.086434 0.045240 0.180203
0.069141 0.003636 0.182733
0.074091 0.044975 0.179148
0.072784 0.055004 0.178621
0.080394 0.047807 0.179100
0.061332 0.043322 0.178368
0.061462 0.039065 0.179299
0.060320 0.027846 0.180508
0.096048 0.027673 0.183203
0.074094 0.038771 0.180142
0.053187 0.041109 0.178774
0.084562 0.021327 0.182395
0.081578 0.043109 0.179432
0.087522 0.042305 0.180536
0.044590 0.017832 0.181137
0.053326 0.034828 0.179754
0.066939 0.037071 0.180456
0.082650 0.036025 0.181046
0.076033 0.030891 0.181073
0.056929 0.050375 0.177841
0.101604 0.043740 0.181299
0.067741 0.040665 0.179201
0.091830 0.049623 0.180187
0.076445 0.041022 0.179754
0.036894 0.039054 0.178756
0.106816 0.037244 0.182715
0.066885 0.047405 0.178508
0.071607 0.042847 0.178834
0.265759 -0.073816 0.296967
0.267708 -0.059846 0.241815
0.264772 -0.089297 0.247718
0.265343 -0.086000 0.226774
0.266657 -0.069180 0.262057
0.262584 -0.104390 0.253621
0.266834 -0.067740 0.232637
0.267824 -0.052339 0.252501
0.266841 -0.064659 0.272968
0.266595 -0.072897 0.241731
0.265858 -0.078199 0.278496
0.264434 -0.087141 0.280475
0.263588 -0.097471 0.282612
0.265161 -0.085432 0.256937
0.266597 -0.073668 0.253409
0.263295 -0.098251 0.242627
0.267147 -0.066879 0.248610
0.265504 -0.078911 0.262462
0.262642 -0.101596 0.266956
0.264673 -0.085285 0.292069
0.263930 -0.091941 0.270213
0.264574 -0.093350 0.234076
0.263967 -0.094238 0.257689
0.267389 -0.058499 0.282707
0.265784 -0.081828 0.237569
0.266031 -0.073166 0.270019
0.267385 -0.057034 0.266467
0.266354 -0.075390 0.218642
0.266254 -0.080253 0.247916
0.264688 -0.083984 0.268722
0.267324 -0.061819 0.257460
0.266381 -0.069631 0.284364
0.078054 0.052647 0.177212
0.053868 0.067475 0.175130
0.084655 0.049578 0.177729
0.090000 0.054546 0.178078
0.084600 0.067447 0.177742
0.068754 0.033216 0.177257
0.073682 0.067613 0.176560
0.072345 0.084853 0.176820
0.078777 0.074071 0.177119
0.062626 0.064053 0.175557
0.061696 0.050602 0.175957
0.062131 0.040756 0.176232
0.088276 0.041712 0.178600
0.072057 0.050171 0.176741
0.058293 0.057274 0.175522
0.080250 0.036727 0.177761
0.078327 0.062265 0.176874
0.083433 0.058095 0.177730
0.052850 0.037931 0.175879
0.055875 0.046367 0.175379
0.066950 0.046425 0.176509
0.078562 0.045709 0.177455
0.073037 0.041028 0.177058
0.060448 0.078728 0.175834
0.093607 0.062882 0.178179
0.066351 0.054773 0.176244
0.087486 0.079026 0.178100
0.073638 0.057017 0.176808
0.049755 0.052655 0.174813
0.095464 0.047674 0.178596
0.067213 0.072919 0.176232
0.069123 0.061322 0.176483
-0.203812 0.107368 0.083249
-0.212535 0.164612 0.019523
-0.142297 0.039085 -0.008202
-0.254045 0.137963 -0.037086
-0.168541 0.161898 -0.034673
-0.252043 0.202610 0.032817
-0.207541 0.143862 -0.099976
-0.225214 0.208114 -0.058740
-0.137999 0.125645 0.021663
-0.181294 0.055111 0.131928
-0.263693 0.016780 -0.022837
-0.267973 0.080606 0.015375
-0.234181 0.047664 0.039640
-0.176359 0.079512 0.039313
-0.219658 0.215412 0.093147
-0.254402 0.157954 0.095881
-0.155125 0.016834 0.073528
-0.190866 0.010170 -0.076001
-0.266014 -0.005077 0.055852
-0.257384 0.071313 0.096442
-0.204150 -0.025719 0.016756
-0.256805 0.080536 -0.089068
-0.165962 0.175758 0.072206
-0.142167 0.099432 0.105809
-0.180744 0.159039 0.130591
-0.218318 0.068513 -0.040345
-0.230190 0.119677 0.137096
-0.211683 0.110576 0.006066
-0.173513 0.226936 0.016869
-0.223142 0.006859 0.105342
-0.148745 0.099425 -0.074053
-0.248306 0.123655 0.048147
-0.179426 0.224093 0.120306
-0.203599 0.225481 0.050530
-0.160967 0.216745 0.070237
-0.169558 0.220948 0.043546
-0.167846 0.220340 0.081227
-0.176584 0.223215 0.065486
-0.186738 0.225543 0.045304
-0.188850 0.224904 0.076707
-0.184044 0.224603 0.090375
-0.191147 0.225278 0.057072
-0.175519 0.223060 0.086731
-0.186593 0.224518 0.102143
-0.164775 0.219083 0.104176
-0.184626 0.224697 0.067587
-0.198261 0.225010 0.069019
-0.171376 0.221733 0.057933
-0.181796 0.224612 0.057131
-0.170495 0.221595 0.092043
-0.209126 0.224990 0.081070
-0.193824 0.225090 0.112528
-0.177091 0.223653 0.098955
-0.176249 0.223555 0.050687
-0.173882 0.222346 0.074707
-0.201854 0.225175 0.097021
-0.163695 0.217836 0.053865
-0.180758 0.224401 0.079155
-0.167982 0.220428 0.067935
-0.178283 0.224616 0.035107
-0.216128 0.224807 0.061885
-0.161688 0.216995 0.089525
-0.193409 0.225144 0.086334
-0.172648 0.222742 0.110730
0.007489 -0.111161 0.176621
-0.009957 -0.112172 0.117056
0.028007 -0.110890 0.105023
-0.050216 -0.111554 0.102999
0.001932 -0.111984 0.098303
-0.061351 -0.112975 0.124381
-0.010265 -0.111504 0.074959
-0.038240 -0.112539 0.076512
0.052385 -0.110836 0.121612
0.033707 -0.110610 0.178921
-0.081024 -0.111241 0.107854
-0.089416 -0.112157 0.136847
-0.035277 -0.111041 0.119027
-0.009830 -0.111471 0.158666
-0.032871 -0.112632 0.155595
-0.077313 -0.111951 0.175426
0.030492 -0.110422 0.134021
0.016834 -0.111086 0.079911
-0.069407 -0.110398 0.150458
-0.051431 -0.111758 0.167185
0.003291 -0.110394 0.139362
-0.066988 -0.111928 0.084339
0.016389 -0.112045 0.154438
0.045608 -0.111191 0.153901
-0.009767 -0.111534 0.199245
-0.024568 -0.111156 0.098855
-0.045176 -0.111714 0.192607
-0.020911 -0.111007 0.138243
0.012458 -0.111992 0.119256
-0.022185 -0.110404 0.177366
0.045900 -0.111499 0.089206
-0.046009 -0.112253 0.140393
0.015848 0.198446 0.189588
-0.022349 0.207024 0.200059
0.023912 0.193555 0.187515
0.031673 0.201077 0.192401
0.024492 0.208805 0.199491
0.001025 0.179537 0.181224
0.008353 0.208989 0.199240
0.007573 0.217406 0.213545
0.017089 0.213499 0.206301
-0.007717 0.203844 0.195455
-0.008196 0.194766 0.188749
-0.008222 0.184554 0.183492
0.028234 0.186772 0.183876
0.006959 0.192709 0.187623
-0.015554 0.200043 0.193051
0.017682 0.181024 0.182484
0.016381 0.204941 0.195686
0.022455 0.201262 0.191880
-0.023251 0.183475 0.183656
-0.016958 0.191553 0.187024
-0.000959 0.189096 0.185531
0.016117 0.190386 0.186620
0.007791 0.185418 0.184086
-0.011894 0.213995 0.209748
0.037547 0.207031 0.197475
-0.000712 0.197878 0.190636
0.031905 0.215723 0.209536
0.009298 0.200666 0.191887
-0.029425 0.196805 0.191178
0.038130 0.193889 0.188986
-0.001630 0.210478 0.202426
0.002770 0.204050 0.194499
0.046795 0.122322 0.175212
0.027024 0.136825 0.174794
0.052137 0.117803 0.175100
0.057537 0.124000 0.175540
0.052910 0.136313 0.176264
0.038176 0.098902 0.173964
0.043329 0.137117 0.175421
0.042321 0.150481 0.176554
0.048073 0.142424 0.176373
0.034149 0.132952 0.174694
0.033062 0.119193 0.174397
0.032986 0.107493 0.173966
0.054702 0.108533 0.175151
0.041936 0.118359 0.174818
0.030768 0.126785 0.174547
0.047254 0.102244 0.174340
0.047040 0.132389 0.175370
0.051568 0.127649 0.175618
0.026119 0.103930 0.173594
0.027609 0.114539 0.173882
0.037230 0.114078 0.174168
0.046541 0.112892 0.174578
0.041296 0.107762 0.174225
0.032664 0.145757 0.176090
0.061039 0.132293 0.176353
0.037088 0.123953 0.174846
0.055551 0.146296 0.177227
0.042849 0.126819 0.175017
0.023696 0.122186 0.174010
0.062007 0.116817 0.175655
0.037951 0.140947 0.175704
0.039429 0.131251 0.175351
0.262899 0.040864 0.323932
0.267465 0.064733 0.286510
0.267644 0.020206 0.289297
0.268367 0.025557 0.277432
0.266202 0.048378 0.302376
0.267092 -0.003643 0.295900
0.268152 0.052982 0.280482
0.266510 0.077723 0.295552
0.265384 0.054835 0.310135
0.267967 0.043493 0.286019
0.265056 0.034394 0.316182
0.264359 0.020238 0.314405
0.264713 0.008088 0.317480
0.266990 0.024334 0.298567
0.267272 0.041766 0.295238
0.267396 0.006184 0.287998
0.267282 0.054663 0.292392
0.266350 0.034754 0.301963
0.266086 0.001914 0.306424
0.263443 0.026146 0.322103
0.265883 0.016330 0.305346
0.268423 0.013982 0.280443
0.266984 0.012213 0.297184
0.264197 0.067600 0.318668
0.268164 0.032217 0.283741
0.265296 0.042028 0.309334
0.265271 0.067480 0.307702
0.268366 0.041020 0.275097
0.267832 0.031437 0.292055
0.265467 0.028580 0.307937
0.266639 0.062875 0.298828
0.264133 0.048228 0.316524
-0.114195 0.103244 0.077727
-0.110084 0.119081 0.038383
-0.110956 0.085388 0.040656
-0.109710 0.089513 0.029144
-0.111412 0.108237 0.053322
-0.111713 0.065474 0.046513
-0.109734 0.111314 0.032050
-0.111071 0.126148 0.046388
-0.112143 0.113133 0.060316
-0.110168 0.104250 0.037341
-0.112648 0.097798 0.066553
-0.113266 0.086934 0.065789
-0.113497 0.075558 0.068607
-0.111258 0.089160 0.049258
-0.110786 0.102708 0.046428
-0.111151 0.073903 0.039152
-0.110568 0.112063 0.043096
-0.111621 0.097857 0.052952
-0.112677 0.070497 0.057070
-0.113712 0.090558 0.075334
-0.112521 0.082333 0.056206
-0.110079 0.080151 0.032106
-0.111733 0.078564 0.048082
-0.113085 0.120531 0.068682
-0.109999 0.094805 0.034766
-0.112146 0.103320 0.059550
-0.111857 0.122133 0.056680
-0.109472 0.102304 0.026556
-0.110567 0.095002 0.043353
-0.112435 0.092691 0.058310
-0.111154 0.117112 0.050232
-0.113017 0.107901 0.068179
0.032292 0.211507 0.317093
0.019376 0.224884 0.283811
0.084479 0.224925 0.280873
-0.048010 0.224836 0.274572
0.035817 0.223456 0.268840
-0.073573 0.222284 0.282559
0.014510 0.226157 0.254087
-0.029375 0.225656 0.253784
0.111476 0.221718 0.291863
0.065723 0.210927 0.318703
-0.101005 0.223323 0.270985
-0.129135 0.217940 0.294708
-0.026146 0.222841 0.288996
0.014611 0.217224 0.308397
-0.027881 0.217624 0.304670
-0.109008 0.211961 0.313329
0.079515 0.219497 0.302015
0.062983 0.226732 0.259323
-0.086967 0.217254 0.299004
-0.066124 0.213471 0.309075
0.036277 0.220316 0.299096
-0.069782 0.225145 0.256904
0.051876 0.218148 0.305540
0.097248 0.215033 0.313515
0.008815 0.207263 0.324084
-0.004780 0.225488 0.273035
-0.043486 0.206725 0.320957
-0.000465 0.223640 0.296555
0.059102 0.222230 0.286227
-0.012476 0.211746 0.317757
0.101875 0.224451 0.262351
-0.055263 0.219022 0.292092
-0.113633 0.057002 0.069230
-0.109826 0.065435 0.014879
-0.114011 0.047354 0.022214
-0.112757 0.048914 0.002700
-0.111360 0.059009 0.034356
-0.117176 0.021084 0.027527
-0.110790 0.059969 0.007163
-0.109561 0.071380 0.025123
-0.111350 0.062193 0.043815
-0.111048 0.056650 0.016519
-0.113207 0.054686 0.047977
-0.114913 0.047018 0.051811
-0.116852 0.037743 0.053565
-0.113285 0.050460 0.030137
-0.111571 0.056122 0.027020
-0.116002 0.035694 0.017504
-0.110445 0.061514 0.022050
-0.112951 0.053409 0.035094
-0.116972 0.030937 0.039697
-0.115214 0.048638 0.063319
-0.115387 0.046258 0.042928
-0.114328 0.044801 0.009480
-0.115231 0.042543 0.031368
-0.111165 0.067430 0.051918
-0.112266 0.050595 0.012724
-0.112388 0.057228 0.040567
-0.110227 0.067568 0.037436
-0.111590 0.055328 -0.003952
-0.112453 0.052202 0.021903
-0.113629 0.050801 0.040773
-0.110494 0.064616 0.030120
-0.112313 0.058512 0.055574
0.007978 0.223978 0.282131
-0.023678 0.207034 0.203625
0.045063 0.219907 0.219953
0.035078 0.205713 0.200624
0.030319 0.220895 0.228121
0.015090 0.215112 0.213268
-0.004357 0.204009 0.199571
-0.006810 0.217899 0.223342
0.001091 0.220927 0.234989
-0.011251 0.211863 0.209305
0.018187 0.221222 0.232825
-0.000778 0.223084 0.253862
0.036135 0.225541 0.252925
-0.000194 0.215476 0.215402
-0.019734 0.216733 0.220226
0.027743 0.213764 0.209664
0.005233 0.209609 0.205974
0.026754 0.223845 0.240146
-0.032604 0.219890 0.230660
-0.011861 0.223621 0.269595
0.011449 0.223645 0.246164
0.020263 0.209106 0.203914
0.021918 0.218315 0.220846
-0.025293 0.221892 0.245719
0.044355 0.213332 0.207766
0.008894 0.218535 0.224057
0.034718 0.217723 0.216678
0.014961 0.201199 0.196681
-0.036892 0.213612 0.212838
0.044154 0.223963 0.238105
-0.014033 0.220679 0.233516
0.022444 0.224932 0.263254
-0.149593 0.208176 0.102553
-0.158462 0.215332 0.041252
-0.138430 0.196866 0.058598
-0.143104 0.202460 0.032080
-0.142769 0.202140 0.070289
-0.146417 0.206625 0.057803
-0.152197 0.211204 0.035552
-0.154724 0.212343 0.065691
-0.151666 0.209631 0.079937
-0.153629 0.211626 0.046617
-0.147516 0.206795 0.076354
-0.152479 0.210922 0.088409
-0.140817 0.199781 0.089865
-0.151246 0.209955 0.059857
-0.156068 0.213413 0.058457
-0.144285 0.204003 0.048883
-0.149778 0.209195 0.050634
-0.143648 0.202983 0.078004
-0.160011 0.215243 0.070227
-0.155574 0.213120 0.096358
-0.147400 0.206563 0.084844
-0.146920 0.206794 0.040809
-0.146128 0.204892 0.065525
-0.159725 0.214998 0.084123
-0.139789 0.198668 0.043838
-0.150508 0.209751 0.071107
-0.143873 0.203402 0.061474
-0.148316 0.208332 0.023373
-0.160505 0.215118 0.051787
-0.138920 0.197659 0.076612
-0.155695 0.212912 0.073124
-0.145988 0.205511 0.094082
0.249713 0.079696 0.334685
0.265238 0.108561 0.305441
0.264182 0.057004 0.309030
0.265843 0.064937 0.299382
0.260749 0.091672 0.320077
0.262499 0.027539 0.314917
0.266173 0.096904 0.300703
0.262605 0.120830 0.313778
0.257716 0.098024 0.325889
0.265747 0.086986 0.306423
0.256786 0.072698 0.329301
0.255257 0.053727 0.329087
0.254257 0.042809 0.331202
0.262556 0.062666 0.316238
0.263790 0.084438 0.314148
0.263867 0.040397 0.308611
0.263888 0.098679 0.312131
0.261013 0.074682 0.319355
0.259841 0.034016 0.323362
0.251595 0.063241 0.333277
0.259653 0.054024 0.321277
0.265788 0.050063 0.301064
0.262388 0.048288 0.315646
0.254949 0.112189 0.330857
0.265225 0.075162 0.305188
0.258546 0.082834 0.324590
0.258798 0.109316 0.323638
0.266224 0.083279 0.295131
0.265197 0.071183 0.311271
0.258329 0.066434 0.324470
0.262554 0.108149 0.316392
0.254031 0.090107 0.329848
-0.134954 0.186321 0.092184
-0.135784 0.196506 0.050283
-0.129087 0.175989 0.056615
-0.128714 0.179226 0.041729
-0.134333 0.189107 0.066726
-0.126249 0.163817 0.060846
-0.133338 0.191688 0.044657
-0.138504 0.200303 0.058666
-0.136309 0.192360 0.075012
-0.132497 0.187524 0.050963
-0.132713 0.183377 0.078925
-0.131000 0.177513 0.080173
-0.129476 0.169510 0.082874
-0.129946 0.178667 0.062789
-0.131977 0.185658 0.060076
-0.127052 0.169287 0.053042
-0.134282 0.192044 0.056551
-0.131890 0.183054 0.067328
-0.127589 0.167108 0.070829
-0.131793 0.178646 0.088348
-0.129787 0.174164 0.073213
-0.127340 0.173666 0.046654
-0.128470 0.171800 0.064302
-0.139151 0.197127 0.081441
-0.130224 0.181862 0.048534
-0.133742 0.187011 0.072850
-0.138031 0.198227 0.069828
-0.130889 0.186989 0.037429
-0.130345 0.181863 0.055678
-0.131445 0.180187 0.071569
-0.136108 0.194255 0.062925
-0.135222 0.188840 0.082783
0.113112 0.038701 0.182651
0.079973 0.043983 0.179721
0.123163 0.038038 0.183449
0.128466 0.040212 0.183572
0.118196 0.044347 0.182431
0.102212 0.008118 0.185182
0.105387 0.044067 0.181174
0.103621 0.052803 0.180756
0.111049 0.046698 0.181304
0.093068 0.042742 0.180210
0.093763 0.038644 0.181227
0.093102 0.028675 0.182676
0.129966 0.028423 0.185627
0.105342 0.038261 0.182149
0.086171 0.040603 0.180571
0.117761 0.023108 0.184973
0.112759 0.042413 0.181543
0.119591 0.041524 0.182907
0.079441 0.020195 0.183143
0.086132 0.034940 0.181528
0.099059 0.036710 0.182484
0.114946 0.035759 0.183315
0.108276 0.031264 0.183380
0.088671 0.048909 0.179760
0.135299 0.042955 0.183635
0.099127 0.040159 0.181122
0.124142 0.048191 0.182542
0.107866 0.040529 0.181788
0.072632 0.038675 0.180377
0.141446 0.036849 0.185093
0.098068 0.046309 0.180519
0.103035 0.042156 0.180835
0.066936 0.093228 0.175501
0.046333 0.108830 0.174483
0.072478 0.088676 0.175666
0.078012 0.094788 0.175915
0.073152 0.108259 0.176036
0.058094 0.067003 0.175181
0.063076 0.108935 0.175116
0.061936 0.123154 0.175623
0.067927 0.114647 0.175752
0.053545 0.105102 0.174538
0.052421 0.089753 0.174806
0.052438 0.076961 0.174837
0.074951 0.078087 0.176156
0.061910 0.089263 0.175270
0.050269 0.098272 0.174607
0.067633 0.071121 0.175462
0.067116 0.103877 0.175277
0.072007 0.099111 0.175880
0.045514 0.072520 0.174683
0.046748 0.084539 0.174460
0.056948 0.084337 0.174885
0.066911 0.083159 0.175381
0.061387 0.077298 0.175132
0.051951 0.118185 0.175288
0.080848 0.103927 0.176248
0.056773 0.094969 0.175032
0.075445 0.118726 0.176491
0.062866 0.098102 0.175215
0.043342 0.093226 0.174222
0.081576 0.086624 0.176354
0.057596 0.113288 0.175208
0.059131 0.102855 0.175262
0.266862 0.010169 0.296694
0.267226 0.027860 0.263710
0.267310 -0.006658 0.265724
0.267338 -0.002488 0.254957
0.267292 0.016064 0.276857
0.267313 -0.028795 0.271342
0.267316 0.019398 0.258130
0.267275 0.036727 0.270956
0.267212 0.021368 0.283137
0.267405 0.012352 0.262927
0.267164 0.005148 0.288982
0.266685 -0.006929 0.287939
0.267319 -0.017124 0.290127
0.267294 -0.003178 0.273945
0.267442 0.010583 0.270944
0.267088 -0.019356 0.264563
0.267513 0.019838 0.268184
0.267170 0.005670 0.276544
0.267125 -0.023008 0.280564
0.266852 -0.002080 0.295235
0.266970 -0.009735 0.279614
0.267419 -0.011964 0.258327
0.267140 -0.013952 0.272503
0.267000 0.029645 0.290867
0.267438 0.003239 0.260891
0.266885 0.010883 0.282757
0.267060 0.031378 0.280616
0.267257 0.009984 0.253001
0.267574 0.002577 0.268398
0.267013 -0.000029 0.281678
0.267262 0.025885 0.274178
0.267159 0.016005 0.289628
0.038606 0.160569 0.179549
0.014065 0.174439 0.181541
0.044289 0.155555 0.178728
0.050985 0.163243 0.180121
0.045684 0.174816 0.182582
0.027357 0.129958 0.175704
0.034599 0.175825 0.182002
0.033281 0.188021 0.185259
0.040201 0.181057 0.183881
0.023158 0.170817 0.180674
0.021685 0.157206 0.178675
0.021719 0.143030 0.176692
0.046412 0.144071 0.177616
0.032690 0.156013 0.178696
0.018817 0.164689 0.179857
0.038298 0.135745 0.176174
0.038741 0.171149 0.181248
0.043912 0.166435 0.180569
0.013002 0.137687 0.176175
0.014998 0.151956 0.177602
0.026784 0.151389 0.177596
0.037945 0.149715 0.177736
0.031310 0.143386 0.176816
0.021164 0.183489 0.184196
0.054456 0.171534 0.182098
0.026954 0.162120 0.179599
0.049353 0.184393 0.184986
0.033752 0.165198 0.179977
0.009846 0.160193 0.178863
0.054479 0.155294 0.179255
