-0.270748 -0.231779 0.310450
-0.273561 -0.193056 0.312457
-0.271813 -0.228869 0.297062
-0.249605 -0.056878 0.311777
-0.258929 0.031299 0.322172
-0.250510 -0.107674 0.241409
-0.245958 0.133361 0.326272
-0.158403 -0.002820 0.315876
-0.244743 0.044781 0.269903
-0.137750 -0.097828 0.265731
-0.093865 -0.051520 0.317196
-0.267951 -0.088958 0.162784
-0.268373 0.011305 0.188580
-0.098795 0.079476 0.311760
-0.185052 0.169804 0.281402
-0.245007 -0.023019 0.137512
-0.018877 -0.098361 0.271290
-0.241539 0.101898 0.192245
0.029371 -0.032201 0.319740
-0.258338 -0.105836 0.050073
0.000348 0.070628 0.317780
-0.252089 0.186082 0.175421
-0.141881 0.059725 0.192586
-0.093445 -0.095418 0.158747
-0.273252 -0.039017 0.040747
-0.263510 0.114368 0.111872
-0.143556 0.094243 0.192776
-0.094131 0.084104 0.220751
0.129650 -0.106825 0.293530
-0.115561 0.058284 0.187594
-0.113482 0.027860 0.173229
0.250611 -0.236146 0.317129
0.252743 -0.234766 0.317587
-0.150938 0.214179 0.224749
-0.147218 -0.098870 0.086330
-0.145255 0.141597 0.192524
-0.116045 0.084467 0.187341
-0.151434 0.182085 0.203879
-0.161772 0.216753 0.208616
0.251025 -0.195980 0.318738
-0.137690 0.105101 0.170064
-0.264791 0.041892 0.043775
-0.090120 0.056905 0.182117
-0.130216 0.062831 0.151958
-0.119992 0.127851 0.187387
0.016175 -0.077543 0.194812
-0.125696 0.173514 0.198223
-0.143463 0.164404 0.180459
0.251409 -0.166935 0.318412
0.005337 0.203381 0.306096
-0.181655 0.228247 0.174628
-0.091165 0.097348 0.181281
-0.066035 0.055913 0.179691
-0.150898 0.205669 0.180608
-0.010712 0.033819 0.208936
0.228159 -0.140531 0.297123
-0.091845 0.120547 0.181168
-0.102488 0.213108 0.213069
0.257380 -0.111434 0.326341
-0.094474 0.149945 0.186058
0.120781 0.097539 0.317774
-0.124996 0.081803 0.130770
0.197034 -0.138724 0.265951
-0.093917 0.187831 0.197468
0.211682 -0.122642 0.280956
-0.136072 0.155306 0.150832
-0.071192 0.105957 0.177283
-0.052940 0.078875 0.178630
0.181472 -0.136448 0.251127
0.189764 0.007759 0.321626
-0.265385 -0.074524 -0.061030
0.254129 -0.082357 0.321217
-0.126638 0.113321 0.131743
-0.031197 0.055118 0.176444
-0.119425 0.060420 0.112647
0.134831 -0.088082 0.232710
0.257841 -0.054514 0.327310
-0.071459 0.187062 0.191879
-0.060649 0.144099 0.180362
-0.059698 0.206825 0.206224
-0.159032 0.221976 0.138994
-0.024821 0.076318 0.174197
-0.143728 0.205631 0.141523
0.256998 -0.109559 0.290256
-0.024208 0.173541 0.209591
0.257992 -0.015388 0.327754
0.259812 -0.073737 0.303347
-0.035395 0.116451 0.173455
-0.127346 0.145232 0.115971
-0.099597 0.107999 0.119267
-0.122822 0.123809 0.106312
-0.196450 0.230375 0.095777
-0.192804 0.205039 0.087715
-0.118067 0.092610 0.093136
0.230198 -0.116571 0.252676
0.007860 0.069926 0.174219
-0.042837 0.184706 0.187328
-0.159643 0.216705 0.114115
-0.272081 0.081335 -0.033622
0.215980 0.094488 0.333574
-0.013386 0.103813 0.171678
0.252945 -0.112183 0.265994
-0.034769 0.154592 0.176817
-0.136345 0.175659 0.107891
-0.113132 0.046846 0.066898
-0.112579 0.058675 0.071135
-0.027519 0.203598 0.199240
0.262619 -0.035375 0.302153
-0.259048 -0.099889 -0.119656
-0.014196 0.130419 0.172353
0.042350 0.048771 0.176388
0.258236 0.045248 0.327894
0.264168 -0.053299 0.288658
0.028692 0.072198 0.175566
-0.129415 0.155567 0.093222
0.261876 -0.073462 0.274567
-0.134493 -0.096274 -0.027523
-0.121723 0.133955 0.087123
0.262105 0.005667 0.306116
0.000004 0.211707 0.209014
-0.144018 0.196562 0.094416
0.010619 0.110542 0.171749
-0.254861 0.175570 -0.001899
0.230310 -0.116159 0.225702
0.007211 0.131352 0.173295
-0.007490 0.164306 0.176159
0.265055 -0.014499 0.291638
0.044438 0.054234 0.163205
-0.270200 0.005082 -0.098890
-0.155744 0.017595 -0.005722
0.042651 0.091039 0.175798
0.264052 -0.034801 0.276837
-0.109967 0.071520 0.052010
0.254502 -0.011771 0.279883
0.084698 0.042141 0.180367
0.263062 -0.072672 0.253315
0.074843 0.065402 0.178650
-0.160486 0.124085 0.029661
-0.176234 0.225190 0.061557
0.080705 -0.091496 0.109449
0.015384 0.190597 0.187339
0.041272 0.123151 0.175635
0.264406 0.026434 0.292558
-0.112153 0.102817 0.052693
0.105685 0.186292 0.248653
-0.109526 0.057981 0.032043
0.033540 0.210993 0.206972
-0.149563 0.210220 0.070836
0.259783 0.084059 0.311267
-0.134820 0.185186 0.068017
0.108387 0.042509 0.182320
0.063256 0.103883 0.176368
0.263916 0.005586 0.274834
0.037449 0.163209 0.180518
0.258626 -0.092561 0.225375
-0.006743 -0.084687 0.036236
0.259046 0.145200 0.328188
-0.126678 0.162912 0.054392
0.262400 -0.054768 0.240233
0.092296 0.085536 0.179752
0.068967 0.215735 0.217799
-0.117408 0.143097 0.047728
0.047584 0.190507 0.190447
0.130417 0.041811 0.183509
0.072599 0.125186 0.178315
0.263949 -0.014322 0.251464
0.259593 0.125509 0.308701
-0.111281 0.112800 0.034033
0.059556 0.164643 0.181459
0.128983 0.054100 0.181876
-0.179902 0.228355 0.029713
-0.147929 0.207142 0.043104
0.262730 -0.034512 0.235014
0.259626 0.184660 0.328762
0.264548 0.047417 0.271935
0.104263 0.105420 0.179916
0.070617 0.185927 0.189448
-0.107958 0.081736 0.009742
0.268730 -0.103478 0.201829
0.263185 0.005730 0.246269
0.188600 -0.097593 0.146417
0.088435 0.207505 0.207506
0.092450 0.146618 0.182634
0.264199 -0.083930 0.202367
0.274516 -0.083720 0.209469
-0.263543 -0.108250 -0.206848
0.155708 0.056240 0.185851
-0.109159 0.056777 -0.009782
0.186406 0.030483 0.195822
0.259927 0.165233 0.306231
-0.127198 0.173872 0.027397
0.110914 0.217674 0.222567
0.112965 0.123916 0.182122
0.184189 0.233834 0.280905
0.259600 0.166326 0.302884
0.273242 0.066964 0.268476
0.141543 0.086633 0.183320
-0.177820 0.222093 0.004997
0.262582 0.145354 0.291396
0.102588 0.183623 0.194308
0.263352 0.064061 0.255210
0.264004 0.105642 0.272411
-0.136076 0.195382 0.020883
-0.272443 -0.230342 -0.290062
0.110055 0.204701 0.202974
0.170771 0.075308 0.189147
-0.246913 0.145590 -0.091703
0.272189 -0.102959 0.180454
0.034298 0.042419 0.073811
0.260425 0.205243 0.306421
-0.156680 0.210484 0.005132
-0.111045 0.055817 -0.030660
0.279975 -0.044456 0.208810
0.212451 0.045764 0.198157
-0.107650 0.111013 -0.007899
-0.194318 0.232158 -0.019637
-0.119187 0.153412 0.001982
0.263224 0.166161 0.285364
0.139253 0.144437 0.187391
0.262157 0.046782 0.230347
0.130436 0.202853 0.204649
-0.263594 0.060184 -0.157643
0.165370 0.114583 0.189078
0.185993 0.089762 0.192660
0.240676 0.033847 0.206521
-0.047226 0.042888 -0.001932
-0.135815 -0.091761 -0.138877
0.208471 0.083930 0.197322
0.280139 -0.005432 0.205901
0.192293 0.110873 0.194808
0.262381 0.071756 0.226993
0.163325 0.154689 0.193035
-0.133225 0.185045 -0.012578
0.252928 0.055984 0.210605
0.152091 0.194621 0.199201
0.217800 0.079278 0.195366
-0.240116 0.001010 -0.185238
0.165525 0.212115 0.214206
0.279535 -0.065483 0.171174
-0.113657 0.121889 -0.032006
0.263886 0.186087 0.270209
0.263574 0.145959 0.252095
-0.111049 0.090840 -0.048078
0.262039 0.109683 0.232902
0.284313 -0.024562 0.189564
-0.027850 -0.090425 -0.070643
0.247118 0.080422 0.207890
0.186450 0.163810 0.198656
0.260825 0.208137 0.266549
-0.150171 0.211643 -0.033751
0.239177 0.103821 0.204470
-0.137150 0.083411 -0.082428
-0.114838 0.075413 -0.070215
-0.190709 0.230021 -0.059073
0.227562 0.124386 0.202960
0.259649 0.021464 0.178366
-0.121167 0.165519 -0.037246
-0.134154 0.193574 -0.034992
0.273548 0.014824 0.183437
0.219983 0.145309 0.201776
-0.149542 0.194933 -0.048351
0.192266 0.205578 0.207198
-0.115063 0.051932 -0.088739
-0.117004 0.135076 -0.053556
0.271020 -0.104113 0.122395
0.276585 -0.084246 0.132606
0.209402 0.184850 0.205430
0.286397 -0.004990 0.174421
0.263051 0.187315 0.241454
0.254130 0.135848 0.212007
0.282305 -0.045575 0.147942
-0.159061 0.217137 -0.059489
0.216363 0.205082 0.210510
0.235999 0.165951 0.206368
-0.118411 0.096224 -0.086904
-0.189874 0.228896 -0.082819
-0.131835 0.180500 -0.061463
0.256855 0.166300 0.216076
0.130253 0.071375 0.083199
-0.118928 0.119117 -0.086558
-0.127811 0.156774 -0.077302
0.280091 0.015450 0.159615
0.278133 -0.085428 0.110760
0.182792 -0.105681 0.032590
0.247386 0.033478 0.142043
0.249187 0.210312 0.219005
0.266573 -0.079087 0.101136
-0.265232 0.102969 -0.216920
0.283937 -0.045221 0.125720
-0.120726 0.095975 -0.108980
0.287255 -0.004765 0.144747
0.104061 -0.098967 -0.032053
-0.135381 0.181598 -0.083467
-0.247855 -0.079460 -0.295766
-0.144745 0.202231 -0.083376
0.282070 -0.063726 0.111149
-0.179911 0.225914 -0.102713
0.234500 0.036625 0.118441
0.270861 -0.102188 0.080815
-0.124220 0.136807 -0.103174
-0.127780 0.062827 -0.140844
-0.069166 0.042266 -0.108540
-0.155953 0.215319 -0.104769
-0.134197 0.176064 -0.105594
0.278158 0.015196 0.121333
0.285495 -0.005562 0.117017
-0.256463 0.009393 -0.287232
0.280889 -0.065124 0.083377
0.278528 -0.084646 0.071899
-0.132991 0.082774 -0.158602
0.286174 -0.026141 0.101108
-0.175358 0.205647 -0.137217
0.235880 0.039053 0.092642
0.038008 0.038337 -0.052275
0.283821 -0.044630 0.087591
-0.131382 0.148545 -0.132879
-0.131235 0.107332 -0.151599
-0.194391 0.230215 -0.147392
-0.136694 0.191738 -0.123899
0.214942 0.080332 0.087872
0.278643 0.014664 0.099612
-0.135632 0.128801 -0.158473
-0.156018 0.221026 -0.133775
-0.087122 0.015965 -0.177573
-0.233654 0.187957 -0.212971
0.282531 -0.065037 0.057300
0.260805 0.031650 0.085911
0.153647 0.041650 0.012921
-0.112695 -0.097627 -0.257688
-0.137960 0.171790 -0.150586
-0.147133 0.135912 -0.178421
0.271956 -0.102450 0.022547
0.285270 -0.005473 0.076177
0.267867 0.037218 0.078443
-0.011925 -0.098214 -0.191721
0.286074 -0.026068 0.060831
0.207307 0.042397 0.031056
0.238042 0.037682 0.051344
0.285161 -0.064015 0.036117
0.287619 -0.042818 0.044765
-0.147600 0.209311 -0.164645
0.280922 0.014036 0.060272
0.284531 -0.045626 0.022406
0.239745 -0.103673 -0.037126
-0.149396 -0.066107 -0.316534
0.279845 -0.084683 -0.006983
0.259467 0.033424 0.032066
-0.077803 0.101468 -0.195982
0.117528 -0.092071 -0.145824
0.001676 0.043129 -0.173908
0.223356 0.040237 -0.013401
0.288302 -0.005277 0.011285
0.270885 -0.019062 -0.008498
-0.236356 0.150150 -0.316586
0.271270 -0.102322 -0.051619
0.281696 -0.066108 -0.026691
-0.182893 0.045099 -0.326148
0.281562 -0.085792 -0.038876
0.288280 -0.025791 -0.012298
-0.001234 0.102446 -0.168410
0.282629 0.016455 0.000958
0.087845 0.034057 -0.136464
0.174699 0.093297 -0.046958
0.018511 0.081536 -0.172348
-0.020000 0.148759 -0.171434
0.270561 -0.103771 -0.075344
0.286044 -0.044758 -0.037624
0.058824 0.042557 -0.176966
0.047054 0.070619 -0.176967
0.281421 -0.063930 -0.069139
0.027130 0.115216 -0.173624
-0.116735 0.210621 -0.242230
0.262184 0.032265 -0.042859
0.281749 0.015670 -0.038741
0.286476 -0.005815 -0.047204
0.224099 0.038822 -0.072217
0.176069 0.040720 -0.108482
0.275331 0.063455 -0.026930
0.277190 -0.085195 -0.098057
0.190548 0.044934 -0.100602
0.056664 0.102155 -0.174055
-0.000809 -0.089625 -0.311607
0.096149 0.044021 -0.178905
0.286009 -0.025215 -0.072406
0.216191 0.039202 -0.101043
0.259512 0.032228 -0.073510
-0.106980 0.113222 -0.316777
-0.034595 -0.001392 -0.315792
0.168665 0.037220 -0.144192
0.277549 -0.086900 -0.122531
0.085921 -0.080121 -0.262310
0.283662 -0.044453 -0.099059
0.277116 0.015611 -0.077824
0.281154 -0.066020 -0.114667
0.270974 -0.104154 -0.141885
0.152312 -0.087918 -0.223643
0.158433 0.033907 -0.163716
0.260460 0.031621 -0.095152
0.146727 0.030577 -0.184299
0.207904 0.035644 -0.138637
0.011160 0.051676 -0.281432
0.270003 -0.031354 -0.128228
0.285554 -0.006265 -0.107997
0.147063 0.060609 -0.181622
0.257771 -0.106770 -0.179131
0.086808 0.159246 -0.182819
0.263652 0.040755 -0.109685
0.282176 -0.046792 -0.138608
0.276213 -0.085995 -0.164343
0.168495 0.029779 -0.190095
0.187182 -0.140141 -0.259392
0.125754 0.120786 -0.181015
0.277978 0.014978 -0.118692
0.286673 -0.025669 -0.132395
0.269692 -0.105094 -0.183210
0.141571 0.100928 -0.181858
0.243655 0.034567 -0.138723
0.230191 -0.115977 -0.226661
0.176684 0.049579 -0.187471
0.090126 0.192356 -0.190976
0.278894 -0.066031 -0.172953
0.196938 0.027918 -0.195403
0.270385 -0.103750 -0.204861
0.286796 -0.005929 -0.147942
0.155794 0.121955 -0.185661
0.174820 0.090373 -0.188321
0.200519 -0.123086 -0.273068
0.230321 -0.117042 -0.248918
0.219851 0.025065 -0.191288
0.247227 -0.054456 -0.210904
0.280508 0.014958 -0.158309
0.258036 -0.111971 -0.237373
0.190522 0.097440 -0.187609
0.285526 -0.027459 -0.177472
0.284175 -0.006711 -0.169074
0.246416 -0.232649 -0.306735
0.259947 0.022846 -0.174585
0.239459 -0.213957 -0.311784
0.230197 -0.116192 -0.275301
0.222413 -0.142701 -0.294896
0.278100 -0.056907 -0.212455
0.214686 0.083668 -0.196931
0.281366 -0.036242 -0.204345
0.122373 -0.040177 -0.325408
0.195504 0.121463 -0.194380
0.264491 -0.076693 -0.237974
0.172592 0.161853 -0.194364
0.024820 0.208603 -0.283922
0.110358 0.190440 -0.228559
0.064310 0.090843 -0.311473
0.259884 0.014465 -0.202259
0.259776 -0.110716 -0.263968
0.240614 -0.174934 -0.312968
0.282756 0.005246 -0.194599
0.237991 0.061102 -0.201364
0.277495 -0.017099 -0.218897
0.264816 0.002161 -0.223031
0.216690 0.131087 -0.200055
0.235395 0.099614 -0.202169
0.257607 -0.112783 -0.288295
0.269145 0.048492 -0.202207
0.200782 0.166271 -0.199953
0.266870 -0.057037 -0.258280
0.265886 -0.017722 -0.243001
0.266928 -0.036656 -0.257220
0.187710 0.205645 -0.203997
0.228219 0.149815 -0.202655
0.238625 0.131602 -0.205100
0.263798 0.063025 -0.219080
0.265609 -0.077062 -0.286540
0.247171 -0.094603 -0.312683
0.266421 0.022850 -0.243226
0.260298 -0.095778 -0.309574
0.261620 0.103513 -0.214918
0.215617 0.194235 -0.207310
0.252915 -0.114247 -0.329044
0.267911 -0.038233 -0.285603
0.241011 0.169792 -0.207274
0.257670 0.144724 -0.208955
0.266044 0.084018 -0.237640
0.267124 0.042048 -0.257140
0.221662 0.215316 -0.213579
0.267537 0.003140 -0.283030
0.261926 -0.056817 -0.318295
0.266966 0.063934 -0.257340
0.265679 0.124320 -0.230110
0.173090 0.071116 -0.327351
0.258477 0.187135 -0.211819
0.265815 -0.016445 -0.303176
0.267144 0.105344 -0.253809
0.253272 -0.027480 -0.327931
0.256879 -0.006041 -0.322874
0.264958 0.022705 -0.303574
0.246865 0.011454 -0.323250
0.267468 0.084486 -0.277374
0.259547 0.207469 -0.230443
0.266294 0.123588 -0.268306
0.267269 0.165296 -0.248749
0.265884 0.063388 -0.297778
0.269071 0.093437 -0.283815
0.195340 0.220555 -0.285224
0.266116 0.145397 -0.268408
0.259746 0.052441 -0.318234
0.259440 0.092673 -0.316649
0.263668 0.206509 -0.269092
0.265892 0.165369 -0.288979
0.255129 0.133348 -0.323449
0.262665 0.153644 -0.308227
0.254800 0.173421 -0.327654
0.261603 0.213457 -0.308886
0.261211 0.193767 -0.318569
0.265056 0.196631 -0.330146
