0.033360 0.034986 0.243853
-0.204657 0.007453 -0.203343
0.105703 -0.095393 -0.286631
0.211194 0.190197 -0.326952
-0.019263 0.039485 -0.025639
-0.237172 -0.182038 -0.293222
-0.251910 -0.093544 -0.125232
-0.143557 0.174356 -0.144354
-0.200692 0.059947 0.279376
-0.198697 0.021039 0.133798
-0.230038 -0.180574 0.303438
0.071965 -0.094144 0.219296
0.203188 -0.080532 0.033626
0.157935 -0.035499 -0.350674
-0.259475 0.023403 -0.121674
0.152973 0.103033 0.272745
0.285188 0.039135 0.067898
-0.246042 -0.011025 0.058528
-0.052961 0.082218 0.136272
0.053150 0.172945 -0.324213
0.280611 0.038323 -0.234668
-0.077449 0.036926 0.063625
-0.246607 -0.049362 -0.040882
-0.177955 0.032747 -0.341808
0.207519 0.073048 -0.222163
0.174263 0.049412 0.131458
-0.217598 0.103212 0.340692
0.197428 0.037387 -0.355570
-0.206353 0.121371 -0.335895
-0.216781 0.125571 -0.110874
0.269786 -0.072055 -0.255908
-0.246831 0.079548 0.116012
-0.245705 0.145284 0.003866
-0.109252 -0.060768 -0.337982
-0.245123 0.050673 0.051638
0.027877 -0.048472 0.017757
0.263195 -0.077233 -0.358402
0.091762 -0.069048 0.106149
0.219578 0.005671 0.351707
-0.232744 -0.088078 0.070368
-0.246077 -0.042148 0.294582
0.017734 -0.077524 0.270795
-0.244588 0.013628 0.201988
-0.090124 0.175959 -0.261213
0.164206 0.046119 0.338550
0.075965 0.019921 -0.061535
0.285280 0.062026 -0.304116
0.260656 -0.082162 -0.043816
0.263286 -0.185254 -0.320509
-0.116484 0.147273 0.315305
-0.241853 -0.064889 0.162065
0.259688 -0.076418 0.203554
0.290012 -0.004087 -0.017669
0.170217 -0.069273 0.260911
0.093665 0.052792 -0.221498
-0.158823 0.162358 0.078746
-0.125934 0.111178 -0.215443
0.017540 0.137319 0.209304
0.063682 0.033403 0.354365
0.279036 -0.099618 -0.186210
-0.232478 0.014051 0.325469
-0.145990 0.109554 0.033074
0.230684 0.076904 0.060647
-0.251284 0.071440 -0.167102
0.006351 -0.076835 -0.210841
-0.268856 0.073840 -0.055341
0.280697 -0.040650 -0.141201
0.224661 0.075498 0.192035
0.201648 0.023554 -0.145074
-0.033248 0.046958 -0.115665
0.274351 0.164254 -0.353515
0.259148 0.102200 0.355224
0.139550 0.030897 0.201350
-0.116905 0.187041 0.267636
0.147711 0.144128 -0.266112
-0.042774 -0.058864 0.343392
0.266507 -0.043137 0.120120
-0.069145 0.028401 0.191611
-0.145666 0.023294 -0.008401
0.257639 -0.065786 0.347958
-0.112181 -0.076915 0.105090
-0.233579 -0.083310 -0.273438
-0.109566 -0.010771 0.334409
-0.042705 0.025134 -0.194502
0.273007 0.129562 0.308718
-0.251685 -0.087145 -0.217905
-0.082007 0.088468 -0.348363
0.177160 0.018547 -0.010433
0.063544 -0.034026 0.343304
-0.231840 -0.108515 0.231711
0.072023 0.045540 0.162925
0.138515 -0.092244 0.322151
-0.096281 -0.061459 -0.142763
-0.128610 -0.081220 -0.040962
0.131212 -0.064237 -0.051223
0.257277 -0.198326 0.321562
-0.207941 0.095084 0.211048
-0.093620 -0.085668 -0.272701
0.213909 0.188455 0.308654
0.286186 -0.057842 0.296042
-0.214566 0.152293 -0.235861
-0.030157 0.069750 -0.257282
0.059111 0.044424 -0.281768
-0.005630 -0.111702 -0.116345
0.092532 0.055471 -0.352124
-0.060354 0.080607 0.344642
0.036331 -0.075958 -0.336658
-0.255447 0.081075 -0.247615
-0.060239 -0.079860 0.145445
0.149561 -0.082542 -0.154238
0.065023 0.170609 0.352298
-0.062001 0.042318 0.244410
-0.109517 0.074079 -0.113512
0.206095 -0.085296 0.157727
0.276722 0.011286 -0.346566
-0.132313 -0.091297 0.260718
0.178043 0.088512 -0.075932
-0.245037 0.007635 -0.287389
-0.229660 0.156274 0.195769
-0.113413 0.164527 -0.047981
0.164647 -0.078020 -0.246324
0.275794 0.032092 -0.141261
0.067825 0.024590 0.067248
0.278459 0.035922 0.182186
0.270621 0.032007 -0.048898
0.103283 0.022415 -0.154646
0.282334 0.040422 0.259455
-0.007396 0.010510 -0.344366
