0.076053 -0.187409 0.075165
-0.107111 0.441498 -0.105560
-0.060952 0.131809 0.047414
-0.063328 -0.465403 -0.036081
0.115376 0.439721 0.104569
-0.062579 -0.074129 -0.050858
-0.101217 0.439799 0.109925
0.104664 0.439196 -0.110070
-0.061381 -0.271670 -0.049307
0.003471 0.274767 -0.051020
0.070476 0.055815 -0.053511
0.022402 -0.359951 0.072552
0.095148 -0.109917 -0.069544
0.003795 0.441683 0.014616
-0.064348 -0.171627 0.045693
-0.118768 -0.371127 0.064134
0.003542 -0.006979 0.050304
0.068671 0.211786 0.046850
0.031078 -0.379833 -0.067251
-0.060173 0.325911 0.045975
-0.061073 0.058160 -0.049971
0.073802 0.345334 0.046983
-0.060010 0.175647 -0.050633
-0.058549 0.364655 -0.052499
0.120909 0.439571 0.000562
-0.107763 0.439194 0.005797
0.001412 0.441966 -0.114206
0.067625 0.079123 0.047072
0.073423 0.362085 -0.052177
-0.060737 -0.293053 0.046663
0.017072 0.443757 0.115684
0.066054 -0.096386 0.047101
0.000740 -0.147071 -0.049090
-0.062056 0.223238 0.044459
-0.042934 -0.422564 0.054194
0.003579 -0.230172 0.047049
-0.001791 -0.333089 -0.001126
-0.063099 0.042964 0.048285
-0.052996 -0.361743 -0.066301
-0.063148 -0.090175 0.048046
0.048902 0.440840 -0.049234
-0.045647 0.442102 -0.042764
0.006870 -0.146476 0.060054
0.003686 -0.228245 -0.053306
0.006386 0.375152 0.043959
0.006947 0.178907 0.045489
0.064880 0.442457 0.054381
-0.041888 0.438468 0.068832
0.005459 0.206905 -0.051445
0.005343 0.095613 0.046749
-0.055259 -0.360142 0.045201
0.002121 -0.292593 -0.052432
0.049701 -0.123511 -0.021456
-0.061462 -0.025751 0.046890
-0.033520 -0.423093 -0.058773
0.112971 0.452633 -0.052848
0.007912 -0.409603 -0.029016
-0.055895 0.467718 0.108883
0.113384 0.459941 0.046968
-0.110416 0.441120 -0.045913
0.006688 -0.315916 0.045022
-0.049843 0.442292 -0.111020
0.016435 0.437893 0.065866
0.064792 0.442873 -0.002752
0.067579 0.441419 0.115750
0.058550 -0.147724 0.053446
0.062658 -0.079442 -0.047403
-0.060119 0.438820 0.019245
0.001901 0.441804 -0.063666
-0.107578 0.439440 0.054429
0.050982 0.439248 -0.114735
-0.060684 0.273909 0.046419
-0.060927 -0.320864 -0.054716
0.027542 -0.346955 0.029858
-0.073740 -0.393035 0.065973
-0.011212 -0.372470 -0.054217
-0.024499 0.442407 0.118807
0.098360 -0.169096 0.043692
0.110253 -0.081195 -0.092182
0.077444 -0.150457 -0.048075
0.066561 0.121143 0.047102
0.079867 0.441043 -0.073723
-0.060011 0.168834 0.049021
-0.061134 -0.129143 0.046049
-0.029392 0.442780 -0.006686
-0.061978 0.081538 0.048095
0.071378 0.324828 -0.054651
-0.059054 0.361723 0.049454
-0.055405 -0.430032 -0.026050
0.003358 -0.041953 0.046160
0.071114 0.379662 0.049136
-0.077499 0.439064 -0.069184
0.005935 0.216148 0.046950
-0.032885 -0.463137 -0.049507
-0.064275 -0.112479 -0.051824
-0.059469 0.137515 -0.052945
-0.079404 0.442545 -0.016681
0.007421 0.411267 0.046285
-0.030158 -0.395035 0.035493
0.031739 0.439617 -0.083272
0.020072 0.439742 -0.026117
0.096343 0.438697 0.072171
-0.004700 -0.338626 0.064534
0.091388 0.437945 0.022617
-0.074159 0.440982 0.089566
0.046307 0.439792 0.082876
-0.039475 -0.388818 0.066570
0.083170 -0.118874 -0.024926
0.040071 0.462767 0.106763
0.045257 0.438807 0.030210
0.088201 0.440138 -0.035350
-0.012830 0.438393 0.089224
-0.061235 0.091169 -0.051696
-0.062700 -0.041555 -0.050593
0.021349 -0.386453 0.055153
0.041872 -0.172850 0.063352
-0.087071 -0.371328 0.045400
-0.047521 0.439237 -0.075423
0.003928 0.240179 -0.052835
-0.057415 0.410675 -0.049701
0.004128 -0.260083 -0.053210
-0.029253 0.440501 0.027806
0.033730 -0.413354 -0.045407
0.072525 0.394573 -0.053900
-0.061193 -0.321945 0.046949
-0.062019 0.013794 0.046345
0.023375 -0.377361 -0.034265
0.093161 0.463736 0.105564
0.004934 0.125698 0.046364
-0.015493 0.442924 -0.033260
0.111274 0.461506 -0.021672
0.007282 0.065875 0.046644
0.081854 -0.154887 0.065514
0.003972 0.466416 0.106045
-0.043885 0.438976 0.097994
0.082905 -0.201577 0.052372
0.070433 0.242419 0.048269
0.072502 0.316224 0.045352
0.113136 0.460283 0.081930
-0.077667 0.440189 -0.107767
-0.022873 0.438704 -0.092251
-0.068348 0.439595 0.056645
0.118465 0.440410 0.027059
0.074471 0.441170 0.087165
0.004769 -0.334020 0.029568
-0.015285 0.441921 0.058553
-0.028759 0.470237 0.106346
-0.070808 0.439588 0.117813
-0.099562 0.437211 0.081934
-0.091048 0.440353 0.025605
0.063216 -0.104827 -0.024296
0.059198 0.441773 -0.089958
-0.023620 0.439488 -0.058593
0.113891 0.439397 -0.083543
0.016767 0.442510 0.091072
-0.036470 -0.446613 -0.028807
-0.010507 -0.361327 0.077626
-0.000946 0.442515 -0.012353
0.093896 0.442617 -0.010470
0.036853 -0.366525 0.047888
0.007333 -0.350927 -0.052287
0.043656 0.443350 -0.017381
0.015887 -0.333050 0.052054
0.081567 0.439852 -0.106391
-0.026789 -0.322191 0.003992
0.111870 0.460549 -0.096900
-0.052802 -0.412208 0.069608
0.008654 0.438540 0.043671
0.065935 0.440082 -0.030271
0.035552 0.442083 0.049315
-0.084084 0.437857 -0.045251
-0.030311 -0.360752 -0.082222
-0.048336 -0.375595 0.027391
0.079602 -0.092270 -0.048798
0.112371 0.459389 0.010752
0.121911 0.441861 -0.037091
-0.002480 -0.390140 -0.029652
0.031773 0.438885 0.011015
-0.037443 -0.375543 -0.058121
0.047250 0.439398 0.109682
0.024380 -0.138568 0.048148
0.025018 0.440539 -0.112930
0.067092 -0.123969 0.048304
0.061164 -0.147596 -0.032637
-0.091233 0.458996 0.108414
-0.103418 0.440742 -0.016622
0.094682 0.441239 0.095907
0.036793 -0.398141 -0.064918
0.112585 0.442002 0.056325
-0.001531 0.440274 0.106245
-0.060044 0.193386 0.045590
0.087770 -0.082732 -0.079969
-0.048401 0.443196 0.040401
-0.060295 0.295693 0.047261
0.064139 -0.158180 0.071246
0.005387 -0.203838 0.047607
0.005274 -0.382362 0.065539
-0.027668 -0.406075 0.052127
-0.023312 -0.443136 -0.049729
-0.109650 0.442246 -0.084712
0.088604 -0.173331 0.068891
0.066531 -0.078557 0.049338
0.030123 -0.346809 0.059291
0.039030 -0.153218 0.061720
0.068807 0.062396 0.045659
0.118326 0.438243 0.081144
0.025518 0.439278 0.029671
0.060116 0.460825 0.107136
0.072306 0.439266 0.036623
-0.017227 0.440835 -0.117534
0.007493 0.438924 -0.080186
-0.059845 0.441185 -0.016397
0.092432 -0.124524 -0.049124
-0.031799 -0.424103 -0.043801
0.067341 -0.204149 0.064371
-0.033784 -0.382023 0.054351
0.057408 0.438608 -0.070565
0.082878 0.442609 0.053192
-0.040679 -0.464967 -0.038702
0.011300 -0.367966 -0.060937
-0.059438 -0.304729 -0.052946
0.113349 0.460863 -0.067381
-0.090706 -0.379188 0.061632
-0.061846 -0.451019 -0.019835
0.077207 0.438709 -0.054508
-0.088235 0.441364 0.055336
0.099609 0.439602 -0.058143
-0.068596 -0.374887 0.057274
-0.059700 0.041807 -0.050413
0.020213 0.443005 -0.059883
-0.058707 0.154962 -0.052463
0.035268 -0.392342 -0.044478
0.085638 0.441726 0.114552
0.051285 -0.094518 -0.033220
-0.088545 0.439368 0.008471
-0.056987 0.439293 -0.055091
0.004408 0.257819 -0.051981
0.088803 -0.149930 0.045429
-0.015720 -0.324378 0.014480
-0.018406 -0.368825 -0.069779
-0.058841 0.153921 0.047496
-0.051175 -0.373686 0.055851
0.075416 0.364589 0.047345
-0.052174 0.440681 0.117738
-0.045211 0.456908 0.106119
-0.062796 -0.112085 0.049630
0.024914 0.455288 0.105771
0.024313 -0.392645 -0.029843
-0.060497 0.240926 0.047370
-0.058269 0.115090 0.047072
-0.060705 0.063984 0.046722
-0.060941 -0.008393 0.046806
-0.108621 0.441271 -0.067025
-0.009729 0.442616 0.040778
-0.059796 0.340810 0.046032
0.072797 0.342438 -0.052592
0.079078 -0.138595 -0.031684
0.104562 -0.093769 -0.079069
0.018563 -0.341669 0.068812
0.053064 -0.181962 0.071411
0.003411 -0.024056 0.049664
0.007929 0.395610 0.046456
0.007246 0.199622 0.046026
0.095584 -0.187098 0.041651
0.019274 -0.420519 -0.038774
-0.025409 0.441454 -0.076696
0.077495 0.442174 -0.012403
0.000880 -0.370633 -0.044319
0.090204 -0.102329 -0.046966
0.074632 0.438573 0.021532
-0.016996 0.452443 0.106912
-0.044084 0.440217 -0.025805
-0.060162 0.437444 -0.029817
0.071027 -0.133715 -0.022490
-0.030406 0.442457 -0.038133
0.118551 0.442029 -0.057889
-0.059472 0.440111 -0.000137
0.088363 -0.090677 -0.066823
0.019627 0.441462 -0.045437
0.111736 0.456815 0.023737
-0.029746 0.441240 -0.022233
0.113576 0.452172 0.067518
0.049095 0.441177 -0.032959
-0.000585 0.443417 -0.029252
0.038665 -0.352040 0.046429
0.021101 0.441960 -0.012516
0.112235 0.460745 -0.004609
-0.068352 0.460528 0.106793
0.027887 -0.371884 0.061592
-0.108259 0.439155 0.040970
-0.060629 0.439847 -0.085624
-0.011548 0.441429 0.010116
0.005053 0.442405 -0.099835
-0.043181 0.442998 -0.062394
0.051684 -0.138663 -0.027534
-0.069982 0.437134 0.042142
0.024084 -0.372556 -0.050758
0.089749 -0.118545 -0.039636
-0.030017 0.438528 0.043329
-0.027440 -0.416118 0.043290
0.079940 0.458721 0.106992
-0.086748 0.437071 -0.078876
0.117599 0.439030 -0.104349
0.081954 -0.103065 -0.036569
-0.039611 0.439339 -0.098149
-0.097717 0.441501 -0.093786
-0.107979 0.439386 -0.030126
-0.073930 0.441427 -0.039813
0.094450 0.441124 0.004313
0.102549 0.437866 -0.087649
-0.055790 -0.426193 0.059844
-0.068204 0.443041 0.069819
0.045756 0.438762 0.015228
-0.062177 -0.384048 0.066473
0.010870 -0.390271 -0.026238
-0.097771 0.437704 -0.054695
-0.028250 0.441646 -0.108221
-0.065200 -0.431745 -0.031705
-0.078473 -0.404987 0.066674
0.004465 -0.332387 0.051735
0.108884 0.438393 -0.034188
0.085276 0.438438 -0.091042
-0.012336 0.439674 -0.100541
0.022078 0.442469 0.045574
-0.059545 0.070883 -0.051007
0.011178 -0.371503 0.073960
0.102241 0.449989 0.106632
-0.063297 -0.062370 -0.051020
0.019998 0.442791 -0.093086
-0.012162 0.437715 -0.083543
-0.083933 0.438177 -0.029230
-0.007292 -0.322298 -0.005022
0.089440 0.442612 0.034846
0.120604 0.439770 0.014352
0.059644 0.440185 -0.107674
0.092952 -0.188168 0.064017
-0.089726 0.437219 -0.006651
-0.013363 0.442356 -0.068881
0.037136 0.437586 0.064241
-0.045287 0.442584 0.082462
0.031881 0.440881 -0.100001
0.071090 -0.095672 -0.036230
-0.033226 0.438603 -0.049977
-0.014011 0.441506 0.073764
0.042362 0.439007 -0.091284
0.020455 0.441011 -0.076447
-0.020054 0.442761 -0.046000
-0.078068 0.441864 -0.000623
-0.008225 0.442801 -0.054694
-0.113112 -0.364677 0.062246
0.117515 0.441030 0.040733
-0.048506 0.440872 0.026576
-0.041439 -0.435535 -0.028981
0.069524 0.453230 0.106251
-0.041982 -0.420082 -0.061835
0.003592 0.228393 -0.053147
0.000623 -0.242866 -0.051733
0.094555 -0.169610 0.056802
-0.073053 0.441979 0.102903
0.003338 -0.281906 -0.052658
-0.068307 0.438583 -0.057757
0.071774 0.439183 -0.114427
0.113401 0.459268 0.094931
0.031065 0.441084 -0.068432
-0.003330 0.440047 -0.040921
0.070742 0.441571 -0.098221
0.064364 0.442011 0.067197
-0.058506 0.435705 0.049227
0.077907 -0.109314 -0.026438
0.046194 0.440753 -0.062060
0.032313 0.439596 -0.051095
-0.019246 0.442397 -0.014638
-0.039979 0.441292 0.001465
0.015804 0.442798 0.076941
0.010292 0.442948 -0.037241
0.058417 0.441993 -0.057261
-0.059852 0.441114 0.034603
0.022350 -0.378107 0.064689
0.031275 0.440256 -0.036133
-0.060701 -0.307134 0.045930
-0.099654 0.440010 0.016551
-0.059420 0.102781 0.047372
-0.061067 0.030500 0.046739
-0.061424 0.254332 0.046134
0.049756 -0.067924 0.052057
-0.029704 0.050506 -0.061280
0.015240 -0.460927 -0.089351
0.095049 0.518495 -0.095660
0.037159 0.375789 -0.010836
-0.055898 -0.471071 -0.076185
-0.087306 -0.460130 0.002600
-0.091331 0.507499 -0.045767
-0.044082 0.143385 0.059740
-0.056936 -0.041905 0.040182
-0.045400 -0.469519 0.088768
0.007532 -0.467849 0.025704
0.077878 -0.223422 -0.035389
0.008430 -0.195828 -0.078258
-0.082850 -0.030601 -0.037982
0.059805 0.335043 0.055811
0.053460 0.175359 0.015772
-0.076318 -0.093559 0.003684
-0.050794 0.318737 0.038671
0.031121 0.502345 -0.129316
0.071502 0.237517 -0.053484
-0.024059 0.111672 -0.012471
-0.087441 -0.164109 -0.024720
-0.047238 0.149075 -0.065962
0.098341 0.422369 -0.034218
0.102426 0.368946 0.025939
-0.045843 0.366068 0.098604
0.047385 -0.120826 -0.078987
-0.047509 0.297875 -0.057224
-0.085523 0.423168 -0.023618
0.064458 -0.420288 -0.030535
-0.069300 0.378029 0.040310
-0.110296 0.487413 -0.006835
-0.046604 -0.136812 -0.080491
-0.045959 0.191382 0.047407
-0.015362 -0.176676 -0.003673
0.044080 -0.426349 -0.106910
0.075093 -0.297152 0.005688
0.022400 -0.370187 0.080069
-0.055497 -0.368988 0.010447
-0.032220 -0.359198 0.089244
0.000390 -0.257855 0.059979
-0.069097 0.064740 0.041658
-0.057421 0.506479 -0.110837
0.031713 0.166373 0.067950
0.040233 -0.023867 0.005085
0.059694 0.008812 -0.074010
0.074883 -0.458424 0.016263
0.050819 -0.472776 -0.064498
-0.045525 0.471618 0.124117
-0.063924 -0.141562 0.045773
0.072774 -0.192419 0.039487
0.080753 -0.084599 -0.018037
0.048690 -0.227569 0.024905
0.055038 0.411477 -0.079219
-0.093121 0.498888 0.014124
-0.058657 0.360437 -0.069801
0.081810 0.486061 0.040771
-0.001973 0.069397 0.070549
0.052819 -0.460068 0.011742
-0.052868 0.012126 0.064251
-0.059748 0.441848 0.011620
0.139529 0.508646 0.032778
-0.053616 0.084123 -0.028592
-0.021494 -0.257521 -0.045027
-0.069709 0.236976 0.014088
0.060684 -0.056230 -0.054902
0.082868 0.471431 0.042108
0.058281 0.102448 -0.045850
-0.023102 0.224857 0.012315
0.073476 0.341777 -0.055020
0.073029 -0.110105 0.093381
0.058897 0.269554 0.053929
-0.024051 0.497386 0.079611
0.063467 0.495427 -0.047973
-0.043556 -0.179388 0.075916
0.069013 -0.149742 0.022630
-0.010745 -0.050129 0.076875
-0.031907 0.005298 0.006062
0.043058 -0.417399 0.075572
0.021175 -0.470883 -0.021415
-0.060845 -0.279923 -0.052231
-0.040970 -0.076480 0.082097
0.019167 -0.037776 -0.025908
0.074401 0.418867 0.079563
-0.062179 -0.416252 -0.032149
0.017921 0.329009 -0.079643
0.083709 0.073438 -0.006953
0.034581 -0.156389 0.073276
-0.050489 -0.432225 0.049786
0.048359 0.198974 0.059278
0.014118 -0.448961 0.111317
-0.047807 -0.208854 -0.039577
-0.029214 -0.296241 0.003272
0.071010 -0.172394 -0.071157
0.054361 -0.478125 0.073359
-0.045522 0.277912 0.067283
-0.022181 -0.427197 -0.056102
0.081079 0.536515 0.118510
0.053067 -0.341733 0.075934
-0.094356 0.461898 -0.071745
-0.002635 0.441382 -0.088969
0.021543 0.072205 -0.054659
-0.008127 -0.452045 -0.025083
0.008595 0.252705 -0.067115
0.002790 0.268549 0.067273
-0.012398 -0.343474 -0.068415
-0.074098 0.300597 -0.019194
-0.080945 -0.236451 0.024711
0.043582 -0.327176 0.010980
0.035061 0.492846 0.111846
0.008941 0.416155 0.083055
-0.043710 0.208775 -0.035333
0.069104 -0.389170 0.006367
0.054390 -0.267635 -0.096537
-0.011679 -0.392048 0.073378
0.137465 0.516088 -0.023208
-0.061280 -0.082667 -0.036826
-0.099412 0.516377 0.067307
-0.011465 0.499463 -0.009409
0.011006 -0.396926 -0.067053
0.056251 0.295990 -0.012099
0.050056 0.081673 0.041361
0.072015 -0.037321 0.027671
0.132416 0.468506 -0.003878
0.051174 0.156264 -0.050477
0.043837 0.035888 0.074726
-0.024294 -0.058469 -0.066224
