0.014185 -0.334896 0.068991
0.013482 -0.330219 0.066320
0.015847 -0.334047 0.068078
0.009554 -0.336072 0.069177
0.010695 -0.339135 0.071509
0.009230 -0.343138 0.073396
0.020632 -0.343404 0.071239
0.014890 -0.339111 0.071750
0.004506 -0.337714 0.070194
0.017445 -0.344983 0.073225
0.016452 -0.336477 0.069074
0.017263 -0.337755 0.070042
-0.000765 -0.344106 0.072756
0.005491 -0.340576 0.071607
0.012052 -0.340590 0.073105
0.016795 -0.340734 0.072078
0.014799 -0.342860 0.073449
0.006585 -0.331968 0.067438
0.021558 -0.336777 0.065669
0.013175 -0.337695 0.071214
0.018858 -0.332654 0.064992
0.015154 -0.336892 0.068724
-0.009080 -0.338321 0.069116
0.022956 -0.339827 0.067038
0.011034 -0.334045 0.068909
0.013696 -0.336604 0.070655
-0.051628 -0.450278 -0.028892
-0.046050 -0.432516 -0.036174
-0.036329 -0.456778 -0.042200
-0.052650 -0.436810 -0.049190
-0.034158 -0.432500 -0.051112
-0.060564 -0.427189 -0.041009
-0.037956 -0.437451 -0.065728
-0.040858 -0.422094 -0.059750
-0.032484 -0.437254 -0.040786
-0.047187 -0.453414 -0.030749
-0.062471 -0.461517 -0.041918
-0.068235 -0.452027 -0.033048
-0.056828 -0.458137 -0.029380
-0.040193 -0.449916 -0.036154
-0.051854 -0.424261 -0.030578
-0.064970 -0.436418 -0.027253
-0.043472 -0.460754 -0.035827
-0.040536 -0.460013 -0.054176
-0.069059 -0.464315 -0.029207
-0.065698 -0.453881 -0.023810
-0.048466 -0.464433 -0.039465
-0.054755 -0.449613 -0.055755
-0.037886 -0.428489 -0.034423
-0.041057 -0.444460 -0.032465
-0.045184 -0.438768 -0.027710
-0.048084 -0.455035 -0.047640
-0.055701 -0.444115 -0.024010
-0.046889 -0.447007 -0.044037
-0.033204 -0.419170 -0.047146
-0.058008 -0.462089 -0.026535
-0.033170 -0.443118 -0.053924
-0.059436 -0.442392 -0.027924
-0.041522 -0.446680 -0.027640
-0.042392 -0.441196 -0.025803
-0.036592 -0.447982 -0.032617
-0.033250 -0.445220 -0.037713
-0.033517 -0.441445 -0.031690
-0.042863 -0.454922 -0.030819
-0.035972 -0.441479 -0.031130
-0.034512 -0.432376 -0.029765
-0.036021 -0.438600 -0.029051
-0.040275 -0.444441 -0.026955
-0.042964 -0.448340 -0.025766
-0.045632 -0.451407 -0.026654
-0.038034 -0.450689 -0.032750
-0.040330 -0.448228 -0.028817
-0.044106 -0.446107 -0.025625
-0.038653 -0.452491 -0.034076
-0.035849 -0.443063 -0.030307
-0.037889 -0.445855 -0.030848
-0.050516 -0.453267 -0.026750
-0.047936 -0.449554 -0.024299
-0.042754 -0.449708 -0.027312
-0.037949 -0.449537 -0.032439
-0.040970 -0.451377 -0.029713
-0.040920 -0.436028 -0.024898
-0.029805 -0.441989 -0.036264
-0.040836 -0.446449 -0.026673
-0.030255 -0.434990 -0.032929
-0.036973 -0.445413 -0.037805
-0.049763 -0.447316 -0.025179
-0.032748 -0.446689 -0.036058
-0.038958 -0.439666 -0.027149
-0.040717 -0.444179 -0.026323
0.022634 -0.368710 0.068963
0.032085 -0.365612 0.059593
0.030230 -0.373269 0.057592
0.033582 -0.372430 0.051101
0.030727 -0.366970 0.062488
0.024466 -0.379925 0.056691
0.034422 -0.367602 0.055275
0.033384 -0.359884 0.061256
0.029005 -0.364807 0.065382
0.032047 -0.369302 0.059985
0.025470 -0.371221 0.064917
0.023017 -0.374006 0.064395
0.022632 -0.375110 0.063299
0.028698 -0.372492 0.060678
0.029260 -0.369932 0.061975
0.028245 -0.377182 0.054355
0.032227 -0.367271 0.060332
0.028938 -0.370232 0.061722
0.021217 -0.377700 0.061160
0.021142 -0.372300 0.067161
0.025345 -0.373490 0.062534
0.030959 -0.374941 0.053815
0.027067 -0.375484 0.059057
0.027110 -0.361395 0.068437
0.034022 -0.369982 0.056401
0.027388 -0.369679 0.063728
0.031708 -0.362411 0.063167
0.034128 -0.370661 0.045969
0.027758 -0.372039 0.060482
0.028200 -0.371432 0.060599
0.031184 -0.364342 0.062359
0.025499 -0.367420 0.067492
-0.044016 -0.434360 -0.026513
-0.053804 -0.428150 -0.024411
-0.041415 -0.436094 -0.028131
-0.039435 -0.433329 -0.030399
-0.040012 -0.429235 -0.029846
-0.046704 -0.444159 -0.024856
-0.045014 -0.428394 -0.027008
-0.045099 -0.420526 -0.029065
-0.042797 -0.426251 -0.028822
-0.049236 -0.430545 -0.024897
-0.048350 -0.435491 -0.023936
-0.049554 -0.439408 -0.023672
-0.039753 -0.439696 -0.029131
-0.045464 -0.435550 -0.025480
-0.051935 -0.432616 -0.023792
-0.042908 -0.441969 -0.027307
-0.043074 -0.430862 -0.027853
-0.042245 -0.432998 -0.028263
-0.054761 -0.441481 -0.022893
-0.052267 -0.436703 -0.023199
-0.047240 -0.437446 -0.024522
-0.043284 -0.437641 -0.026626
-0.045384 -0.439856 -0.025278
-0.050091 -0.423232 -0.025859
-0.037021 -0.430379 -0.032457
-0.047019 -0.433615 -0.024898
-0.038949 -0.423946 -0.031879
-0.044671 -0.432496 -0.026343
-0.057640 -0.433670 -0.023015
-0.036930 -0.435762 -0.032099
-0.047959 -0.426644 -0.026208
-0.045963 -0.431376 -0.025604
-0.066784 -0.459486 -0.046401
-0.067883 -0.439995 -0.057690
-0.043754 -0.465924 -0.057466
-0.071178 -0.443279 -0.060287
-0.055638 -0.441243 -0.065070
-0.077516 -0.432886 -0.056609
-0.060437 -0.443938 -0.068813
-0.066845 -0.427243 -0.066404
-0.045491 -0.445741 -0.063259
-0.060777 -0.465264 -0.040045
-0.072474 -0.463785 -0.051115
-0.079800 -0.455253 -0.047363
-0.067604 -0.463981 -0.047948
-0.059446 -0.457494 -0.056358
-0.073703 -0.430260 -0.051594
-0.080849 -0.442007 -0.045827
-0.051608 -0.469237 -0.045724
-0.052753 -0.464957 -0.061500
-0.075924 -0.466716 -0.040101
-0.077751 -0.462328 -0.035122
-0.058693 -0.468377 -0.048941
-0.070494 -0.453111 -0.062582
-0.061240 -0.436059 -0.056847
-0.051246 -0.457839 -0.049570
-0.064349 -0.447539 -0.048436
-0.063179 -0.460448 -0.058329
-0.073917 -0.452020 -0.040301
-0.065085 -0.452010 -0.055712
-0.053872 -0.427323 -0.067005
-0.067676 -0.468603 -0.036885
-0.049506 -0.451912 -0.066692
-0.075351 -0.449557 -0.050309
0.005940 -0.327614 0.052763
-0.001296 -0.324719 0.048830
0.006826 -0.327629 0.051826
0.006840 -0.327254 0.049706
0.007021 -0.325733 0.051593
0.003573 -0.339964 0.051380
0.005171 -0.325669 0.050260
0.005014 -0.315209 0.050517
0.006035 -0.324162 0.051720
0.003719 -0.326558 0.050301
0.003455 -0.327475 0.050463
0.002228 -0.331218 0.050663
0.008589 -0.331434 0.052453
0.005455 -0.327199 0.051519
0.001023 -0.327207 0.050147
0.005709 -0.333447 0.051593
0.005970 -0.326803 0.051438
0.006171 -0.326892 0.051826
-0.002551 -0.334920 0.049673
0.000762 -0.328902 0.050280
0.003923 -0.327871 0.051381
0.005426 -0.328187 0.051435
0.005000 -0.330170 0.051594
0.002190 -0.320245 0.050118
0.008579 -0.326252 0.051749
0.004666 -0.327159 0.050857
0.007442 -0.321618 0.051809
0.004805 -0.327165 0.046331
-0.006819 -0.327470 0.048521
0.010453 -0.327823 0.051552
0.004178 -0.323488 0.050627
0.004921 -0.326591 0.051449
0.022384 -0.342552 0.070302
0.028479 -0.337935 0.053422
0.031132 -0.344268 0.057792
0.030943 -0.342940 0.048361
0.028989 -0.340348 0.061577
0.031262 -0.350967 0.059918
0.029703 -0.339003 0.050114
0.027327 -0.336138 0.058191
0.026307 -0.339240 0.064552
0.030325 -0.340136 0.055609
0.027104 -0.341945 0.065250
0.026562 -0.345178 0.066749
0.026864 -0.348537 0.067747
0.030055 -0.342717 0.060307
0.029876 -0.340643 0.059601
0.031458 -0.347513 0.056250
0.029386 -0.339118 0.057552
0.029154 -0.342446 0.062102
0.028961 -0.349077 0.063705
0.024123 -0.344303 0.068559
0.028896 -0.345347 0.064071
0.031295 -0.344659 0.052336
0.030602 -0.345945 0.061063
0.023569 -0.337947 0.066239
0.031010 -0.341958 0.054284
0.027750 -0.340582 0.063264
0.026672 -0.337773 0.062203
0.029951 -0.340644 0.042837
0.030159 -0.341862 0.057404
0.028523 -0.343895 0.063608
0.028086 -0.338769 0.060299
0.025138 -0.341476 0.067162
0.001428 -0.342003 0.059962
0.002481 -0.327564 0.052532
0.017952 -0.349410 0.047985
-0.007600 -0.331347 0.042457
0.011883 -0.329977 0.045283
-0.012640 -0.323463 0.049400
0.004576 -0.334381 0.035299
0.002226 -0.317731 0.042586
0.018690 -0.333380 0.051972
0.008167 -0.346992 0.065406
-0.015391 -0.352730 0.041969
-0.021440 -0.342856 0.050219
-0.005362 -0.349111 0.053145
0.009837 -0.342289 0.053219
-0.001909 -0.320797 0.060574
-0.015559 -0.331544 0.059052
0.012082 -0.357061 0.056977
0.007729 -0.353591 0.038316
-0.018649 -0.359296 0.056429
-0.014358 -0.345581 0.064195
0.000570 -0.367210 0.049734
-0.010030 -0.341256 0.036159
0.010435 -0.324688 0.057759
0.015162 -0.339241 0.060617
0.008252 -0.333727 0.063878
-0.000637 -0.346153 0.041895
-0.002849 -0.337262 0.066678
0.000314 -0.337510 0.048404
0.014557 -0.317671 0.050446
-0.002962 -0.356521 0.064436
0.014726 -0.339157 0.040770
-0.008474 -0.336410 0.056136
-0.054240 -0.341871 -0.049866
-0.060257 -0.320704 -0.059024
-0.029277 -0.358961 -0.061448
-0.073697 -0.324155 -0.069457
-0.049473 -0.324308 -0.067644
-0.081634 -0.307716 -0.063562
-0.056423 -0.327173 -0.074728
-0.064952 -0.301717 -0.069711
-0.036016 -0.332568 -0.059569
-0.044808 -0.356069 -0.038890
-0.066486 -0.358043 -0.068947
-0.086241 -0.342505 -0.062614
-0.054885 -0.354826 -0.056569
-0.043650 -0.350167 -0.060476
-0.067939 -0.303616 -0.048814
-0.082609 -0.319907 -0.049477
-0.035122 -0.371205 -0.050831
-0.041600 -0.365373 -0.071604
-0.070861 -0.369410 -0.053627
-0.071779 -0.350189 -0.042359
-0.047862 -0.381361 -0.058766
-0.064724 -0.340667 -0.074454
-0.051397 -0.315587 -0.053735
-0.035473 -0.344839 -0.049440
-0.048730 -0.330593 -0.044731
-0.050880 -0.350038 -0.071199
-0.062266 -0.334932 -0.035479
-0.054664 -0.336323 -0.064454
-0.048873 -0.303681 -0.062751
-0.052525 -0.369204 -0.042045
-0.041361 -0.342294 -0.071029
-0.070008 -0.331529 -0.058375
0.034101 -0.363621 0.059683
0.034052 -0.356510 0.042728
0.032627 -0.369363 0.044848
0.030491 -0.367003 0.038073
0.037150 -0.360767 0.049785
0.025731 -0.377519 0.044849
0.033499 -0.359565 0.039912
0.036686 -0.352454 0.046035
0.037296 -0.358728 0.052224
0.035195 -0.361907 0.044831
0.035746 -0.365051 0.053228
0.033428 -0.369799 0.053658
0.029582 -0.372916 0.054004
0.034493 -0.367210 0.048037
0.035710 -0.363176 0.047866
0.028111 -0.373444 0.042193
0.036493 -0.359559 0.046267
0.035472 -0.365154 0.049197
0.027135 -0.374713 0.049268
0.032573 -0.368506 0.056575
0.032740 -0.369789 0.049996
0.028663 -0.370831 0.040070
0.031398 -0.371859 0.047017
0.037194 -0.354914 0.054825
0.033863 -0.364616 0.042986
0.036083 -0.362997 0.051016
0.037407 -0.355416 0.050801
0.029653 -0.363227 0.033402
0.033199 -0.366479 0.045425
0.034724 -0.367051 0.051320
0.037097 -0.357167 0.047970
0.036191 -0.361495 0.055759
0.018373 -0.374980 0.057661
0.022198 -0.363015 0.050214
0.027406 -0.378181 0.048261
0.013408 -0.367985 0.038107
0.030187 -0.360417 0.043350
0.006146 -0.361265 0.045020
0.021389 -0.367759 0.035878
0.024990 -0.352755 0.039046
0.034919 -0.362560 0.051282
0.023965 -0.375799 0.062237
0.000436 -0.386870 0.039509
-0.007281 -0.381799 0.046183
0.009690 -0.384255 0.047678
0.025221 -0.373346 0.052763
0.021331 -0.356087 0.060575
0.000847 -0.370472 0.059727
0.022014 -0.382684 0.054471
0.018921 -0.382218 0.040261
-0.005666 -0.390164 0.051582
0.001395 -0.382044 0.063308
0.014619 -0.389059 0.048629
0.008455 -0.377480 0.034990
0.032084 -0.355545 0.057125
0.029857 -0.369328 0.058021
0.027293 -0.363783 0.066567
0.014699 -0.381170 0.041089
0.016204 -0.370832 0.068303
0.018473 -0.376245 0.046414
0.034171 -0.348529 0.048768
0.009401 -0.386764 0.060687
0.029327 -0.369621 0.042955
0.009073 -0.374859 0.053045
-0.036164 -0.461427 -0.040382
-0.036826 -0.449669 -0.061244
-0.038080 -0.464176 -0.053940
-0.041327 -0.460707 -0.063163
-0.030969 -0.455331 -0.051062
-0.044619 -0.469303 -0.052525
-0.036943 -0.452961 -0.063487
-0.028760 -0.440908 -0.056396
-0.029436 -0.452293 -0.049098
-0.036062 -0.457592 -0.057848
-0.035130 -0.462956 -0.047886
-0.037802 -0.465996 -0.045822
-0.039700 -0.466881 -0.043517
-0.036772 -0.463577 -0.052422
-0.036254 -0.460437 -0.053667
-0.043133 -0.466034 -0.055625
-0.032773 -0.453527 -0.055415
-0.034497 -0.462351 -0.050584
-0.044553 -0.468253 -0.049868
-0.039124 -0.465421 -0.043605
-0.037515 -0.466104 -0.048838
-0.043782 -0.465000 -0.059781
-0.039376 -0.466688 -0.051291
-0.029194 -0.446091 -0.048372
-0.035661 -0.457474 -0.058276
-0.034106 -0.460204 -0.050069
-0.027729 -0.446605 -0.050835
-0.043532 -0.458331 -0.069763
-0.040987 -0.463021 -0.056104
-0.034552 -0.461619 -0.046989
-0.031217 -0.450049 -0.054012
-0.032790 -0.458278 -0.045299
0.017756 -0.329443 0.053213
0.012578 -0.327863 0.047335
0.019387 -0.330142 0.047963
0.018900 -0.330439 0.043577
0.018415 -0.329267 0.048441
0.019587 -0.338540 0.047966
0.017910 -0.328647 0.045414
0.017165 -0.324552 0.047765
0.017826 -0.328228 0.049482
0.017769 -0.328968 0.047774
0.018180 -0.329082 0.048990
0.017207 -0.331053 0.049357
0.019613 -0.333057 0.051007
0.019255 -0.329116 0.048201
0.015743 -0.328910 0.048356
0.019826 -0.333643 0.046487
0.018687 -0.328909 0.048107
0.018796 -0.329540 0.048702
0.012882 -0.334367 0.048992
0.015508 -0.329728 0.051232
0.018966 -0.330003 0.048905
0.019143 -0.329963 0.046430
0.019455 -0.331340 0.048007
0.014268 -0.326281 0.050155
0.019212 -0.329838 0.047600
0.018666 -0.328924 0.048740
0.017555 -0.327448 0.049036
0.018202 -0.329658 0.038269
0.008160 -0.329229 0.048162
0.020338 -0.330826 0.049001
0.017291 -0.327612 0.048408
0.018212 -0.329145 0.050062
-0.044894 -0.424207 -0.029362
-0.043999 -0.413637 -0.047398
-0.035662 -0.424653 -0.041694
-0.035336 -0.422035 -0.052279
-0.039176 -0.420434 -0.039824
-0.036663 -0.433020 -0.037769
-0.038882 -0.416312 -0.051547
-0.044645 -0.407995 -0.043369
-0.043235 -0.418172 -0.037020
-0.038690 -0.418765 -0.045233
-0.040899 -0.422900 -0.035817
-0.041722 -0.427010 -0.033023
-0.039324 -0.430936 -0.031543
-0.037420 -0.422655 -0.040335
-0.040019 -0.420349 -0.040626
-0.035240 -0.428453 -0.042336
-0.039297 -0.417631 -0.043425
-0.038358 -0.423589 -0.038248
-0.041921 -0.430248 -0.034556
-0.045304 -0.425077 -0.031025
-0.038362 -0.426517 -0.035583
-0.035470 -0.424027 -0.047187
-0.036416 -0.426946 -0.038114
-0.049204 -0.413125 -0.035501
-0.035487 -0.420976 -0.046317
-0.040337 -0.420762 -0.037542
-0.043320 -0.414633 -0.039616
-0.036748 -0.418818 -0.059469
-0.042545 -0.420692 -0.041783
-0.036957 -0.425064 -0.036643
-0.042482 -0.415972 -0.040968
-0.042913 -0.422015 -0.034139
0.006508 -0.309530 0.047280
0.004293 -0.286023 0.046373
0.006165 -0.313445 0.046476
0.006064 -0.313350 0.046004
0.007001 -0.299173 0.046807
0.005756 -0.353994 0.045962
0.006082 -0.296439 0.046318
0.006613 -0.220354 0.046991
0.006703 -0.289489 0.047558
0.006297 -0.301860 0.046412
0.006329 -0.310795 0.046131
0.004691 -0.322525 0.046383
0.006864 -0.323976 0.046950
0.006443 -0.311754 0.046368
0.005256 -0.306861 0.046418
0.005671 -0.331035 0.045823
0.006655 -0.297402 0.046785
0.006657 -0.308909 0.046813
0.002960 -0.336545 0.046453
0.004377 -0.315587 0.046408
0.005857 -0.312172 0.046676
0.006344 -0.316159 0.046151
0.006444 -0.320006 0.045895
0.006284 -0.251119 0.045602
0.006149 -0.307886 0.046569
0.006494 -0.308620 0.046238
0.006129 -0.275643 0.047331
0.006287 -0.307713 0.045079
0.000499 -0.310753 0.046331
0.007044 -0.312302 0.047045
0.005971 -0.270217 0.045897
0.007073 -0.304708 0.046752
0.033212 -0.347277 0.058891
0.030553 -0.343507 0.042151
0.034002 -0.352925 0.043509
0.030583 -0.351684 0.036859
0.035363 -0.345999 0.049169
0.032045 -0.360765 0.044036
0.030652 -0.345721 0.039185
0.031612 -0.340681 0.046766
0.034514 -0.344482 0.052726
0.033552 -0.346935 0.043320
0.035623 -0.348409 0.053179
0.034900 -0.352604 0.053210
0.033603 -0.356425 0.053419
0.035218 -0.350636 0.047066
0.035001 -0.347246 0.046995
0.032138 -0.357181 0.040960
0.033953 -0.345248 0.045442
0.035356 -0.348918 0.048859
0.033239 -0.358202 0.048734
0.033937 -0.351283 0.056270
0.035128 -0.353150 0.049836
0.030922 -0.354508 0.038713
0.034512 -0.355150 0.046120
0.032914 -0.342390 0.055606
0.033054 -0.349742 0.041289
0.035307 -0.346855 0.050988
0.033268 -0.342686 0.050727
0.028258 -0.348754 0.033718
0.034461 -0.349777 0.044404
0.035108 -0.350705 0.050434
0.033847 -0.343701 0.048315
0.034558 -0.346217 0.055413
-0.062539 -0.253025 0.051726
-0.060223 -0.157249 0.053788
-0.057009 -0.290840 0.051945
-0.061557 -0.176949 0.052522
-0.056516 -0.150287 0.052298
-0.061622 -0.128048 0.049990
-0.059024 -0.164122 0.051905
-0.060001 -0.099011 0.052411
-0.055866 -0.186718 0.050156
-0.059051 -0.268513 0.049976
-0.062810 -0.311581 0.051665
-0.062210 -0.218130 0.052330
-0.059282 -0.292581 0.052477
-0.054850 -0.240769 0.049819
-0.060559 -0.126161 0.051281
-0.062018 -0.150333 0.050211
-0.056867 -0.364099 0.048763
-0.058829 -0.322184 0.053674
-0.064635 -0.372079 0.050908
-0.063598 -0.262538 0.050863
-0.059314 -0.411246 0.052326
-0.061634 -0.226610 0.052503
-0.056863 -0.130790 0.053222
-0.058203 -0.222397 0.050589
-0.057530 -0.172535 0.050452
-0.062595 -0.253958 0.050675
-0.057745 -0.197468 0.051561
-0.058216 -0.212335 0.052168
-0.055434 -0.112991 0.051970
-0.061543 -0.337288 0.052483
-0.057991 -0.202066 0.052007
-0.063614 -0.192542 0.050742
0.003932 -0.323499 0.039747
-0.006848 -0.329108 0.029057
0.005259 -0.328764 0.026261
0.006289 -0.332410 0.021950
0.003261 -0.326928 0.031702
0.002542 -0.345893 0.021167
0.002499 -0.330013 0.025921
0.003187 -0.323778 0.034698
0.002585 -0.325986 0.034702
0.000914 -0.328862 0.028040
0.001747 -0.326056 0.029972
-0.001060 -0.329579 0.027644
0.006897 -0.332137 0.030150
0.003575 -0.327194 0.027297
-0.003205 -0.327763 0.028753
0.005714 -0.337395 0.019161
0.004303 -0.328333 0.029512
0.004284 -0.326815 0.030245
-0.009103 -0.336874 0.026865
-0.003783 -0.325974 0.034608
0.002280 -0.328003 0.027763
0.004248 -0.330070 0.022896
0.003296 -0.331902 0.024072
-0.004374 -0.322845 0.039506
0.006505 -0.329817 0.028297
0.002822 -0.326890 0.029751
0.005725 -0.325553 0.034958
0.003668 -0.332872 0.017476
-0.016516 -0.329813 0.028867
0.010742 -0.328946 0.029343
0.000656 -0.325441 0.033037
0.003617 -0.324485 0.033660
-0.032285 -0.441607 -0.039336
-0.028715 -0.432536 -0.057283
-0.029934 -0.445052 -0.052012
-0.032514 -0.442314 -0.060137
-0.026054 -0.437800 -0.049557
-0.033256 -0.452765 -0.049608
-0.029677 -0.435362 -0.059890
-0.025344 -0.424833 -0.053269
-0.026371 -0.435368 -0.047320
-0.028197 -0.438156 -0.054725
-0.029124 -0.442404 -0.045928
-0.031292 -0.446530 -0.043808
-0.032827 -0.449657 -0.042965
-0.028934 -0.443277 -0.050034
-0.027896 -0.439972 -0.050865
-0.032789 -0.448722 -0.052893
-0.026636 -0.435361 -0.053018
-0.027878 -0.442106 -0.049093
-0.033532 -0.450776 -0.046673
-0.033202 -0.445308 -0.041347
-0.029984 -0.446246 -0.046946
-0.033477 -0.445806 -0.056808
-0.030554 -0.447651 -0.048971
-0.027312 -0.430146 -0.045908
-0.028999 -0.439956 -0.055858
-0.027777 -0.439924 -0.047832
-0.025341 -0.431322 -0.049172
-0.033891 -0.438944 -0.065070
-0.030530 -0.442278 -0.052547
-0.028615 -0.443505 -0.046317
-0.026108 -0.433255 -0.051415
-0.028737 -0.439247 -0.043991
-0.011624 -0.321333 0.019333
-0.025767 -0.320659 0.007981
-0.012187 -0.322237 0.015206
-0.012789 -0.321216 0.008891
-0.011777 -0.321159 0.014475
-0.016333 -0.338302 0.008646
-0.015158 -0.321653 0.009431
-0.012673 -0.304722 0.010439
-0.012124 -0.320083 0.013236
-0.017656 -0.322777 0.011103
-0.017485 -0.321466 0.012183
-0.019093 -0.326647 0.009706
-0.007814 -0.326402 0.016117
-0.014204 -0.320978 0.014018
-0.022351 -0.322824 0.011022
-0.012568 -0.329403 0.010033
-0.012913 -0.322129 0.014144
-0.013135 -0.321157 0.015503
-0.027228 -0.331449 0.007637
-0.021120 -0.323758 0.012425
-0.016108 -0.322103 0.013422
-0.014589 -0.322460 0.012450
-0.014544 -0.325342 0.012577
-0.018261 -0.314719 0.011129
-0.009944 -0.320875 0.014935
-0.014826 -0.321310 0.013033
-0.009024 -0.316188 0.014402
-0.015808 -0.321977 0.000008
-0.036812 -0.322664 0.008108
-0.005251 -0.321582 0.015795
-0.015994 -0.319356 0.011896
-0.013725 -0.321330 0.014505
-0.046322 -0.416841 -0.053678
-0.059002 -0.414794 -0.057553
-0.045688 -0.417100 -0.058161
-0.044000 -0.415695 -0.061014
-0.044439 -0.414521 -0.058572
-0.052986 -0.433639 -0.057808
-0.046059 -0.414431 -0.059166
-0.046112 -0.405169 -0.058656
-0.045286 -0.413481 -0.058119
-0.049635 -0.415690 -0.057783
-0.050228 -0.417218 -0.057808
-0.053423 -0.423789 -0.057963
-0.044598 -0.423272 -0.057538
-0.046945 -0.416532 -0.057887
-0.055046 -0.417265 -0.057574
-0.048169 -0.426958 -0.059308
-0.045040 -0.415311 -0.058281
-0.045674 -0.415153 -0.057936
-0.065924 -0.427964 -0.056645
-0.056539 -0.419922 -0.055233
-0.050167 -0.418860 -0.057318
-0.047106 -0.419077 -0.058631
-0.049168 -0.422723 -0.058025
-0.052962 -0.410682 -0.057158
-0.041564 -0.413539 -0.058331
-0.047213 -0.415905 -0.057736
-0.043227 -0.410203 -0.058440
-0.046592 -0.415243 -0.065105
-0.072572 -0.417785 -0.057025
-0.039193 -0.417415 -0.058921
-0.048096 -0.413385 -0.057946
-0.047009 -0.415045 -0.057128
0.026588 -0.350485 0.024545
0.005119 -0.343184 0.025728
0.027145 -0.354806 0.025358
0.030523 -0.350214 0.031905
0.026445 -0.343164 0.034969
0.013022 -0.374773 0.015518
0.021976 -0.342193 0.030428
0.018995 -0.336397 0.036323
0.022849 -0.340420 0.035085
0.015618 -0.343437 0.025158
0.014751 -0.351809 0.019828
0.012693 -0.366231 0.015741
0.028291 -0.364404 0.025505
0.022821 -0.353208 0.021693
0.009882 -0.347048 0.021937
0.024364 -0.370488 0.019669
0.025547 -0.344100 0.030329
0.027645 -0.346378 0.029870
0.001007 -0.366615 0.014547
0.006901 -0.357552 0.016761
0.016251 -0.357196 0.019138
0.024687 -0.358794 0.021314
0.020015 -0.365453 0.017938
0.009896 -0.337817 0.029818
0.030665 -0.345553 0.038675
0.018940 -0.348062 0.022780
0.026402 -0.339288 0.040957
0.024192 -0.346577 0.025567
0.000412 -0.351900 0.019482
0.032464 -0.356630 0.033354
0.016927 -0.339926 0.029909
0.020796 -0.344949 0.026169
-0.061640 -0.163464 0.047503
-0.061908 -0.151559 0.043921
-0.061416 -0.166277 0.044274
-0.061734 -0.166197 0.043387
-0.061087 -0.159542 0.044573
-0.061640 -0.200299 0.044461
-0.061780 -0.157639 0.043668
-0.061801 -0.131814 0.044289
-0.061414 -0.156099 0.045145
-0.061238 -0.160865 0.044301
-0.061434 -0.164685 0.044494
-0.062542 -0.172282 0.045204
-0.061402 -0.175444 0.045716
-0.061556 -0.165397 0.044396
-0.061407 -0.162087 0.044617
-0.062216 -0.179371 0.043990
-0.061308 -0.156378 0.044468
-0.061602 -0.164360 0.044567
-0.061678 -0.186022 0.044499
-0.062334 -0.167620 0.046241
-0.061911 -0.165693 0.044584
-0.061733 -0.167693 0.043914
-0.061339 -0.170537 0.044117
-0.061259 -0.140753 0.044465
-0.061229 -0.164363 0.044529
-0.061633 -0.163357 0.044294
-0.061538 -0.151563 0.045104
-0.062029 -0.162718 0.042124
-0.061716 -0.164871 0.044198
-0.061238 -0.165678 0.045076
-0.061448 -0.146492 0.044033
-0.061538 -0.161238 0.045506
-0.023280 -0.315722 0.022112
-0.027421 -0.315605 -0.001566
-0.024470 -0.317049 -0.000372
-0.022717 -0.318179 -0.010924
-0.024302 -0.318646 -0.000109
-0.023439 -0.336737 -0.000150
-0.024512 -0.318717 -0.006688
-0.021501 -0.293182 0.001115
-0.023808 -0.317803 0.002487
-0.024899 -0.319445 -0.001062
-0.025776 -0.316384 -0.000028
-0.027217 -0.319735 0.001370
-0.020701 -0.321971 0.006554
-0.024634 -0.316310 0.000006
-0.026259 -0.318470 -0.000436
-0.022738 -0.324506 -0.004500
-0.023654 -0.318032 0.001021
-0.025816 -0.317578 0.000721
-0.029325 -0.326761 0.002339
-0.027286 -0.317304 0.011592
-0.025890 -0.316771 0.000471
-0.025306 -0.317241 -0.003724
-0.025333 -0.319800 -0.001393
-0.025464 -0.308051 0.005544
-0.021254 -0.317482 -0.001933
-0.024393 -0.316954 0.000015
-0.019707 -0.312037 0.003267
-0.024469 -0.318444 -0.024115
-0.035000 -0.317414 0.000036
-0.015399 -0.316564 0.000024
-0.024767 -0.315037 -0.000965
-0.024259 -0.317655 0.005166
0.004630 -0.315582 0.045263
0.007226 -0.231122 0.047645
0.009039 -0.342983 0.045603
0.004815 -0.255783 0.047006
0.008283 -0.219131 0.046957
0.006897 -0.195701 0.044363
0.006569 -0.237280 0.046852
0.007183 -0.152298 0.047369
0.007983 -0.264821 0.046163
0.007155 -0.328477 0.046948
0.001064 -0.353607 0.042255
0.001554 -0.288299 0.045394
0.004595 -0.340930 0.046160
0.008245 -0.309536 0.043998
0.007205 -0.183280 0.045032
0.004754 -0.226012 0.043771
0.007824 -0.385394 0.045512
0.006674 -0.362276 0.044335
0.001296 -0.390202 0.046033
0.001791 -0.323934 0.044994
0.004322 -0.421689 0.044993
0.003799 -0.302711 0.045414
0.007098 -0.200256 0.047280
0.008428 -0.294615 0.046329
0.007229 -0.243882 0.045373
0.003565 -0.319952 0.043924
0.008377 -0.273026 0.045813
0.007115 -0.290104 0.045348
0.008707 -0.168390 0.047591
0.004143 -0.367987 0.047317
0.007071 -0.279033 0.045027
0.002825 -0.268613 0.044665
-0.063801 -0.143832 0.045142
-0.062022 -0.111899 0.043736
-0.062532 -0.157411 0.043346
-0.062623 -0.124338 0.042127
-0.061344 -0.108414 0.041645
-0.062637 -0.093185 0.043079
-0.062924 -0.118181 0.040581
-0.062987 -0.059012 0.041896
-0.059634 -0.129339 0.043869
-0.062264 -0.153367 0.047717
-0.063840 -0.163935 0.042968
-0.064741 -0.133690 0.042923
-0.061906 -0.159184 0.044201
-0.061605 -0.145472 0.042928
-0.061233 -0.086432 0.045628
-0.062803 -0.113355 0.043851
-0.063030 -0.187235 0.044152
-0.062760 -0.168529 0.043240
-0.062589 -0.194868 0.043902
-0.064422 -0.150262 0.045784
-0.063458 -0.232594 0.044819
-0.062667 -0.143792 0.041181
-0.061942 -0.098454 0.045054
-0.062182 -0.136934 0.045849
-0.061020 -0.118162 0.048117
-0.063215 -0.151685 0.041140
-0.061766 -0.133773 0.049777
-0.062471 -0.137983 0.041859
-0.061101 -0.073958 0.042749
-0.062551 -0.172581 0.047219
-0.063092 -0.133644 0.041072
-0.062773 -0.129050 0.043354
-0.032872 -0.423860 -0.050410
-0.045038 -0.417728 -0.065870
-0.036088 -0.427160 -0.057753
-0.039507 -0.423803 -0.062319
-0.033408 -0.420402 -0.056895
-0.039309 -0.436746 -0.058844
-0.040545 -0.418683 -0.065092
-0.036655 -0.410189 -0.061580
-0.033456 -0.418489 -0.056810
-0.039474 -0.420907 -0.063556
-0.035711 -0.424174 -0.058555
-0.036657 -0.429784 -0.057654
-0.032357 -0.431930 -0.049901
-0.035802 -0.424110 -0.059325
-0.039807 -0.423100 -0.062139
-0.037823 -0.432398 -0.059308
-0.035367 -0.419847 -0.059626
-0.034285 -0.423719 -0.056647
-0.042755 -0.433390 -0.060490
-0.038049 -0.427176 -0.056921
-0.035977 -0.427259 -0.058090
-0.040140 -0.427587 -0.061851
-0.036263 -0.430651 -0.058411
-0.037122 -0.415087 -0.059129
-0.034903 -0.421483 -0.057519
-0.035164 -0.422674 -0.059053
-0.032531 -0.415284 -0.055496
-0.043778 -0.421582 -0.070611
-0.047169 -0.424553 -0.064521
-0.030602 -0.426091 -0.051112
-0.036630 -0.417619 -0.061320
-0.033617 -0.422061 -0.056142
-0.009689 -0.330980 0.011655
-0.010635 -0.323436 0.006491
-0.002234 -0.335229 0.004891
-0.014227 -0.324942 0.003271
-0.003601 -0.324169 0.005222
-0.018476 -0.319943 0.006972
-0.006795 -0.326969 -0.004769
-0.010642 -0.316213 0.002481
-0.001248 -0.326481 0.007566
-0.006179 -0.333328 0.016192
-0.019588 -0.337779 0.003211
-0.026200 -0.330319 0.007964
-0.011853 -0.336245 0.007859
-0.006662 -0.331976 0.008537
-0.013065 -0.318794 0.013820
-0.021980 -0.323619 0.012950
-0.004266 -0.345606 0.008206
-0.006990 -0.342349 -0.000599
-0.020927 -0.349589 0.008599
-0.019001 -0.331992 0.014658
-0.010835 -0.366609 0.005045
-0.014690 -0.330213 -0.001693
-0.006466 -0.321396 0.010929
-0.003446 -0.329371 0.012216
-0.007002 -0.325524 0.016368
-0.010778 -0.333396 0.002077
-0.013198 -0.326885 0.021261
-0.009780 -0.328813 0.005839
-0.004943 -0.318197 0.007873
-0.012195 -0.345929 0.015217
-0.004390 -0.329085 0.002134
-0.015039 -0.327283 0.009294
0.005750 -0.406106 -0.026633
-0.005169 -0.398963 -0.028398
0.009482 -0.408273 -0.028190
0.010786 -0.405742 -0.027219
0.008981 -0.400499 -0.026002
0.004744 -0.414809 -0.036787
0.003659 -0.400025 -0.025662
0.002821 -0.391440 -0.025922
0.005721 -0.396870 -0.025362
0.000293 -0.402355 -0.027155
0.000697 -0.407065 -0.028483
0.000129 -0.410771 -0.032832
0.013148 -0.411116 -0.031362
0.004500 -0.407270 -0.027611
-0.002749 -0.403952 -0.028158
0.009159 -0.412878 -0.034920
0.005765 -0.402367 -0.025624
0.007546 -0.405049 -0.026370
-0.003193 -0.411974 -0.036348
-0.002320 -0.408082 -0.031091
0.002888 -0.409098 -0.029330
0.007053 -0.408886 -0.028774
0.005204 -0.411249 -0.031116
-0.002010 -0.393646 -0.026906
0.013201 -0.402434 -0.026759
0.002052 -0.405156 -0.027030
0.010273 -0.394863 -0.025526
0.004406 -0.404953 -0.026599
-0.007992 -0.405509 -0.031077
0.014813 -0.407482 -0.029159
0.000672 -0.397502 -0.026032
0.002611 -0.403274 -0.026246
0.002592 -0.388350 -0.021580
-0.026265 -0.375640 -0.060290
-0.020513 -0.396593 -0.042179
-0.026223 -0.392404 -0.068631
-0.013732 -0.381847 -0.032107
-0.017771 -0.409330 -0.042647
-0.024823 -0.380262 -0.066840
-0.014248 -0.370007 -0.045266
-0.008589 -0.378457 -0.029734
-0.024252 -0.382587 -0.052203
-0.011338 -0.388911 -0.027274
-0.010432 -0.398920 -0.028872
-0.003452 -0.404469 -0.024157
-0.018489 -0.391520 -0.036852
-0.022320 -0.385335 -0.042382
-0.020982 -0.404832 -0.052599
-0.018108 -0.380007 -0.043246
-0.015333 -0.388994 -0.031112
-0.017116 -0.404923 -0.035891
-0.004763 -0.395314 -0.026402
-0.014480 -0.396777 -0.031222
-0.025896 -0.398172 -0.060674
-0.017610 -0.401867 -0.037077
-0.004887 -0.373873 -0.030562
-0.022733 -0.387071 -0.054349
-0.013869 -0.384701 -0.030193
-0.007370 -0.374109 -0.032323
-0.028808 -0.387350 -0.085266
-0.029378 -0.390600 -0.051507
-0.010503 -0.391615 -0.027186
-0.016070 -0.376910 -0.039032
-0.005202 -0.383861 -0.025636
0.004285 -0.413185 -0.031050
0.008164 -0.402997 -0.035792
0.014487 -0.414295 -0.042044
0.003519 -0.406721 -0.043289
0.016525 -0.401841 -0.043520
-0.002607 -0.401392 -0.034309
0.012152 -0.406630 -0.056676
0.012941 -0.395355 -0.048935
0.019872 -0.403881 -0.038113
0.009899 -0.413477 -0.032208
-0.009089 -0.422158 -0.040471
-0.014387 -0.416715 -0.033024
-0.000946 -0.418863 -0.033776
0.011042 -0.412460 -0.035749
0.004974 -0.397506 -0.029474
-0.009729 -0.408606 -0.027932
0.009466 -0.419390 -0.038092
0.009283 -0.419611 -0.050918
-0.011238 -0.425864 -0.033681
-0.008457 -0.417257 -0.027273
0.003341 -0.426868 -0.040100
0.000850 -0.415006 -0.050401
0.014287 -0.398433 -0.032284
0.013667 -0.406598 -0.033281
0.010198 -0.405301 -0.028498
0.004585 -0.416851 -0.044542
0.001988 -0.409954 -0.026760
0.006793 -0.412150 -0.040504
0.018251 -0.392896 -0.039589
-0.001303 -0.422082 -0.030012
0.016917 -0.408339 -0.048479
-0.002449 -0.410454 -0.029845
0.010312 -0.344346 0.050330
0.012575 -0.323172 0.049922
0.014413 -0.351485 0.049206
0.010269 -0.331039 0.047491
0.014199 -0.319116 0.048545
0.010927 -0.309416 0.048789
0.011499 -0.326793 0.045677
0.011931 -0.284072 0.048070
0.014199 -0.335269 0.050824
0.012894 -0.348529 0.052050
0.006464 -0.351701 0.046591
0.004270 -0.338301 0.048260
0.010057 -0.349456 0.050361
0.012924 -0.343664 0.049071
0.011165 -0.302538 0.048756
0.008628 -0.321229 0.047804
0.014072 -0.363531 0.050891
0.011764 -0.356397 0.045968
0.007355 -0.365115 0.049987
0.006636 -0.345415 0.050750
0.011452 -0.374397 0.048527
0.009174 -0.342429 0.045157
0.011117 -0.312147 0.050213
0.012982 -0.339052 0.050864
0.012053 -0.327367 0.050259
0.011274 -0.345263 0.045750
0.012385 -0.337763 0.051304
0.011855 -0.339605 0.047545
0.013629 -0.295946 0.049964
0.010415 -0.357332 0.052815
0.011994 -0.338448 0.046625
0.009232 -0.333466 0.048655
-0.061109 -0.335170 0.043373
-0.060280 -0.283316 0.044778
-0.057161 -0.351963 0.044557
-0.060844 -0.301099 0.044217
-0.057269 -0.273759 0.044514
-0.061732 -0.257313 0.042472
-0.058870 -0.288606 0.044762
-0.059472 -0.220201 0.044690
-0.057440 -0.304436 0.044083
-0.056542 -0.340918 0.046133
-0.061871 -0.353785 0.040914
-0.061803 -0.316984 0.043181
-0.059726 -0.347211 0.044838
-0.058333 -0.330396 0.042784
-0.059944 -0.245720 0.041140
-0.062780 -0.276141 0.041846
-0.058188 -0.375451 0.046196
-0.058754 -0.359719 0.043784
-0.059629 -0.376613 0.044571
-0.062424 -0.338218 0.043255
-0.060357 -0.396691 0.044999
-0.060710 -0.329695 0.043849
-0.059135 -0.258336 0.043847
-0.056800 -0.320650 0.043558
-0.058442 -0.291224 0.043433
-0.061029 -0.335650 0.043591
-0.058619 -0.312497 0.044689
-0.060073 -0.321032 0.043290
-0.058010 -0.234576 0.043385
-0.058964 -0.360076 0.044495
-0.058231 -0.315287 0.044280
-0.063447 -0.307665 0.042557
-0.001450 -0.326388 0.022604
-0.007436 -0.324574 -0.001147
-0.002269 -0.325572 0.000023
-0.002077 -0.326524 -0.004954
-0.001856 -0.325971 -0.000313
-0.003205 -0.333150 0.000411
-0.001839 -0.325868 -0.002760
-0.000991 -0.314793 -0.000839
-0.000833 -0.325190 0.000875
-0.002274 -0.326882 -0.000816
-0.001558 -0.326434 -0.000031
-0.002703 -0.326527 0.004212
-0.002618 -0.327523 0.006169
-0.001330 -0.325943 -0.000153
-0.004532 -0.327212 -0.000385
-0.002798 -0.328263 -0.001236
-0.001202 -0.326335 -0.000081
-0.002115 -0.326480 0.000357
-0.010846 -0.329109 0.001071
-0.003753 -0.326636 0.013007
-0.002083 -0.326141 0.001407
-0.003011 -0.326188 -0.001603
-0.002463 -0.326934 -0.000386
-0.003555 -0.320766 0.003096
-0.001383 -0.325444 -0.000789
-0.000784 -0.326414 -0.000423
-0.001666 -0.321883 0.001127
-0.002317 -0.326643 -0.011567
-0.015129 -0.326310 -0.000098
0.000139 -0.326021 0.001054
-0.001778 -0.323974 -0.000629
-0.000752 -0.326330 0.008122
0.008175 -0.388589 -0.023530
-0.002701 -0.381104 -0.026914
0.011707 -0.391590 -0.024232
0.013811 -0.387833 -0.025870
0.012231 -0.382277 -0.026745
0.004818 -0.401691 -0.023705
0.006599 -0.381358 -0.025776
0.005993 -0.375671 -0.029555
0.009020 -0.379232 -0.027509
0.001895 -0.383705 -0.025154
0.002137 -0.390033 -0.023621
0.001516 -0.395966 -0.023308
0.013459 -0.396244 -0.024676
0.006364 -0.390588 -0.023021
-0.000710 -0.386206 -0.024540
0.009744 -0.399111 -0.023985
0.008943 -0.383846 -0.025226
0.010409 -0.386665 -0.024745
-0.003063 -0.398104 -0.024500
-0.001523 -0.392247 -0.024135
0.003777 -0.392869 -0.023160
0.008803 -0.393525 -0.023217
0.006313 -0.396298 -0.022935
0.001018 -0.376980 -0.027895
0.016234 -0.384111 -0.027812
0.003997 -0.387467 -0.023724
0.013337 -0.377506 -0.029273
0.006824 -0.386193 -0.024022
-0.005796 -0.388354 -0.025929
0.016570 -0.390790 -0.026654
0.003356 -0.379830 -0.026275
0.004911 -0.384561 -0.024318
-0.061444 -0.125313 0.046043
-0.061871 -0.098359 0.044696
-0.061133 -0.135984 0.045057
-0.061482 -0.130328 0.044349
-0.060871 -0.110216 0.045282
-0.061462 -0.160449 0.045064
-0.061257 -0.107011 0.044876
-0.061351 -0.072626 0.045287
-0.061286 -0.104076 0.045797
-0.061058 -0.113589 0.045000
-0.061283 -0.128844 0.045340
-0.062289 -0.142160 0.045548
-0.061107 -0.144952 0.045685
-0.061412 -0.132134 0.045111
-0.061454 -0.118160 0.045250
-0.061872 -0.147740 0.044735
-0.061117 -0.106476 0.045164
-0.061294 -0.125127 0.045286
-0.062214 -0.152546 0.044981
-0.062365 -0.135455 0.045401
-0.061526 -0.134536 0.045221
-0.061316 -0.138405 0.044761
-0.061417 -0.140415 0.044920
-0.061048 -0.081899 0.044784
-0.061214 -0.122318 0.044978
-0.061708 -0.122002 0.045269
-0.061698 -0.097007 0.045608
-0.061214 -0.119624 0.044237
-0.062131 -0.127641 0.044707
-0.061232 -0.131220 0.045256
-0.061207 -0.088964 0.044957
-0.061124 -0.115771 0.045621
0.015350 -0.414872 -0.034627
0.004749 -0.411269 -0.036129
0.016847 -0.415631 -0.039370
0.018697 -0.415582 -0.044249
0.018297 -0.410695 -0.035731
0.010152 -0.422311 -0.050262
0.014727 -0.412442 -0.038237
0.015677 -0.395976 -0.033523
0.017061 -0.407381 -0.033178
0.011609 -0.414790 -0.035452
0.011360 -0.416024 -0.036512
0.009667 -0.418543 -0.042563
0.018823 -0.417434 -0.042576
0.014921 -0.416509 -0.037419
0.007252 -0.415925 -0.036008
0.016102 -0.419916 -0.049257
0.016256 -0.413883 -0.035513
0.016575 -0.414607 -0.036794
0.002653 -0.420331 -0.045935
0.007298 -0.416742 -0.037620
0.012496 -0.417269 -0.038355
0.015951 -0.417295 -0.041319
0.013777 -0.419088 -0.041874
0.009809 -0.402248 -0.032053
0.020622 -0.411981 -0.038408
0.013727 -0.415507 -0.035748
0.020403 -0.402996 -0.034162
0.014778 -0.416719 -0.050415
-0.002573 -0.416678 -0.037951
0.021615 -0.414356 -0.040509
0.012439 -0.408126 -0.033903
0.013942 -0.413167 -0.034183
0.004810 -0.225737 0.046242
0.004120 -0.194870 0.045238
0.004968 -0.239161 0.045190
0.004669 -0.231124 0.044779
0.005717 -0.209624 0.045451
0.004724 -0.327992 0.045273
0.004578 -0.206301 0.045426
0.005048 -0.137272 0.045856
0.005110 -0.200233 0.046221
0.005215 -0.213643 0.045502
0.005163 -0.229420 0.045305
0.002968 -0.258654 0.045573
0.005193 -0.265316 0.045955
0.004730 -0.232644 0.045214
0.004651 -0.218319 0.045445
0.003627 -0.277582 0.044969
0.005055 -0.207442 0.045652
0.005112 -0.224715 0.045502
0.004340 -0.293416 0.045458
0.003256 -0.241878 0.045595
0.004325 -0.235066 0.045334
0.005254 -0.245354 0.045089
0.004843 -0.251517 0.044713
0.005728 -0.163774 0.044587
0.005207 -0.222226 0.045582
0.004747 -0.223222 0.044961
0.004963 -0.187009 0.046263
0.004750 -0.219878 0.044408
0.002602 -0.226547 0.045206
0.005583 -0.232085 0.046192
0.005014 -0.180336 0.044924
0.005562 -0.216416 0.045482
-0.006531 -0.314796 0.011740
-0.013100 -0.315100 -0.005440
-0.007714 -0.316264 -0.006743
-0.006653 -0.316117 -0.008312
-0.007758 -0.315866 -0.006353
-0.008052 -0.338071 -0.006343
-0.006780 -0.315644 -0.006953
-0.006649 -0.307752 -0.003958
-0.007065 -0.315653 -0.004825
-0.007440 -0.316198 -0.006641
-0.007313 -0.315441 -0.007509
-0.008386 -0.320080 -0.004834
-0.006769 -0.322210 -0.002663
-0.006574 -0.315148 -0.007178
-0.009877 -0.316118 -0.006737
-0.007472 -0.325252 -0.007943
-0.006635 -0.316048 -0.005897
-0.007871 -0.315577 -0.006702
-0.014783 -0.327951 -0.006252
-0.009065 -0.317004 0.003467
-0.007766 -0.316095 -0.007097
-0.007562 -0.316868 -0.007145
-0.007825 -0.319870 -0.007846
-0.009237 -0.312130 -0.002599
-0.006129 -0.315500 -0.005584
-0.006343 -0.315324 -0.007177
-0.007181 -0.313415 -0.003592
-0.006978 -0.315764 -0.012428
-0.020403 -0.316061 -0.005965
-0.003833 -0.317158 -0.006099
-0.007421 -0.314559 -0.006252
-0.006842 -0.315556 -0.001042
-0.051609 -0.400618 -0.061349
-0.059088 -0.373757 -0.076880
-0.018459 -0.407331 -0.068408
-0.068008 -0.377670 -0.075846
-0.039633 -0.377784 -0.080050
-0.077103 -0.368120 -0.072951
-0.052816 -0.379774 -0.080396
-0.058748 -0.359674 -0.079784
-0.024473 -0.384607 -0.076648
-0.037106 -0.407243 -0.049633
-0.070878 -0.401006 -0.062466
-0.084794 -0.391321 -0.061805
-0.058254 -0.403785 -0.062762
-0.044088 -0.394884 -0.075744
-0.068926 -0.362324 -0.072298
-0.082509 -0.377460 -0.065076
-0.026609 -0.417663 -0.057839
-0.038748 -0.405866 -0.071239
-0.068554 -0.412857 -0.050347
-0.073901 -0.399498 -0.048215
-0.043882 -0.418681 -0.057874
-0.065596 -0.390120 -0.074084
-0.047398 -0.368776 -0.077200
-0.027663 -0.397486 -0.067489
-0.045780 -0.384187 -0.066306
-0.052462 -0.397277 -0.073687
-0.064690 -0.388780 -0.056452
-0.055321 -0.385824 -0.073634
-0.035106 -0.362960 -0.080490
-0.055006 -0.413912 -0.047026
-0.034958 -0.390594 -0.079163
-0.073867 -0.384647 -0.070801
-0.052603 -0.357889 -0.042176
-0.065319 -0.352508 -0.067151
-0.046944 -0.363186 -0.068232
-0.048197 -0.363293 -0.072368
-0.052337 -0.357100 -0.064590
-0.047653 -0.388830 -0.068957
-0.054500 -0.355913 -0.071229
-0.057794 -0.347265 -0.065195
-0.056116 -0.353283 -0.060984
-0.054561 -0.355474 -0.067850
-0.053541 -0.357736 -0.062847
-0.055302 -0.366699 -0.059837
-0.043535 -0.372618 -0.058234
-0.050947 -0.358858 -0.067272
-0.058190 -0.355118 -0.065512
-0.046119 -0.376301 -0.073172
-0.052736 -0.356205 -0.066169
-0.050759 -0.358746 -0.064188
-0.062962 -0.374558 -0.063291
-0.059595 -0.359636 -0.049786
-0.051154 -0.362469 -0.063361
-0.050385 -0.363842 -0.071865
-0.049401 -0.368049 -0.068942
-0.063866 -0.348346 -0.056071
-0.046372 -0.360614 -0.066078
-0.053315 -0.355590 -0.064587
-0.053367 -0.352834 -0.062465
-0.052397 -0.360399 -0.076877
-0.072036 -0.358030 -0.064856
-0.038866 -0.365193 -0.062592
-0.056846 -0.351179 -0.064591
-0.053219 -0.355833 -0.055627
-0.034877 -0.376455 -0.034976
-0.045683 -0.367488 -0.062930
-0.030103 -0.375295 -0.057566
-0.030364 -0.372226 -0.064772
-0.033372 -0.371321 -0.059633
-0.036715 -0.388115 -0.052917
-0.038148 -0.368781 -0.065208
-0.040834 -0.364661 -0.061622
-0.037798 -0.369731 -0.058120
-0.038781 -0.370085 -0.062249
-0.037869 -0.373146 -0.056918
-0.040491 -0.379444 -0.051681
-0.026349 -0.383902 -0.047358
-0.036167 -0.371744 -0.059292
-0.040867 -0.370905 -0.059628
-0.032908 -0.381384 -0.058335
-0.036031 -0.369958 -0.060615
-0.033380 -0.373912 -0.056791
-0.045603 -0.382442 -0.052061
-0.042449 -0.376713 -0.043178
-0.036699 -0.377102 -0.055020
-0.035376 -0.373463 -0.061507
-0.035426 -0.378152 -0.056910
-0.044847 -0.368304 -0.055169
-0.025851 -0.371134 -0.060164
-0.037312 -0.370941 -0.058655
-0.033514 -0.367468 -0.059412
-0.035807 -0.370889 -0.069978
-0.048743 -0.371812 -0.059150
-0.018099 -0.376787 -0.055417
-0.040226 -0.369210 -0.059636
-0.034958 -0.373976 -0.050938
0.005103 -0.392244 -0.035563
0.006670 -0.375921 -0.042287
0.021500 -0.396104 -0.045618
0.002531 -0.376874 -0.045188
0.015348 -0.376472 -0.050455
-0.002974 -0.371751 -0.042622
0.011720 -0.378258 -0.055816
0.006105 -0.365194 -0.053886
0.024434 -0.378242 -0.048350
0.012355 -0.394456 -0.037230
-0.001374 -0.400028 -0.039417
-0.008575 -0.391841 -0.036627
0.004822 -0.397229 -0.033885
0.013090 -0.391662 -0.041563
0.001848 -0.370189 -0.040048
-0.005951 -0.379529 -0.034532
0.015710 -0.403100 -0.041177
0.014066 -0.399913 -0.048891
-0.005392 -0.407808 -0.033159
-0.005695 -0.395579 -0.030121
0.009566 -0.409268 -0.039208
0.003450 -0.386474 -0.047609
0.011644 -0.373515 -0.042186
0.016312 -0.385634 -0.040887
0.007808 -0.382471 -0.037557
0.007031 -0.393686 -0.045285
0.001888 -0.385546 -0.032329
0.007805 -0.386615 -0.043685
0.016093 -0.366646 -0.051626
0.002552 -0.405192 -0.029333
0.018376 -0.383037 -0.050582
-0.000421 -0.384269 -0.036059
-0.061565 -0.113737 0.046850
-0.061702 -0.088967 0.044488
-0.060930 -0.126104 0.044978
-0.061456 -0.119733 0.043914
-0.060732 -0.100229 0.045619
-0.061287 -0.152178 0.045353
-0.061056 -0.096983 0.044399
-0.061230 -0.070122 0.045381
-0.061191 -0.095226 0.046190
-0.060784 -0.103044 0.044944
-0.061337 -0.117630 0.045859
-0.062347 -0.132593 0.046172
-0.061193 -0.135812 0.046222
-0.061255 -0.121634 0.045395
-0.061231 -0.106933 0.045456
-0.061726 -0.138890 0.044720
-0.060813 -0.095740 0.045302
-0.061160 -0.114019 0.045503
-0.062034 -0.143855 0.045470
-0.062496 -0.125127 0.046136
-0.061501 -0.124525 0.045466
-0.061247 -0.129056 0.044459
-0.061358 -0.130995 0.045133
-0.061113 -0.076918 0.045579
-0.060989 -0.111592 0.044918
-0.061573 -0.110241 0.045695
-0.061470 -0.089323 0.046045
-0.061272 -0.108074 0.043516
-0.061670 -0.116683 0.044912
-0.061150 -0.120400 0.045787
-0.060940 -0.082119 0.045197
-0.061204 -0.104327 0.046302
-0.060987 -0.320334 -0.053416
-0.062203 -0.299206 -0.054336
-0.061037 -0.332995 -0.054498
-0.060830 -0.325046 -0.054458
-0.060137 -0.307103 -0.053851
-0.061228 -0.386940 -0.054637
-0.061039 -0.304947 -0.054420
-0.061039 -0.278151 -0.053958
-0.060783 -0.302216 -0.053645
-0.061057 -0.309683 -0.054372
-0.061164 -0.323963 -0.053979
-0.062512 -0.346082 -0.054276
-0.060621 -0.350284 -0.053759
-0.061121 -0.327435 -0.054427
-0.061546 -0.313769 -0.054038
-0.061729 -0.357807 -0.055129
-0.060643 -0.306050 -0.054184
-0.060846 -0.319067 -0.054004
-0.062363 -0.367072 -0.054330
-0.062436 -0.334229 -0.053946
-0.061738 -0.330749 -0.054539
-0.060711 -0.337697 -0.054681
-0.061262 -0.342121 -0.054924
-0.061233 -0.286532 -0.054163
-0.060464 -0.316140 -0.053878
-0.061105 -0.317478 -0.054244
-0.060668 -0.296069 -0.053485
-0.060906 -0.314634 -0.055068
-0.062982 -0.321895 -0.054292
-0.060319 -0.327206 -0.053448
-0.061083 -0.293235 -0.054378
-0.060811 -0.311571 -0.053969
-0.051817 -0.432765 -0.048742
-0.050605 -0.413826 -0.060919
-0.031511 -0.438751 -0.055278
-0.057773 -0.417609 -0.068225
-0.039765 -0.412575 -0.067235
-0.062733 -0.409185 -0.065361
-0.048709 -0.416463 -0.072587
-0.050099 -0.401550 -0.070349
-0.026597 -0.417533 -0.060100
-0.042522 -0.437410 -0.043372
-0.066080 -0.443926 -0.060621
-0.071143 -0.432084 -0.059416
-0.057496 -0.441208 -0.053816
-0.044264 -0.430647 -0.058050
-0.054433 -0.405737 -0.056943
-0.065410 -0.418200 -0.054982
-0.039644 -0.450032 -0.045102
-0.047182 -0.442383 -0.063058
-0.069075 -0.453648 -0.047826
-0.063855 -0.437001 -0.047674
-0.052448 -0.456507 -0.051193
-0.060572 -0.427328 -0.069620
-0.040896 -0.409644 -0.055850
-0.033914 -0.426859 -0.047779
-0.042907 -0.419767 -0.049182
-0.054441 -0.433655 -0.064016
-0.053766 -0.424422 -0.048579
-0.051664 -0.424622 -0.063002
-0.035457 -0.400484 -0.065562
-0.057441 -0.451665 -0.041489
-0.036517 -0.424019 -0.066358
-0.060824 -0.424740 -0.058224
0.021729 -0.391160 -0.028278
0.012897 -0.384096 -0.026752
0.024079 -0.393559 -0.030110
0.026099 -0.390487 -0.032099
0.025440 -0.385106 -0.031344
0.018437 -0.402329 -0.028573
0.020588 -0.384385 -0.028572
0.020450 -0.378771 -0.030648
0.022737 -0.382250 -0.030353
0.016717 -0.386680 -0.026805
0.017159 -0.392564 -0.026232
0.015977 -0.397294 -0.026724
0.025351 -0.397639 -0.031548
0.020053 -0.392973 -0.027391
0.014307 -0.388999 -0.026043
0.022409 -0.400058 -0.030525
0.022540 -0.386675 -0.029300
0.023431 -0.389454 -0.029926
0.011569 -0.399779 -0.026731
0.013640 -0.394496 -0.025937
0.018027 -0.395021 -0.026941
0.022039 -0.395405 -0.028797
0.019897 -0.397814 -0.027910
0.016123 -0.380041 -0.027811
0.028201 -0.386891 -0.033896
0.018611 -0.390245 -0.026834
0.026378 -0.380261 -0.033252
0.020785 -0.388996 -0.028028
0.009744 -0.390947 -0.025995
0.028012 -0.393180 -0.033945
0.017941 -0.382758 -0.027968
0.019465 -0.387465 -0.027324
-0.065110 -0.145854 0.048629
-0.063275 -0.111581 0.048385
-0.063717 -0.158265 0.048643
-0.063786 -0.123612 0.048463
-0.063407 -0.107148 0.048189
-0.063462 -0.097793 0.047813
-0.063719 -0.116029 0.048125
-0.063753 -0.069754 0.048224
-0.063212 -0.127950 0.048649
-0.063718 -0.152012 0.049234
-0.063960 -0.163365 0.047943
-0.064405 -0.133175 0.047698
-0.063293 -0.158366 0.048682
-0.063328 -0.144448 0.047350
-0.063063 -0.090417 0.047745
-0.064101 -0.111257 0.047529
-0.063730 -0.183011 0.048360
-0.063499 -0.166974 0.048928
-0.063845 -0.187755 0.048526
-0.064966 -0.149805 0.048579
-0.064203 -0.211367 0.049484
-0.063661 -0.142580 0.048400
-0.064039 -0.099074 0.049009
-0.064054 -0.136674 0.048357
-0.063900 -0.119653 0.048782
-0.064152 -0.148803 0.047801
-0.063329 -0.132464 0.049128
-0.063817 -0.135545 0.048007
-0.063678 -0.080968 0.048275
-0.063468 -0.169905 0.049013
-0.064098 -0.132378 0.047920
-0.064504 -0.127242 0.047879
0.005573 -0.200032 0.046446
0.004955 -0.164798 0.045574
0.005555 -0.207055 0.046125
0.005355 -0.204840 0.045483
0.006406 -0.183314 0.045883
0.005224 -0.254191 0.045788
0.005046 -0.179249 0.045822
0.005876 -0.086981 0.046056
0.005848 -0.170647 0.046897
0.005655 -0.187891 0.046012
0.005969 -0.202478 0.045803
0.004244 -0.217138 0.046226
0.005950 -0.220329 0.046335
0.005413 -0.204348 0.045915
0.005371 -0.194090 0.045943
0.004598 -0.227359 0.045802
0.005619 -0.179953 0.046303
0.005801 -0.199755 0.046063
0.004884 -0.235350 0.045960
0.004162 -0.208559 0.045713
0.005375 -0.205119 0.046113
0.005655 -0.210201 0.045906
0.005747 -0.213936 0.045700
0.006661 -0.122074 0.044150
0.005437 -0.197344 0.045835
0.005200 -0.198257 0.045641
0.005423 -0.154601 0.046364
0.005549 -0.196183 0.045317
0.003570 -0.201191 0.045576
0.005986 -0.204193 0.046116
0.005306 -0.144003 0.044999
0.006074 -0.191968 0.046001
-0.060210 -0.295040 -0.053034
-0.060886 -0.260625 -0.053629
-0.060300 -0.309341 -0.053666
-0.060306 -0.302225 -0.053677
-0.059649 -0.276834 -0.053113
-0.060488 -0.353719 -0.053863
-0.060450 -0.272719 -0.053536
-0.060358 -0.216402 -0.052813
-0.060141 -0.268091 -0.052403
-0.060232 -0.280924 -0.053584
-0.060267 -0.299680 -0.053356
-0.061557 -0.319821 -0.053323
-0.059973 -0.323988 -0.052984
-0.060382 -0.304073 -0.053724
-0.060510 -0.286899 -0.053371
-0.060943 -0.329862 -0.054080
-0.060018 -0.272037 -0.053182
-0.060089 -0.294931 -0.053232
-0.060933 -0.337837 -0.053555
-0.061477 -0.309320 -0.053523
-0.060732 -0.307085 -0.053624
-0.060065 -0.313512 -0.053830
-0.060379 -0.317040 -0.054034
-0.059936 -0.234736 -0.054162
-0.060156 -0.291840 -0.053401
-0.060514 -0.291606 -0.053479
-0.060289 -0.257303 -0.052590
-0.060116 -0.288439 -0.054061
-0.061248 -0.298100 -0.053766
-0.060040 -0.302890 -0.052939
-0.060436 -0.247251 -0.053851
-0.059945 -0.283733 -0.053311
-0.061163 -0.086401 0.047028
-0.061223 -0.059335 0.044836
-0.060558 -0.100449 0.045324
-0.061095 -0.093302 0.044541
-0.060423 -0.071651 0.045985
-0.060826 -0.123660 0.045732
-0.060700 -0.068126 0.044920
-0.060863 -0.041174 0.045879
-0.060817 -0.066470 0.046677
-0.060419 -0.074792 0.045146
-0.060868 -0.090845 0.046263
-0.061775 -0.106438 0.046550
-0.060715 -0.109892 0.046626
-0.060811 -0.095584 0.045664
-0.060767 -0.078865 0.045681
-0.061217 -0.112421 0.045074
-0.060472 -0.066467 0.045628
-0.060734 -0.086863 0.045922
-0.061336 -0.116908 0.045788
-0.061885 -0.098761 0.046365
-0.060988 -0.098786 0.045847
-0.060844 -0.103556 0.044891
-0.060917 -0.105324 0.045454
