0.077918 -0.182098 0.073416
-0.107654 0.443487 -0.106128
-0.060966 0.133388 0.046134
-0.067860 -0.463241 -0.032613
0.114305 0.443485 0.103755
-0.059628 -0.067376 -0.052067
-0.102686 0.443484 0.109089
0.104821 0.443483 -0.108723
-0.059495 -0.267135 -0.051895
0.002961 0.277632 -0.052236
0.071433 0.059052 -0.054052
0.018476 -0.356518 0.075768
0.097230 -0.106942 -0.070223
0.002874 0.443487 0.014575
-0.062085 -0.164228 0.044827
-0.115033 -0.370418 0.064587
0.005865 -0.002115 0.046374
0.068496 0.215117 0.046620
0.027559 -0.375385 -0.064139
-0.061236 0.325925 0.045819
-0.059602 0.062727 -0.052034
0.073275 0.345461 0.046273
-0.059529 0.178872 -0.051939
-0.060104 0.364972 -0.052682
0.119780 0.443488 -0.002032
-0.109435 0.443491 0.003586
-0.000326 0.443487 -0.113308
0.068731 0.083969 0.046948
0.072067 0.364906 -0.053072
-0.060629 -0.286336 0.046528
0.015204 0.443492 0.116688
0.067869 -0.092278 0.045749
0.002968 -0.137686 -0.052227
-0.062140 0.225555 0.044762
-0.042282 -0.420178 0.054751
0.005294 -0.222297 0.045647
-0.002034 -0.325972 0.000933
-0.061500 0.045951 0.045510
-0.052934 -0.357438 -0.066294
-0.060668 -0.085249 0.046482
0.047861 0.443493 -0.050013
-0.047137 0.443496 -0.043426
0.009569 -0.140392 0.057870
0.002678 -0.223544 -0.052633
0.005169 0.374792 0.045488
0.004881 0.180054 0.045121
0.063627 0.443494 0.053833
-0.044597 0.443484 0.065265
0.002974 0.209913 -0.052218
0.005732 0.099445 0.046206
-0.055061 -0.355360 0.046348
0.002962 -0.286660 -0.052235
0.054600 -0.118990 -0.024515
-0.060743 -0.024047 0.046395
-0.034876 -0.421810 -0.057703
0.112069 0.456715 -0.054173
0.005547 -0.405746 -0.025747
-0.059086 0.472526 0.106305
0.111914 0.463058 0.045276
-0.110471 0.443493 -0.048093
0.006596 -0.306443 0.047305
-0.050908 0.443482 -0.111224
0.014258 0.443486 0.063798
0.064509 0.443492 -0.002482
0.065733 0.443493 0.116303
0.061047 -0.141550 0.050299
0.064646 -0.076528 -0.048499
-0.062262 0.443495 0.017276
0.000943 0.443483 -0.062883
-0.108461 0.443490 0.052148
0.048159 0.443494 -0.115308
-0.061917 0.273657 0.045023
-0.060778 -0.314091 -0.053553
0.025521 -0.345105 0.030318
-0.075909 -0.388594 0.068623
-0.013501 -0.366126 -0.051846
-0.027325 0.445182 0.116912
0.100051 -0.163753 0.042087
0.113873 -0.076902 -0.093238
0.081960 -0.141409 -0.053743
0.068453 0.124980 0.046561
0.079540 0.443489 -0.073896
-0.061718 0.172908 0.045256
-0.061357 -0.124701 0.045678
-0.030263 0.443491 -0.006847
-0.061463 0.085333 0.045553
0.071755 0.325725 -0.053554
-0.060620 0.365020 0.046538
-0.056345 -0.426815 -0.025473
0.004889 -0.040247 0.045131
0.068547 0.383083 0.046692
-0.080202 0.443489 -0.070911
0.005916 0.217880 0.046439
-0.034132 -0.460695 -0.049048
-0.060804 -0.104700 -0.053586
-0.060655 0.141901 -0.053395
-0.080100 0.443484 -0.018515
0.005641 0.412644 0.046090
-0.029926 -0.392447 0.035857
0.029950 0.443491 -0.084792
0.019708 0.443493 -0.028774
0.094738 0.443488 0.069506
-0.005885 -0.334092 0.065393
0.090165 0.443491 0.020298
-0.075357 0.443488 0.088458
0.044051 0.443486 0.081908
-0.042007 -0.386514 0.068291
0.087601 -0.117417 -0.029065
0.037586 0.465490 0.106161
0.044182 0.443484 0.027190
0.088673 0.443484 -0.035267
-0.015632 0.443487 0.086343
-0.060414 0.095348 -0.053083
-0.060650 -0.034894 -0.053388
0.018782 -0.382133 0.056072
0.044818 -0.166137 0.062813
-0.087869 -0.364935 0.048613
-0.048980 0.443488 -0.076606
0.002944 0.241523 -0.052261
-0.059705 0.415909 -0.052166
0.002800 -0.255115 -0.052462
-0.032344 0.443487 0.025977
0.030884 -0.405417 -0.043580
0.071692 0.395717 -0.053652
-0.061004 -0.317084 0.046090
-0.061264 0.015312 0.045786
0.020975 -0.374046 -0.034608
0.092162 0.463674 0.106080
0.004792 0.129231 0.045008
-0.016625 0.443493 -0.033241
0.112019 0.463926 -0.022128
0.005846 0.069813 0.046351
0.085578 -0.150516 0.063509
0.001132 0.466333 0.106215
-0.046340 0.443489 0.095461
0.085874 -0.196479 0.049997
0.068718 0.243719 0.046929
0.072854 0.317041 0.045683
0.111860 0.463478 0.080162
-0.078993 0.443496 -0.108734
-0.026533 0.443492 -0.093557
-0.070665 0.443483 0.054902
0.118336 0.443487 0.025864
0.072537 0.443486 0.086260
0.003595 -0.327638 0.029631
-0.016706 0.443485 0.058810
-0.031254 0.470040 0.106263
-0.073166 0.443492 0.115686
-0.102037 0.443489 0.078546
-0.092014 0.443486 0.023658
0.068851 -0.096799 -0.026479
0.058784 0.443490 -0.090116
-0.025124 0.443483 -0.059985
0.114003 0.443488 -0.084426
0.014742 0.443487 0.090733
-0.040468 -0.446831 -0.027309
-0.009010 -0.357617 0.074782
-0.001403 0.443491 -0.012840
0.094467 0.443484 -0.010744
0.034882 -0.364009 0.049691
0.004563 -0.349109 -0.049993
0.044271 0.443493 -0.016673
0.018632 -0.329413 0.049061
0.080328 0.443490 -0.106368
-0.024616 -0.316377 0.000398
0.112134 0.464880 -0.096213
-0.055772 -0.409677 0.071941
0.006908 0.443531 0.040839
0.064972 0.443494 -0.032295
0.034173 0.443492 0.048755
-0.086403 0.443486 -0.048369
-0.033370 -0.357012 -0.079071
-0.051670 -0.371713 0.030013
0.084295 -0.088884 -0.050078
0.111971 0.462616 0.008599
0.122424 0.445059 -0.037145
-0.006556 -0.386149 -0.027203
0.030576 0.443487 0.008548
-0.036185 -0.371721 -0.059456
0.043985 0.443489 0.107790
0.027493 -0.131788 0.046855
0.022328 0.443485 -0.112906
0.069274 -0.120737 0.047702
0.066988 -0.140917 -0.037063
-0.093577 0.463655 0.106326
-0.103597 0.443490 -0.017932
0.093787 0.443487 0.095159
0.033231 -0.396705 -0.063763
0.113773 0.443486 0.055153
-0.004815 0.443487 0.105488
-0.061947 0.194851 0.044988
0.095694 -0.076979 -0.081100
-0.049765 0.443487 0.039122
-0.061676 0.295461 0.045305
0.065840 -0.155380 0.070541
0.005834 -0.200979 0.046335
0.002228 -0.377906 0.068756
-0.030467 -0.400399 0.055508
-0.027516 -0.440677 -0.047837
-0.109910 0.443493 -0.085399
0.092957 -0.169503 0.066992
0.068440 -0.071711 0.046543
0.028812 -0.341366 0.062216
0.041957 -0.146219 0.059034
0.067980 0.063559 0.045903
0.115598 0.443488 0.078702
0.023908 0.443485 0.028172
0.057804 0.464458 0.106131
0.070423 0.443492 0.035186
-0.019674 0.443485 -0.116559
0.004183 0.443491 -0.082123
-0.060742 0.443493 -0.016387
0.096523 -0.118896 -0.054924
-0.037595 -0.421956 -0.038487
0.070175 -0.196347 0.062806
-0.033278 -0.380355 0.052129
0.055049 0.443489 -0.071197
0.082798 0.443493 0.052653
-0.046053 -0.463701 -0.034525
0.008036 -0.364451 -0.060691
-0.059904 -0.295159 -0.052424
0.112095 0.465996 -0.070716
-0.091629 -0.375157 0.064133
-0.059788 -0.449529 -0.022479
0.075666 0.443494 -0.055524
-0.089380 0.443489 0.053533
0.099490 0.443486 -0.058305
-0.071231 -0.372248 0.060846
-0.059492 0.044135 -0.051892
0.019300 0.443482 -0.060301
-0.059945 0.160370 -0.052477
0.032543 -0.386797 -0.041185
0.084052 0.443490 0.114633
0.056256 -0.089379 -0.037525
-0.089748 0.443486 0.005522
-0.058125 0.444965 -0.057730
0.002958 0.259575 -0.052241
0.091801 -0.147986 0.044352
-0.013974 -0.320747 0.014051
-0.019896 -0.361751 -0.068416
-0.060654 0.155195 0.046498
-0.052398 -0.369963 0.056147
0.073204 0.365941 0.046173
-0.055496 0.443494 0.116391
-0.047859 0.457323 0.106288
-0.061035 -0.107157 0.046054
0.022134 0.457216 0.106184
0.020761 -0.389974 -0.027299
-0.062112 0.243066 0.044795
-0.060866 0.115880 0.046251
-0.061533 0.063458 0.045472
-0.060998 -0.006560 0.046097
-0.108281 0.443493 -0.067985
-0.010426 0.443485 0.039486
-0.060958 0.343306 0.046144
0.072014 0.343082 -0.053154
0.083248 -0.135382 -0.035792
0.107158 -0.089554 -0.078961
0.015118 -0.337456 0.071552
0.055842 -0.176467 0.070660
0.005738 -0.019043 0.046213
0.005627 0.395722 0.046072
0.005677 0.201022 0.046135
0.098842 -0.180262 0.040315
0.014785 -0.415392 -0.035671
-0.025820 0.443487 -0.076594
0.078046 0.443493 -0.012697
-0.000637 -0.366156 -0.041832
0.094758 -0.101341 -0.049640
0.074026 0.443491 0.018694
-0.020338 0.455064 0.106247
-0.046233 0.443494 -0.027334
-0.061795 0.443494 -0.032364
0.075091 -0.126387 -0.024825
-0.031724 0.443494 -0.038281
0.119420 0.443489 -0.058479
-0.059709 0.443491 -0.000732
0.093568 -0.085141 -0.067891
0.019496 0.443494 -0.044394
0.111948 0.457911 0.023494
-0.030986 0.443493 -0.022404
0.111882 0.456203 0.066414
0.047789 0.443494 -0.034496
-0.001829 0.443492 -0.028301
0.034654 -0.347480 0.049389
0.019919 0.443490 -0.013457
0.111995 0.463264 -0.006605
-0.070442 0.462557 0.106322
0.028291 -0.370599 0.061543
-0.109977 0.443490 0.037192
-0.061292 0.443490 -0.085183
-0.011438 0.443488 0.010204
0.003797 0.443493 -0.098959
-0.044331 0.443484 -0.062618
0.055833 -0.132394 -0.030392
-0.071776 0.443485 0.040268
0.022481 -0.368010 -0.047891
0.094940 -0.113648 -0.041319
-0.031634 0.443488 0.040601
-0.032347 -0.411757 0.046519
0.077593 0.463448 0.106102
-0.089158 0.443490 -0.082401
0.118247 0.443492 -0.103106
0.086874 -0.096672 -0.038068
-0.042382 0.443492 -0.099455
-0.098315 0.443494 -0.094148
-0.108870 0.443492 -0.031442
-0.073956 0.443482 -0.040264
0.093962 0.443484 0.003678
0.100654 0.443490 -0.089826
-0.057633 -0.421016 0.063274
-0.069583 0.443485 0.069241
0.044212 0.443486 0.012851
-0.063460 -0.381655 0.069674
0.007164 -0.387164 -0.023531
-0.099117 0.443490 -0.056646
-0.031040 0.443495 -0.108024
-0.069888 -0.430108 -0.027785
-0.077632 -0.402460 0.066693
0.005217 -0.326701 0.052367
0.108516 0.443487 -0.035660
0.083484 0.443490 -0.092651
-0.015298 0.443488 -0.102017
0.020710 0.443487 0.044886
-0.059842 0.076689 -0.052343
0.008635 -0.366380 0.076684
0.101747 0.453530 0.106066
-0.059494 -0.053427 -0.051894
0.018842 0.443491 -0.093184
-0.014717 0.443492 -0.084986
-0.085071 0.443485 -0.031890
-0.007176 -0.314990 -0.005859
0.089711 0.443490 0.034170
0.119052 0.443488 0.012044
0.058971 0.443490 -0.106681
0.093919 -0.182086 0.061437
-0.091100 0.443486 -0.010227
-0.014132 0.443485 -0.068284
0.034240 0.443488 0.062497
-0.047169 0.443487 0.081784
0.029841 0.443489 -0.101473
0.075878 -0.088626 -0.039253
-0.036128 0.443488 -0.051703
-0.016162 0.443485 0.072708
0.040831 0.443491 -0.093003
0.019068 0.443490 -0.076582
-0.020827 0.443486 -0.046471
-0.078866 0.443486 -0.002688
-0.009944 0.443486 -0.054680
-0.114420 -0.356857 0.065245
0.117634 0.443487 0.039433
-0.050668 0.443488 0.024332
-0.044520 -0.433460 -0.025137
0.067751 0.454121 0.106116
-0.046488 -0.414813 -0.057780
0.002954 0.227976 -0.052247
0.002707 -0.237083 -0.052592
0.099429 -0.166302 0.055362
-0.074253 0.443491 0.102200
0.002922 -0.273131 -0.052291
-0.071428 0.443483 -0.059656
0.069845 0.443495 -0.114904
0.111839 0.462865 0.093643
0.030060 0.443489 -0.068444
-0.005853 0.443494 -0.041368
0.069552 0.443493 -0.098247
0.063424 0.443490 0.067280
-0.060634 0.439343 0.046522
0.083302 -0.104749 -0.027867
0.044396 0.443482 -0.063137
0.030159 0.443494 -0.052439
-0.019600 0.443491 -0.014892
-0.040926 0.443490 0.001199
0.014504 0.443485 0.077394
0.008834 0.443493 -0.036347
0.058418 0.443493 -0.057978
-0.061228 0.443490 0.032293
0.017870 -0.375004 0.068366
0.030264 0.443494 -0.036740
-0.060863 -0.303910 0.046254
-0.100635 0.443488 0.013725
-0.060669 0.102736 0.046481
-0.061422 0.032819 0.045601
-0.062056 0.256187 0.044860
