-0.064121 -0.450578 0.066137
-0.116271 -0.374312 0.062598
-0.115610 -0.360685 0.063064
-0.077223 -0.405468 0.065862
-0.092149 -0.378983 0.062973
-0.075727 -0.391598 0.067869
-0.054548 -0.412663 0.071465
-0.056598 -0.423428 0.062907
-0.063240 -0.384572 0.068567
-0.071261 -0.375701 0.059957
-0.088319 -0.368510 0.047384
-0.075023 -0.401597 0.039272
-0.040999 -0.422589 0.054270
-0.041132 -0.389291 0.067319
0.005563 -0.418149 0.085232
-0.051813 -0.373445 0.055398
-0.095462 -0.433250 -0.007832
-0.029192 -0.403315 0.054734
-0.030713 -0.414529 0.045593
-0.012825 -0.447515 0.042277
-0.038226 -0.355564 0.065106
-0.054586 -0.358692 0.046148
-0.032470 -0.382915 0.050807
-0.062874 -0.310632 0.061231
-0.008248 -0.360871 0.074068
0.003548 -0.380950 0.068296
-0.051147 -0.374556 0.028966
-0.060970 -0.319874 0.046833
0.009697 -0.369579 0.075931
-0.028547 -0.394936 0.034105
-0.067413 -0.463765 -0.032122
-0.060862 -0.306653 0.047428
-0.059507 -0.450078 -0.022489
0.019217 -0.378521 0.068009
0.019307 -0.359554 0.075055
-0.069854 -0.431730 -0.028070
0.057242 -0.459973 0.055199
-0.061443 -0.288668 0.046933
-0.005556 -0.337276 0.064739
-0.082488 -0.309626 0.013789
0.020282 -0.384963 0.055201
-0.045074 -0.464145 -0.034322
-0.056016 -0.428613 -0.026152
0.015924 -0.340844 0.070935
-0.022218 -0.438626 -0.006666
-0.039545 -0.447834 -0.027744
0.029254 -0.373541 0.060772
-0.044054 -0.434320 -0.025863
-0.073303 -0.452348 -0.059443
0.005538 -0.329536 0.051795
0.029311 -0.344264 0.061493
0.023972 -0.327298 0.062185
-0.089647 -0.355520 -0.038663
0.035820 -0.367362 0.049022
0.053566 -0.383610 0.054498
-0.032661 -0.461475 -0.049301
0.019206 -0.331901 0.048447
-0.037150 -0.423783 -0.039807
0.006618 -0.308920 0.047197
0.035449 -0.350502 0.048434
-0.067987 -0.209370 0.033476
0.003970 -0.330143 0.028769
-0.026262 -0.442001 -0.048770
-0.013924 -0.323435 0.013599
-0.046164 -0.417258 -0.058580
0.026249 -0.347903 0.029281
-0.061700 -0.167804 0.045791
-0.024575 -0.319015 -0.000071
-0.007224 -0.233126 0.053876
-0.038264 -0.166061 0.062230
-0.033909 -0.423724 -0.058889
-0.022923 -0.350766 -0.015266
0.006768 -0.408019 -0.026110
-0.005889 -0.388807 -0.027328
0.037389 -0.435050 -0.020755
0.054717 -0.277817 0.067780
-0.051970 -0.261871 -0.006325
-0.001461 -0.328576 -0.000186
0.007785 -0.389343 -0.024039
-0.061253 -0.128014 0.046675
0.016347 -0.417521 -0.035934
0.004898 -0.225270 0.046154
-0.007030 -0.317290 -0.007016
-0.037456 -0.387497 -0.065160
-0.053092 -0.361687 -0.065801
-0.036138 -0.374813 -0.059287
0.073331 -0.412827 0.004515
-0.060733 -0.110230 0.046394
-0.060801 -0.317980 -0.052670
-0.003800 -0.441349 -0.070148
0.021446 -0.392187 -0.027875
-0.053637 -0.126423 0.040217
0.005336 -0.204130 0.046404
-0.060021 -0.299130 -0.051442
-0.060357 -0.087864 0.046813
-0.012920 -0.369057 -0.051781
-0.000199 -0.368454 -0.041943
-0.044218 -0.074715 0.064359
-0.079205 -0.256237 -0.049218
0.021511 -0.377311 -0.034802
0.031995 -0.408136 -0.043375
0.063906 -0.316639 0.021887
-0.059335 -0.270720 -0.050848
-0.019085 -0.365300 -0.068168
0.060845 -0.462009 -0.055065
0.009118 -0.142943 0.058447
0.033330 -0.389605 -0.041333
-0.032851 -0.360711 -0.078453
0.055723 -0.180398 0.071393
0.004897 -0.351398 -0.050046
0.028906 -0.153465 0.061266
0.022845 -0.370767 -0.048046
-0.034074 -0.303277 -0.059113
0.044777 -0.169550 0.063418
-0.080145 -0.141403 -0.018332
-0.075345 -0.076762 0.015053
0.008811 -0.367406 -0.060798
-0.068434 -0.190484 -0.034945
0.069882 -0.200996 0.063733
-0.060451 -0.025817 0.046511
0.077766 -0.186381 0.073890
0.034557 -0.399412 -0.063817
0.041822 -0.149370 0.059876
0.065696 -0.158955 0.071074
-0.060864 -0.009252 0.046419
0.028469 -0.378307 -0.064377
-0.056697 -0.027785 0.034733
0.027234 -0.134382 0.047422
0.064693 -0.361674 -0.035152
0.014255 -0.335721 -0.060576
-0.061152 0.013528 0.045914
0.002955 -0.290292 -0.050744
-0.014732 -0.152904 0.001587
0.049046 -0.197855 0.026989
0.085445 -0.200386 0.050133
0.092823 -0.173210 0.067169
0.093720 -0.186550 0.061992
0.040235 -0.276731 -0.021237
0.002920 -0.276936 -0.050207
-0.061382 0.031270 0.045720
-0.059678 0.037875 0.046093
0.060719 -0.144469 0.050863
0.085292 -0.153998 0.063883
-0.012528 -0.220873 -0.040841
-0.061208 0.044757 0.045486
0.002756 -0.258121 -0.050870
0.059677 -0.389144 -0.071601
0.079123 -0.248504 0.011238
-0.007373 0.003768 0.059990
-0.060879 0.062446 0.045389
0.005042 -0.042284 0.045142
0.099110 -0.169615 0.055625
0.002358 -0.239545 -0.051564
0.069154 -0.123780 0.048252
0.002111 -0.226100 -0.051647
-0.060800 0.084895 0.045946
0.098270 -0.183746 0.040458
0.006191 -0.020798 0.046220
0.069592 -0.086675 0.059411
0.091337 -0.150589 0.044290
0.099350 -0.167001 0.042179
-0.060084 0.102515 0.046923
-0.060459 -0.108558 -0.052382
0.088707 -0.164110 0.033740
0.006260 -0.003884 0.046311
-0.078602 0.093703 0.024553
0.067459 -0.094298 0.046568
-0.060272 0.116135 0.046673
-0.056177 -0.081349 -0.048152
-0.051164 0.136143 0.055451
0.068455 -0.073739 0.047847
-0.060176 0.133393 0.046341
-0.075138 -0.003696 -0.027965
-0.038111 -0.132430 -0.060038
0.035422 -0.043490 0.036583
-0.059801 -0.070159 -0.051620
-0.059879 0.155277 0.046879
-0.059568 -0.055914 -0.051131
0.068204 -0.115746 0.011525
0.002841 -0.141687 -0.050126
-0.060943 0.172711 0.045807
-0.061020 -0.036601 -0.052780
0.006666 0.068497 0.046189
-0.000541 0.097419 0.053953
-0.061511 0.195151 0.045702
0.056957 -0.241453 -0.068249
0.051374 0.047950 0.061999
0.027775 -0.185313 -0.064858
-0.040129 0.052539 -0.004759
0.074805 -0.189711 -0.032411
0.006668 0.098767 0.046378
0.053760 -0.122627 -0.023847
0.055223 -0.136424 -0.029908
-0.061844 0.226164 0.045540
-0.102155 0.442508 0.109267
-0.062208 0.200986 0.028693
0.066354 -0.145192 -0.036299
0.005852 0.129075 0.044779
-0.061712 0.244038 0.045627
0.074184 -0.129584 -0.024126
-0.061847 0.256933 0.045703
-0.056753 0.348003 0.089173
-0.020082 -0.045627 -0.061142
-0.059189 0.041279 -0.050906
-0.071974 0.442594 0.115641
-0.092998 0.463369 0.107206
0.067940 -0.099522 -0.025895
0.026362 0.167006 0.064516
0.082669 -0.139383 -0.034729
-0.061427 0.274474 0.045971
-0.049853 0.276416 0.055489
0.068224 0.061667 0.045417
-0.059263 0.060506 -0.051206
0.075859 -0.010956 0.017551
0.054833 -0.091756 -0.036656
-0.052368 0.049486 -0.051549
0.086726 -0.120885 -0.028185
0.077623 -0.068212 -0.010665
0.082347 -0.107492 -0.027223
0.062511 -0.135044 -0.055195
0.004595 -0.012656 -0.041631
-0.073289 0.443298 0.102093
-0.005605 0.238554 0.063600
-0.053963 0.442947 0.116105
0.006177 0.180734 0.044907
-0.059089 0.074530 -0.051939
-0.102023 0.443081 0.079199
-0.061225 0.296689 0.045971
0.069096 0.082640 0.046509
-0.061187 0.430394 0.101716
0.081330 -0.145742 -0.053043
-0.069359 0.462611 0.106630
-0.029794 0.140818 -0.006900
0.006146 0.202102 0.046728
-0.059818 0.093675 -0.052905
0.074024 -0.091205 -0.038217
-0.058443 0.117464 -0.042513
0.051096 0.112177 0.037231
-0.074746 0.442965 0.089118
-0.076817 0.252731 0.002522
0.085722 -0.099358 -0.037386
-0.060812 0.327539 0.046711
0.093883 -0.117142 -0.040679
0.062170 -0.079009 -0.047460
0.006538 0.219552 0.047613
0.042496 -0.082743 -0.064103
0.052111 0.019149 -0.011402
-0.057771 0.472605 0.106689
0.068540 0.125201 0.046245
-0.025538 0.444091 0.116481
-0.108643 0.443154 0.053390
-0.046504 0.457389 0.106156
-0.060518 0.344795 0.047094
0.082478 -0.091880 -0.049255
0.095566 -0.122717 -0.054227
-0.045411 0.443251 0.095335
0.093498 -0.104778 -0.048708
-0.059952 0.140970 -0.052804
-0.060299 0.367176 0.047738
-0.090504 0.466257 0.068028
-0.068943 0.443406 0.070324
-0.089221 0.443261 0.054863
-0.110612 0.443298 0.038672
0.059241 -0.036213 -0.050967
-0.029641 0.470066 0.106337
-0.059060 0.160077 -0.051889
-0.046206 0.443469 0.081974
-0.018639 0.455064 0.105702
-0.076968 0.374112 0.027123
0.095960 -0.110847 -0.069418
-0.058713 0.178985 -0.051245
-0.069883 0.443812 0.055880
-0.003264 0.442834 0.104857
0.072613 0.079763 -0.001419
0.091510 -0.088743 -0.067380
0.016957 0.442104 0.115983
-0.032403 0.318217 0.023925
0.056546 0.208645 0.041199
-0.043537 0.443606 0.065972
-0.014562 0.442914 0.086243
-0.051471 0.219901 -0.040688
0.068919 0.215016 0.046236
0.002940 0.466263 0.106000
-0.092149 0.443792 0.025126
-0.071178 0.443764 0.041471
-0.060055 0.439594 0.047579
-0.002291 0.393974 0.068809
-0.037573 0.153698 -0.065515
-0.100876 0.443501 0.015365
-0.015518 0.240517 -0.010411
-0.109974 0.443608 0.005426
0.018725 0.087941 -0.056584
0.093240 -0.081067 -0.080644
0.105315 -0.093441 -0.078821
-0.079451 0.308391 -0.033018
0.068787 0.244657 0.047218
-0.015201 0.443616 0.072898
0.055888 0.027137 -0.061730
0.023499 0.456888 0.105620
0.037042 0.316454 0.053479
0.065283 0.256736 0.047029
0.015543 0.443096 0.090368
-0.060940 0.444066 0.033237
0.067900 0.163727 0.004713
-0.029821 0.475964 0.070012
-0.049218 0.444254 0.040167
0.044991 0.442494 0.107308
-0.089778 0.443716 0.007319
0.026423 0.448555 0.093685
0.005676 0.376355 0.045332
-0.015847 0.443793 0.058909
0.038852 0.465512 0.105954
0.066781 0.441899 0.115732
0.071775 0.056829 -0.053371
0.015258 0.443910 0.077287
-0.081208 0.482440 0.021613
-0.061744 0.443869 0.018486
-0.030847 0.444256 0.041158
-0.050240 0.444039 0.025323
0.111934 -0.081113 -0.093048
-0.103988 0.443465 -0.016207
0.005840 0.397159 0.045517
-0.054275 0.426054 0.011972
-0.091032 0.443483 -0.008444
-0.078628 0.444069 -0.000962
-0.104677 0.457329 -0.014747
0.059568 0.112242 -0.047185
0.005893 0.413839 0.045380
0.058863 0.464336 0.105796
0.014817 0.444051 0.063770
0.084626 0.442221 0.114130
-0.109148 0.443223 -0.029958
0.068457 0.453617 0.105496
-0.032020 0.444397 0.026630
0.044548 0.443169 0.081853
0.003737 0.210500 -0.051857
0.074920 0.372601 0.072675
0.072643 0.317595 0.045866
-0.056899 0.276776 -0.068518
-0.010010 0.444822 0.039526
-0.059456 0.443675 0.000618
-0.079680 0.443425 -0.016761
-0.078410 0.402873 -0.033216
0.003649 0.229213 -0.051889
0.078378 0.463598 0.105790
-0.110876 0.442690 -0.046367
0.034848 0.444222 0.062893
0.073254 0.345951 0.046690
0.007281 0.445045 0.040814
0.003479 0.243245 -0.051872
0.072858 0.442696 0.086281
-0.084712 0.443577 -0.030279
-0.040995 0.443840 0.002341
-0.060184 0.443451 -0.014918
0.092548 0.463778 0.105908
0.021163 0.444573 0.045009
0.053803 0.173980 -0.050596
0.101835 0.452781 0.105808
-0.059315 0.364139 -0.051699
0.093907 0.442700 0.094754
0.003076 0.261759 -0.051437
0.073271 0.366761 0.046576
0.034559 0.444391 0.049143
0.068492 0.384272 0.047117
0.081594 0.470464 0.093340
0.063557 0.442908 0.067619
0.114326 0.441814 0.103272
-0.011748 0.444443 0.010439
-0.099007 0.443081 -0.055344
0.003340 0.280539 -0.051328
-0.061949 0.356361 -0.066671
-0.086204 0.443170 -0.046706
-0.030365 0.444162 -0.005856
-0.073268 0.443346 -0.038843
-0.108376 0.442977 -0.066800
-0.061365 0.443560 -0.030873
0.002542 0.444546 0.014450
0.061551 0.276687 -0.016255
0.024001 0.444745 0.028362
-0.045957 0.443901 -0.025695
0.023609 0.246699 -0.061075
0.063765 0.443995 0.054253
-0.058721 0.414549 -0.051062
0.076193 0.414608 0.049696
0.111361 0.462721 0.093775
0.083904 0.336772 0.019328
0.028824 0.354579 -0.015360
0.094378 0.443182 0.069633
-0.030936 0.443710 -0.021614
-0.019801 0.444101 -0.014338
-0.109907 0.442872 -0.084525
0.074631 0.233939 -0.040693
0.044395 0.444695 0.027856
0.114893 0.442553 0.078600
-0.070744 0.443224 -0.058379
-0.046718 0.443905 -0.042101
0.082586 0.443532 0.052987
0.110941 0.463927 0.080618
-0.079460 0.443095 -0.069895
-0.006279 0.319307 -0.070300
-0.001541 0.444093 -0.012364
0.030450 0.444406 0.008950
-0.057761 0.445223 -0.056433
-0.031558 0.443898 -0.037228
0.050236 0.463483 0.031351
-0.088713 0.442801 -0.081352
-0.092094 0.436117 -0.086732
0.070086 0.443888 0.035997
-0.025208 0.464815 -0.025683
-0.097946 0.442853 -0.093455
0.044031 0.444517 0.013451
0.110806 0.456572 0.066632
-0.016329 0.444251 -0.032737
-0.071636 0.475475 -0.061332
-0.107341 0.442492 -0.105662
-0.035418 0.443959 -0.050595
0.112757 0.442718 0.055445
-0.001520 0.444000 -0.027813
0.019737 0.443968 -0.012996
-0.043496 0.443488 -0.061502
0.089000 0.443384 0.034961
-0.020466 0.444154 -0.045631
0.074000 0.444302 0.019818
-0.005648 0.444009 -0.040744
-0.060283 0.442907 -0.084259
-0.048128 0.443275 -0.075634
-0.024495 0.443727 -0.059263
0.019628 0.443842 -0.028185
0.110542 0.463593 0.045977
0.009121 0.444393 -0.036034
0.089711 0.444018 0.021162
0.116445 0.442838 0.039868
-0.009555 0.443730 -0.053946
0.044053 0.444345 -0.015806
0.064244 0.444540 -0.001621
-0.077819 0.442477 -0.108402
0.071758 0.324968 -0.053395
-0.025170 0.443273 -0.075923
-0.013673 0.443464 -0.067784
0.019635 0.443989 -0.043831
0.030115 0.443859 -0.036112
-0.003216 0.406441 -0.077381
0.117162 0.442908 0.026551
0.071759 0.343271 -0.052695
0.074329 0.317747 -0.062173
0.001313 0.443260 -0.062555
0.110882 0.458627 0.024223
0.093402 0.443969 0.004699
-0.041158 0.442691 -0.098856
0.047545 0.443837 -0.033693
0.119668 0.455798 0.024370
0.077758 0.443724 -0.011616
0.071751 0.364822 -0.052416
0.082962 0.381100 -0.037929
-0.049384 0.442343 -0.110721
-0.025231 0.442913 -0.092885
0.117888 0.443074 0.012787
-0.013813 0.443202 -0.084329
0.019636 0.443554 -0.059652
0.030553 0.443678 -0.051724
0.093732 0.443746 -0.009523
0.064819 0.443769 -0.031364
0.110276 0.463392 0.009839
0.047779 0.443332 -0.049197
0.005058 0.442621 -0.081512
0.071561 0.395700 -0.053155
-0.029381 0.442692 -0.107483
-0.038487 0.466792 -0.104101
0.118420 0.442980 -0.001005
0.051613 0.377688 -0.078559
0.050118 0.460063 -0.044713
0.121278 0.418920 -0.010535
-0.013823 0.442750 -0.101530
0.019666 0.442980 -0.076061
0.030439 0.443058 -0.067991
0.110457 0.464126 -0.005340
0.044646 0.443007 -0.062379
0.088213 0.443489 -0.034357
0.058443 0.442987 -0.057128
-0.018108 0.442283 -0.116187
0.005198 0.442687 -0.098561
0.030711 0.443072 -0.084046
0.020113 0.442778 -0.092641
0.075574 0.442889 -0.054925
0.110383 0.464490 -0.020971
0.055460 0.443118 -0.070499
0.001313 0.442154 -0.112853
0.107581 0.443113 -0.034711
0.112561 0.463644 -0.029370
0.041753 0.442524 -0.092354
0.030908 0.442407 -0.101102
0.121143 0.444180 -0.036250
0.023646 0.442069 -0.112621
0.098943 0.442658 -0.057607
0.079739 0.442612 -0.073430
0.059637 0.442477 -0.089533
0.035581 0.466608 -0.100000
0.111007 0.456369 -0.053365
0.118288 0.442304 -0.057899
0.059939 0.442170 -0.106549
0.070224 0.442162 -0.097968
0.049267 0.441944 -0.115045
0.083800 0.442172 -0.092440
0.111109 0.466070 -0.069649
0.095259 0.457006 -0.086368
0.100542 0.441743 -0.089498
0.080874 0.442108 -0.106431
0.070756 0.441573 -0.114863
0.113388 0.442004 -0.084125
0.104821 0.441427 -0.108872
0.111540 0.463848 -0.095533
0.117986 0.441188 -0.103078
