-0.117500 0.113285 -0.196911
-0.284415 -0.133641 0.363459
0.288450 -0.136266 -0.384420
0.146891 0.113856 0.300667
-0.281173 -0.136505 -0.383603
-0.297306 -0.017415 0.044572
0.123245 0.127845 -0.380930
-0.148333 0.119485 0.287944
0.008795 -0.139066 -0.380285
0.011325 0.114626 0.069383
-0.296579 -0.018791 -0.178421
-0.139919 0.026864 -0.379403
0.001779 0.005166 0.363904
-0.101550 -0.138555 0.361868
-0.296939 -0.012808 0.227867
-0.144903 0.113706 0.012596
0.162950 -0.047042 -0.385034
0.015853 0.115747 0.230046
-0.018580 0.114936 -0.086497
0.006118 0.011507 -0.381305
-0.140090 0.008097 0.362924
-0.148630 0.116226 0.150365
-0.129718 -0.115934 -0.380766
-0.299156 -0.014449 -0.332037
-0.053386 0.126686 -0.381445
0.149397 0.004235 0.363945
-0.299689 -0.002679 0.347921
0.296096 -0.019879 -0.388818
-0.057412 0.109359 0.362449
-0.141010 0.115223 -0.308651
0.113311 0.113617 0.184074
0.066077 0.109024 0.366495
-0.143238 0.113457 -0.095630
0.105223 -0.135535 -0.382899
-0.051569 0.115581 0.147033
-0.195349 -0.098320 0.364032
-0.227894 -0.056760 -0.379064
-0.299561 -0.014009 -0.086206
0.104166 0.040397 -0.382376
0.034435 0.107853 -0.380795
0.194073 -0.137095 -0.381745
-0.050729 -0.055145 -0.379437
0.070028 -0.055871 -0.383487
-0.043569 0.114819 0.005517
-0.090771 0.115881 0.220588
-0.297176 -0.014307 0.147214
-0.138246 0.104172 0.363763
0.239498 -0.074123 -0.384053
-0.088281 0.115120 0.070355
-0.298566 -0.015518 -0.257183
-0.146921 0.127849 -0.379242
-0.065566 0.053515 -0.381140
0.079412 0.114046 0.262047
0.079280 0.026310 0.363146
0.000132 0.117444 0.298937
-0.229684 -0.033299 0.364219
-0.073064 0.114779 -0.129003
0.050098 0.113228 0.154454
0.149876 0.085024 0.366941
-0.297489 -0.056489 -0.384277
-0.078182 0.114673 -0.056729
-0.200646 -0.117431 -0.381221
-0.077463 0.047488 0.362050
-0.122809 -0.037547 -0.382401
-0.126690 -0.075689 0.362845
0.070888 0.115024 0.092422
-0.103298 0.114748 -0.255718
0.002627 0.067895 0.362224
-0.148849 0.116012 0.076299
-0.300065 -0.017886 -0.013479
0.222717 -0.015001 -0.385702
-0.297650 -0.012988 0.284219
-0.052510 -0.118016 -0.383657
0.032189 0.115328 0.013322
-0.044147 0.115351 0.258935
-0.292740 -0.060370 0.357371
-0.149531 0.118839 0.212473
0.140242 0.113703 0.236013
0.006700 -0.041685 -0.381681
-0.147846 0.114088 -0.150093
0.145240 -0.098175 -0.381994
-0.193614 -0.016411 -0.380073
-0.004406 0.063223 -0.379341
-0.009066 0.115593 0.181185
-0.087351 0.006705 -0.382693
0.059526 -0.117883 -0.382454
-0.163084 -0.075126 -0.379719
0.011305 0.115924 0.119993
0.065206 0.006658 -0.382523
0.135960 0.073873 -0.381755
-0.094358 0.115839 -0.010221
-0.168823 -0.031654 0.364037
0.075034 0.075940 -0.381300
-0.150216 0.082910 -0.357614
-0.070677 0.115203 -0.191062
0.244493 -0.138979 -0.385353
0.099243 0.070864 0.363098
0.112248 -0.034724 -0.379538
-0.106650 0.116505 0.124364
-0.220144 -0.135372 0.359434
-0.276065 -0.012032 -0.382444
-0.049556 0.114020 0.097374
-0.106455 0.116199 0.177120
-0.148100 0.113556 -0.259766
-0.259066 -0.096464 -0.382661
0.106156 0.115460 0.318473
-0.003756 0.126194 -0.380670
-0.166033 -0.131805 0.358873
-0.049536 0.116931 0.200732
0.090901 0.113314 0.136854
-0.094390 0.114650 0.347756
-0.057143 0.004699 0.362458
0.034732 0.047240 -0.381575
-0.097507 -0.079338 -0.381418
-0.297306 -0.016788 0.093833
-0.038521 0.116435 0.317999
0.039090 0.115268 0.280887
-0.109494 -0.035423 0.365576
-0.298428 -0.014874 -0.136722
-0.118804 0.065746 0.363203
-0.038056 0.008354 -0.380526
-0.104158 0.116458 0.285942
0.038941 0.047222 0.361871
0.188539 -0.093790 -0.382232
-0.237768 -0.091876 0.361257
0.151567 -0.136290 -0.383473
0.074709 0.113907 0.201388
-0.114957 0.066237 -0.380918
-0.007740 0.116984 0.030009
0.049522 0.114051 0.050617
0.274246 -0.056310 -0.385714
-0.038763 0.065272 0.363131
0.199672 -0.054716 -0.383003
0.001770 0.109621 0.362740
-0.022687 0.116534 -0.045656
-0.050611 0.114784 0.050947
-0.019237 -0.098911 -0.381464
-0.295018 -0.099731 -0.371458
0.073863 0.116894 -0.379748
-0.086336 -0.139134 -0.383922
-0.097187 0.006573 0.361922
-0.113799 0.113952 0.039444
0.101164 0.112162 0.364227
0.172814 -0.007734 -0.381173
0.109149 -0.075730 -0.384391
-0.147946 0.118570 0.325640
0.292787 -0.098804 -0.382824
-0.072571 0.093774 -0.381975
0.041087 0.007134 0.361422
-0.148263 0.116821 -0.218689
-0.109582 0.114651 -0.077853
0.143622 0.048349 0.364351
-0.148249 0.115228 -0.058201
0.035901 -0.092971 -0.380613
-0.034404 0.086994 -0.380356
-0.269519 -0.033680 0.360329
-0.116551 0.107062 -0.379270
-0.156740 -0.136722 -0.378015
-0.117224 0.115595 -0.038169
0.104307 0.095163 -0.381871
-0.147969 0.114816 0.250230
0.121105 0.008481 -0.380462
0.026552 -0.011710 -0.380634
-0.147721 0.001558 -0.357898
-0.062934 0.113882 -0.025830
-0.299101 -0.015865 -0.290781
-0.047698 0.112152 -0.105699
-0.074337 0.114644 0.271874
-0.013399 0.115942 0.241866
0.045920 0.114707 0.215482
-0.099587 0.114456 -0.146105
-0.032565 -0.031296 -0.382638
0.075566 -0.086815 -0.383028
-0.201790 -0.073937 -0.380907
-0.297646 -0.013070 0.313139
0.125342 0.028065 0.364128
-0.012788 0.114939 -0.007632
-0.086442 0.124356 -0.379372
0.103010 0.004861 0.363838
0.040363 0.089010 0.363626
0.076924 0.117336 0.334351
-0.235386 -0.116596 -0.385085
0.135962 0.038118 -0.384858
-0.032364 -0.136358 -0.381274
0.269722 -0.117197 -0.389057
0.064576 0.067316 0.364164
-0.026795 0.043820 -0.380032
0.088647 -0.018610 -0.380845
-0.293977 -0.105934 0.363641
-0.245284 -0.016722 -0.382374
-0.254987 -0.115936 0.357823
-0.018844 0.024524 0.361907
-0.006751 -0.016065 -0.379528
-0.108655 0.026010 -0.381909
-0.075851 0.085769 0.364800
-0.019096 0.088716 0.362177
-0.167820 -0.092279 0.363936
-0.109307 0.114725 -0.228083
-0.300289 -0.012302 0.249151
0.214462 -0.117367 -0.384241
-0.154793 -0.033833 -0.380310
-0.122734 -0.116364 0.359552
0.248814 -0.034297 -0.388048
-0.211729 -0.072950 0.364284
0.061396 0.049214 -0.379651
-0.139527 0.045896 0.364208
-0.148067 0.115370 0.105238
-0.118054 0.025263 0.364711
-0.149145 -0.052759 0.362161
-0.146371 0.065034 -0.379374
-0.298270 -0.013126 0.197844
-0.104082 -0.099032 0.362627
0.122352 -0.113262 -0.383468
0.140157 -0.059245 -0.381878
-0.188001 -0.050661 0.361914
-0.270415 -0.072404 -0.385011
-0.148315 0.039129 -0.357155
-0.074910 -0.095184 -0.379562
-0.297937 -0.013478 -0.206036
-0.251801 -0.138506 -0.388702
0.263588 -0.014676 -0.384587
-0.057201 0.114237 -0.169144
-0.065926 -0.034751 -0.378813
-0.125918 -0.075315 -0.378339
-0.024576 -0.054173 -0.382367
-0.250848 -0.050233 0.359740
-0.083737 0.066209 -0.381056
0.079320 0.090365 0.364153
0.025893 0.023284 0.362760
0.164128 -0.117713 -0.387177
-0.298974 -0.035031 -0.367059
0.040824 -0.138281 -0.382695
-0.299132 -0.012345 0.167606
-0.108127 0.113491 -0.174257
-0.082212 0.115570 -0.214497
-0.025622 0.114658 0.086706
-0.169243 -0.007646 -0.380837
0.053113 -0.076212 -0.380922
-0.269717 -0.070089 0.358895
-0.143721 0.115485 0.053707
-0.054984 0.025533 -0.380680
0.105458 0.112793 0.255169
-0.172978 -0.048927 -0.380249
-0.106988 0.114804 0.079232
-0.218029 -0.111262 0.362079
-0.298144 -0.016143 -0.234033
-0.096003 0.114111 -0.117875
-0.220370 -0.137632 -0.383479
-0.182829 -0.088247 -0.381589
-0.298386 -0.014828 0.119280
-0.095829 -0.035961 -0.378308
0.013853 0.034789 -0.381035
-0.293924 -0.023731 0.365528
0.257783 -0.093737 -0.387396
-0.254123 -0.055033 -0.383703
-0.052737 -0.015823 -0.379692
0.026558 -0.055362 -0.381643
-0.091119 0.114154 0.028381
-0.063789 0.114935 0.014931
0.014569 0.077733 -0.381884
-0.079207 0.114896 -0.158069
0.123901 0.107104 0.364181
-0.140111 0.115497 -0.127662
0.233711 -0.098532 -0.385103
0.125313 0.070935 0.364961
-0.128032 0.114811 0.239305
0.223538 -0.054563 -0.384836
-0.128682 0.114469 -0.164791
-0.124401 0.114531 0.002565
-0.001467 0.116173 -0.056055
-0.044264 0.114770 -0.034398
-0.120253 0.114164 -0.293472
-0.071092 0.115102 0.210586
-0.026196 0.115254 0.190231
0.010606 0.115360 0.171585
0.069567 0.114779 0.145240
0.014628 0.117571 -0.380402
-0.223316 -0.034109 -0.381588
-0.131024 0.113642 0.136759
-0.111205 -0.094228 -0.382044
0.107240 -0.005896 -0.380283
0.178343 -0.076009 -0.386322
0.085095 -0.136117 -0.384959
-0.138086 0.113766 -0.188635
0.060284 0.003595 0.364733
-0.005688 0.087976 -0.380891
-0.096643 0.114673 -0.048045
-0.036077 0.114497 -0.077335
-0.057737 0.115104 -0.067238
-0.296465 -0.019069 0.069037
-0.192155 -0.134403 -0.385024
0.155764 -0.075545 -0.386320
-0.069077 -0.077539 -0.383007
-0.088730 0.115327 0.166900
-0.029035 0.115878 0.138363
-0.069669 0.115578 0.158294
-0.129016 0.114654 0.186056
-0.010095 0.115830 0.128194
0.029513 0.115754 0.109288
0.047820 0.115976 0.101676
-0.296191 -0.139574 -0.371867
-0.234560 -0.093079 -0.383144
-0.148555 0.127201 0.362131
0.024510 0.109370 0.363982
0.023704 0.067068 0.362844
-0.281844 -0.035196 -0.384587
-0.084574 -0.114194 -0.381695
-0.115357 0.005786 -0.381056
-0.136624 0.113395 -0.331767
-0.283232 -0.116514 -0.389280
-0.297977 -0.074734 -0.371101
0.148384 0.027020 0.363951
0.146415 0.109214 0.361049
-0.129578 0.114028 -0.069295
-0.089295 0.115395 -0.087511
-0.066383 0.114997 -0.099047
0.055207 0.115415 0.343318
-0.265566 -0.095811 0.359978
-0.142063 0.007373 -0.383228
0.124502 0.005973 0.364688
0.125496 0.046168 0.364341
0.128911 -0.137033 -0.387552
-0.042033 0.024776 0.362364
-0.298926 -0.017686 0.025935
0.101349 0.026940 0.363865
0.100159 0.049090 0.362868
0.102039 0.092664 0.363385
-0.085816 0.047106 -0.381539
-0.088247 0.116367 0.116529
-0.067083 0.115544 0.106275
-0.007517 0.117072 0.076734
0.029948 0.112992 0.059890
0.078254 0.049636 0.361898
-0.115602 -0.015480 -0.381009
0.103558 -0.118437 -0.381082
-0.147942 0.061568 -0.361024
-0.104420 -0.053693 -0.379803
0.038355 0.007485 -0.383616
0.204529 -0.012846 -0.382747
-0.013018 0.005467 -0.382180
-0.115397 0.124037 -0.380662
0.133698 0.099455 -0.380086
0.221470 -0.135071 -0.386176
-0.123483 0.114877 -0.104495
-0.055036 0.045533 0.362876
0.079582 -0.114024 -0.382434
0.123022 -0.011578 -0.381942
-0.284758 -0.084161 0.359385
-0.159817 -0.116999 -0.379395
-0.046236 0.108678 -0.379616
0.124012 0.114545 0.310957
-0.111584 0.115658 -0.275955
-0.129727 -0.097718 -0.378204
0.001931 0.025375 0.361093
0.001970 0.047580 0.360390
0.001960 0.087525 0.362366
-0.128014 0.113794 -0.219663
-0.130350 0.112285 -0.265834
-0.095684 0.086334 0.364267
-0.095627 0.043648 0.363708
0.064546 -0.138247 -0.385454
-0.076483 0.003890 0.363667
-0.042172 -0.092033 -0.381029
0.104467 0.117923 -0.381550
0.106637 0.056608 -0.379789
0.102434 0.018446 -0.381017
0.106560 -0.094971 -0.382251
0.107067 -0.054927 -0.380973
0.014230 -0.024742 -0.381444
-0.143661 0.104109 -0.379556
-0.145083 0.088056 -0.380802
-0.016670 0.004882 0.363093
-0.019437 0.067093 0.361412
-0.018043 0.043486 0.363348
-0.019150 0.108436 0.363503
0.064317 -0.035515 -0.382110
0.181019 -0.054799 -0.383285
0.250045 -0.056302 -0.386078
-0.151845 -0.014169 -0.378953
-0.151064 -0.056590 -0.381912
-0.127697 0.113495 0.087672
-0.028870 0.114655 0.040807
-0.068186 0.115101 0.060128
0.012344 0.115887 0.021600
