0.004787 0.089055 0.201439
-0.123703 0.015750 -0.200292
0.019235 -0.128826 -0.305285
0.105455 0.143655 -0.204223
-0.001017 0.097952 -0.049199
-0.221323 -0.148050 -0.249991
-0.235974 -0.068031 -0.341351
-0.085895 0.137581 -0.128921
-0.125224 -0.019405 0.211600
-0.065045 0.087174 0.094955
-0.224985 -0.154349 0.262856
-0.017243 -0.115365 0.323572
0.097883 0.064155 0.017665
0.029581 0.046375 -0.213988
-0.210355 0.048695 -0.115079
0.027736 0.031954 0.164372
0.147058 0.088751 0.026403
-0.210262 0.086298 0.100838
-0.073320 0.094758 0.060902
0.004673 0.120612 -0.217215
0.102948 0.063973 -0.187600
-0.036150 0.076303 -0.017394
-0.201309 0.092681 -0.007459
-0.127296 0.055933 -0.207948
0.094363 0.106928 -0.150055
0.099430 0.085473 0.081546
-0.092225 0.142727 0.170750
0.085227 0.050501 -0.226329
-0.054856 0.116484 -0.171355
-0.082525 0.088726 -0.086730
0.245293 0.003639 -0.295824
-0.085096 0.107644 0.090635
-0.145021 0.128197 0.009270
-0.078132 0.035053 -0.262999
-0.097633 0.095004 0.044090
0.010326 0.151348 -0.012349
0.195234 -0.054667 -0.251232
0.098915 0.086896 0.067925
0.088419 -0.060558 0.220974
-0.164831 0.098325 0.022567
-0.168996 -0.024533 0.252026
-0.054265 0.096537 0.159643
-0.144515 0.069105 0.174905
-0.049157 0.144920 -0.193396
0.075310 0.022117 0.142144
-0.032746 0.075478 -0.059120
0.108968 0.023286 -0.178177
0.159843 0.012736 -0.224087
0.219184 -0.142224 -0.199578
-0.009917 0.181931 0.223180
-0.197712 0.083897 0.109644
0.126638 0.043875 0.101300
0.216407 0.077800 -0.052128
0.048160 0.082885 0.155324
0.036477 0.062479 -0.199582
-0.063394 0.109417 0.047903
-0.091142 0.100558 -0.201187
0.045420 0.072793 0.133971
0.040975 0.087142 0.241113
0.165087 -0.090654 -0.255969
-0.210919 -0.023895 0.247818
-0.105120 0.111798 0.002439
0.132623 0.180367 0.028004
-0.123297 0.076625 -0.113751
-0.045214 0.092647 -0.166374
-0.197282 0.096214 -0.061355
0.172383 0.071665 -0.126045
0.075451 0.129161 0.131524
0.080546 0.081254 -0.126202
0.018525 0.104810 -0.096775
0.092824 0.127545 -0.179053
0.137103 0.024134 0.209721
0.060410 0.054088 0.079827
-0.063357 0.141109 0.186951
0.085033 0.106660 -0.157788
-0.013111 -0.015314 0.256221
0.177896 0.077662 0.096132
0.018402 0.093501 0.076861
-0.040680 0.081298 -0.036133
0.171719 0.010807 0.246229
-0.133505 -0.069409 0.359659
-0.146595 -0.021723 -0.307838
-0.072990 -0.011284 0.218545
0.000011 0.085655 -0.137113
0.059970 0.100024 0.164016
-0.235797 0.009200 -0.283601
-0.057202 0.091221 -0.209881
0.093469 0.011600 -0.003886
0.034493 0.038271 0.222729
-0.258267 -0.063155 0.280179
-0.018814 0.089270 0.056462
0.052412 -0.094170 0.249315
-0.045722 0.135242 -0.205829
-0.167897 0.083684 -0.061405
0.045168 0.084883 -0.041996
0.188035 -0.141579 0.216566
-0.071741 0.068868 0.147613
-0.103318 -0.064246 -0.283494
0.060212 0.132815 0.173812
0.218084 -0.063716 0.283465
-0.098857 0.132957 -0.160048
-0.020580 0.068431 -0.254853
0.018692 0.113224 -0.223072
-0.055960 0.094108 -0.150525
0.057740 0.067703 -0.216346
-0.008084 0.115521 0.168806
-0.014517 -0.009689 -0.248155
-0.152932 0.102359 -0.221535
-0.012915 0.078503 0.142680
0.057160 0.065259 -0.181413
0.037545 0.117697 0.207062
-0.058131 0.099925 0.175502
-0.079446 0.074748 -0.186943
0.158683 0.006901 0.218250
0.179908 0.026319 -0.281936
-0.140954 -0.017594 0.286755
0.041133 0.142886 -0.038909
-0.178809 0.043471 -0.205603
-0.093524 0.124838 0.192433
-0.053209 0.131472 -0.059223
0.077656 -0.034651 -0.277476
0.108074 0.080907 -0.110788
0.015156 0.046983 0.020194
0.172149 0.073211 0.104751
0.130474 0.123905 -0.038296
0.004471 0.038106 -0.152854
0.096379 0.016404 0.123438
-0.002781 0.007615 -0.218602
