-0.120839 0.115368 0.164115
-0.147107 0.115342 0.184004
-0.093209 0.115273 0.206254
-0.136723 0.115372 0.204619
-0.113516 0.115492 0.222327
0.090461 0.032866 0.377273
0.078920 0.109171 0.377133
0.127224 0.021710 0.378199
0.063773 0.096477 0.377122
0.114603 0.101518 0.378023
0.053565 0.114026 0.377264
0.090202 0.100641 0.377874
0.092088 0.121553 0.376374
0.126553 0.094517 0.377899
0.115462 0.043657 0.377531
0.049414 0.012307 0.377732
0.044623 0.059551 0.377203
0.072208 0.024210 0.378693
0.103434 0.055373 0.377950
0.069043 0.119850 0.376505
0.042928 0.097475 0.376315
0.116326 -0.007653 0.378561
0.103958 0.016672 0.379746
0.068430 -0.012344 0.379145
0.058608 0.041378 0.378127
0.098237 -0.024054 0.380622
0.069668 0.066328 0.378246
0.100424 0.113407 0.376861
0.128040 0.065706 0.377491
0.102306 0.087520 0.376389
0.080730 0.052961 0.379028
0.081192 0.087313 0.377721
0.093327 0.073028 0.377925
0.121286 0.115791 0.376747
0.084051 0.003814 0.377752
0.112774 0.076804 0.379288
0.053891 0.080299 0.376634
0.083106 0.115173 0.357382
0.055881 0.114930 0.278448
0.112028 0.115320 0.305889
0.100774 0.115142 0.265196
0.102188 0.115233 0.322886
0.090057 0.115152 0.301558
0.072730 0.115125 0.268603
0.072418 0.115024 0.317119
0.078481 0.115276 0.332182
0.068202 0.115037 0.287204
0.091140 0.115267 0.328957
0.075708 0.115024 0.343725
0.107368 0.115202 0.347059
0.077985 0.115130 0.305524
0.062012 0.115203 0.305894
0.098069 0.115234 0.290667
0.080694 0.114943 0.291652
0.099834 0.115606 0.335433
0.050703 0.115500 0.322990
0.065511 0.115342 0.351665
0.087623 0.115386 0.340484
0.090920 0.115146 0.278113
0.093864 0.114936 0.313951
0.056473 0.115000 0.339155
0.108725 0.115105 0.282818
0.084408 0.115313 0.319703
0.103916 0.114946 0.306423
0.085968 0.115214 0.251056
0.046970 0.115271 0.295525
0.112731 0.115409 0.333068
0.066956 0.115164 0.327813
0.095057 0.115356 0.351276
0.132080 0.110418 0.375800
0.097960 0.112010 0.360459
0.141581 0.109379 0.361046
0.144439 0.110637 0.359636
0.135188 0.112028 0.360380
0.127741 0.098231 0.361153
0.120466 0.112137 0.359636
0.123737 0.117082 0.361811
0.126799 0.113205 0.360935
0.111415 0.110490 0.359782
0.120846 0.109917 0.359852
0.115280 0.106751 0.362359
0.147933 0.106692 0.363402
0.124257 0.110085 0.360264
0.103808 0.109873 0.360128
0.138666 0.104575 0.360189
0.130071 0.111453 0.360414
0.137274 0.110602 0.361413
0.096801 0.104137 0.361092
0.109026 0.109564 0.368386
0.122159 0.109535 0.361591
0.135284 0.109661 0.360585
0.130845 0.107331 0.360292
0.106097 0.115132 0.362752
0.150416 0.111842 0.360927
0.123293 0.110432 0.359726
0.142285 0.114962 0.361610
0.129543 0.110400 0.358182
0.085158 0.109883 0.360558
0.157364 0.109646 0.360648
0.115444 0.112737 0.360571
0.129103 0.110707 0.365042
0.086755 -0.050896 0.380445
0.063840 -0.006513 0.380124
0.163399 -0.062345 0.380887
0.046328 -0.012828 0.379028
0.112264 -0.011989 0.380869
0.029099 0.003235 0.378958
0.078907 -0.013699 0.379219
0.076276 0.022470 0.380870
0.164224 -0.014859 0.379826
0.124040 -0.047826 0.378071
0.023768 -0.059101 0.378989
0.011222 -0.033918 0.378212
0.060141 -0.056846 0.381309
0.101787 -0.037104 0.380670
0.052097 0.007447 0.380355
0.017312 -0.011342 0.378391
0.138454 -0.081161 0.380432
0.101042 -0.061823 0.382772
0.050147 -0.081822 0.380833
0.037385 -0.044267 0.380015
0.096328 -0.088207 0.382164
0.052162 -0.033126 0.379001
0.089396 0.000604 0.380007
0.144954 -0.033354 0.380234
0.093762 -0.021099 0.380243
0.066992 -0.040579 0.380601
0.065105 -0.022058 0.381243
0.080752 -0.033261 0.380988
0.133317 0.005770 0.381889
0.075888 -0.071956 0.380723
0.117170 -0.025739 0.382018
0.037058 -0.022789 0.379521
0.149277 0.062677 0.378651
0.131596 0.094770 0.360026
0.148952 0.034984 0.361216
0.149412 0.054658 0.363027
0.149466 0.089159 0.362201
0.149407 -0.056515 0.362641
0.145865 0.091840 0.359705
0.149374 0.116000 0.359949
0.149660 0.096675 0.361817
0.141788 0.084374 0.358888
0.142648 0.056263 0.360870
0.142393 0.010674 0.362786
0.152425 0.002292 0.369756
0.147280 0.049491 0.359758
0.137127 0.073885 0.359331
0.149307 -0.012192 0.361283
0.148730 0.088092 0.360296
0.148533 0.068396 0.360928
0.135916 -0.023575 0.361050
0.140684 0.033233 0.370153
0.145417 0.039676 0.360620
0.148392 0.024270 0.360772
0.147188 0.014004 0.360055
0.142552 0.109396 0.362756
0.151798 0.076519 0.366153
0.146168 0.070544 0.360273
0.151025 0.105098 0.364214
0.145129 0.075235 0.359877
0.121993 0.058506 0.360169
0.153239 0.045599 0.368159
0.145393 0.101831 0.359236
0.148008 0.080143 0.367311
0.245474 -0.130226 0.376850
0.230263 -0.100550 0.376167
0.299552 -0.129138 0.372780
0.202407 -0.106418 0.372971
0.276132 -0.099988 0.371124
0.165516 -0.090800 0.369689
0.250884 -0.114430 0.340328
0.241831 -0.079562 0.367042
0.300411 -0.104585 0.375866
0.274395 -0.127752 0.378617
0.134025 -0.130237 0.370419
0.102336 -0.128128 0.372249
0.200141 -0.131793 0.374456
0.261422 -0.123473 0.370249
0.206644 -0.084841 0.372797
0.132155 -0.109515 0.371427
0.284521 -0.131151 0.374907
0.272903 -0.129759 0.364625
0.164767 -0.130897 0.370180
0.164242 -0.127939 0.376329
0.254685 -0.131479 0.370890
0.191211 -0.124934 0.359056
0.264649 -0.089545 0.375228
0.290872 -0.120259 0.379385
0.255135 -0.109987 0.375954
0.221362 -0.128428 0.367664
0.212933 -0.119052 0.374803
0.238059 -0.123481 0.373553
0.283486 -0.079970 0.371178
0.221155 -0.131402 0.373138
0.286536 -0.117692 0.362751
0.175693 -0.115846 0.373631
-0.274331 -0.011250 0.003619
-0.292605 -0.010448 -0.116967
-0.198538 -0.012808 -0.073406
-0.187178 -0.010526 -0.141338
-0.245203 -0.010089 -0.049027
-0.268719 -0.022797 -0.074345
-0.287280 -0.011888 -0.136043
-0.289540 -0.002933 -0.064591
-0.288607 -0.009585 -0.035007
-0.291678 -0.013306 -0.104686
-0.271137 -0.012370 -0.034177
-0.293052 -0.015253 -0.018275
-0.170324 -0.016123 -0.024315
-0.287129 -0.013075 -0.067379
-0.296205 -0.013496 -0.072564
-0.224919 -0.017070 -0.101732
-0.275432 -0.010368 -0.089488
-0.225507 -0.012695 -0.036539
-0.295001 -0.020304 -0.047188
-0.298305 -0.014045 -0.004414
-0.284908 -0.013848 -0.028386
-0.246329 -0.012137 -0.118761
-0.260980 -0.016472 -0.060506
-0.297293 -0.008086 -0.024359
-0.145156 -0.010712 -0.106779
-0.281585 -0.011688 -0.043802
-0.211432 -0.007094 -0.054233
-0.264636 -0.012280 -0.163309
-0.296203 -0.015563 -0.089549
-0.109204 -0.010858 -0.042459
-0.297107 -0.010493 -0.052087
-0.259353 -0.011304 -0.019316
-0.048901 0.115273 0.276198
-0.072314 0.115138 0.209679
-0.015885 0.115346 0.231256
-0.027660 0.115284 0.205620
-0.028603 0.115318 0.239648
-0.042418 0.115188 0.222570
-0.057966 0.115267 0.204629
-0.057771 0.115153 0.234794
-0.052034 0.115366 0.246045
-0.062566 0.115219 0.215618
-0.039547 0.115279 0.243482
-0.055411 0.115207 0.258439
-0.020797 0.115002 0.262147
-0.053770 0.115312 0.224692
-0.067440 0.115328 0.227842
-0.032484 0.115307 0.216358
-0.050771 0.115001 0.214352
-0.029631 0.115570 0.251909
-0.077034 0.115444 0.238305
-0.063763 0.115574 0.268922
-0.043835 0.115400 0.255010
-0.039724 0.115241 0.210431
-0.036583 0.115041 0.230897
-0.072451 0.115177 0.253243
-0.017007 0.115172 0.214214
-0.046797 0.115615 0.235050
-0.025551 0.115077 0.225560
-0.044329 0.115529 0.197011
-0.079482 0.115400 0.220391
-0.013079 0.115415 0.248019
-0.063595 0.115300 0.243944
-0.035864 0.115578 0.267302
-0.145085 0.115623 0.249467
-0.147460 0.116822 0.140994
-0.118676 0.115032 0.163222
-0.119229 0.115224 0.129108
-0.136755 0.116049 0.177613
-0.141300 0.113700 0.162120
-0.146648 0.115844 0.131850
-0.146739 0.122154 0.167201
-0.146909 0.116779 0.193280
-0.147272 0.115234 0.146601
-0.143175 0.115128 0.188970
-0.147453 0.115178 0.213107
-0.110806 0.115010 0.209500
-0.146893 0.115187 0.165115
-0.147745 0.115272 0.161153
-0.131622 0.114910 0.149324
-0.144884 0.116476 0.154008
-0.128386 0.115190 0.186490
-0.146544 0.114214 0.180764
-0.147271 0.115424 0.232481
-0.142902 0.114944 0.200534
-0.138704 0.115409 0.138991
-0.141314 0.114654 0.170019
-0.147142 0.118805 0.202597
-0.103876 0.114989 0.146769
-0.146121 0.116013 0.181526
-0.128048 0.118315 0.172027
-0.143423 0.115318 0.115829
-0.148140 0.114612 0.153661
-0.089739 0.115203 0.189573
-0.147813 0.117337 0.174901
-0.139667 0.115856 0.221612
0.148400 0.110576 0.401099
0.129867 0.119987 0.360312
0.148150 0.100105 0.361536
0.145044 0.105879 0.360468
0.148366 0.115582 0.365136
0.149348 0.052179 0.364019
0.145052 0.116953 0.358879
0.148913 0.130816 0.363289
0.149699 0.118687 0.375317
0.144827 0.113109 0.358616
0.148067 0.108943 0.370393
0.148000 0.093913 0.380146
0.150833 0.084538 0.385310
0.149016 0.106027 0.359998
0.140728 0.110531 0.360516
0.148625 0.079940 0.360392
0.148719 0.116634 0.361027
0.147881 0.108308 0.364853
0.135527 0.072246 0.367073
0.144955 0.102058 0.390167
0.149805 0.101825 0.371771
0.144745 0.097472 0.359531
0.149232 0.091087 0.362227
0.142845 0.125157 0.380358
0.150030 0.111104 0.362787
0.148950 0.112353 0.366369
0.150003 0.123412 0.369982
0.140995 0.110722 0.356318
0.118423 0.106085 0.359884
0.154048 0.104533 0.374284
0.147068 0.121572 0.361885
0.149548 0.113027 0.384750
-0.098766 0.115303 0.222348
-0.121984 0.115151 0.163557
-0.064773 0.115270 0.183601
-0.076477 0.115266 0.159695
-0.077598 0.115331 0.191075
-0.091704 0.115189 0.175060
-0.107529 0.115265 0.158933
-0.106946 0.115259 0.187221
-0.101271 0.115423 0.196644
-0.112310 0.115244 0.169066
-0.088658 0.115276 0.194369
-0.105379 0.115181 0.207381
-0.070053 0.114975 0.211187
-0.103230 0.115346 0.176850
-0.116945 0.115337 0.180701
-0.081090 0.115260 0.169130
-0.099979 0.115053 0.166951
-0.079453 0.115529 0.202777
-0.126660 0.115274 0.189500
-0.113836 0.115509 0.216795
-0.093746 0.115347 0.205142
-0.088637 0.115331 0.164179
-0.085470 0.114965 0.182598
-0.122449 0.115152 0.203543
-0.066040 0.115121 0.166972
-0.096098 0.115583 0.186344
-0.074419 0.115047 0.177490
-0.093434 0.115516 0.151876
-0.129194 0.115326 0.173683
-0.062959 0.115288 0.197734
-0.113372 0.115387 0.195740
-0.085232 0.115565 0.215496
0.011191 0.115381 0.291049
-0.015604 0.115174 0.225488
0.048037 0.115458 0.247168
0.035904 0.115377 0.221488
0.033361 0.115436 0.255259
0.018387 0.115359 0.238259
0.000744 0.115331 0.220541
0.001035 0.115239 0.250481
0.007318 0.115427 0.260971
-0.004480 0.115268 0.231629
0.021547 0.115411 0.258933
0.003383 0.115270 0.273383
0.043296 0.115195 0.276909
0.005664 0.115390 0.240207
-0.010246 0.115358 0.243902
0.029944 0.115447 0.232193
0.009171 0.115020 0.229878
0.032838 0.115645 0.267674
-0.021268 0.115507 0.253729
-0.005842 0.115570 0.284031
0.016116 0.115494 0.270029
0.022123 0.115366 0.226278
0.025060 0.115164 0.246427
-0.015440 0.115175 0.268441
0.048080 0.115286 0.230040
0.013489 0.115675 0.250263
0.037786 0.115185 0.241341
0.016532 0.115633 0.213422
-0.024215 0.115417 0.236389
0.052982 0.115489 0.262907
-0.005444 0.115374 0.259722
0.025659 0.115668 0.282080
0.004742 0.127888 0.283621
-0.006392 0.126920 0.232328
0.017421 0.128242 0.226152
-0.031340 0.127676 0.219088
0.001854 0.127792 0.217239
-0.038462 0.127195 0.240073
-0.007451 0.128116 0.194858
-0.024236 0.127873 0.200722
0.031298 0.127378 0.239012
0.021939 0.127972 0.286776
-0.050788 0.128201 0.227270
-0.055583 0.127646 0.252987
-0.021219 0.128040 0.234705
-0.006160 0.127414 0.266546
-0.020710 0.127097 0.266290
-0.048894 0.127633 0.283531
0.017390 0.128057 0.249855
0.011123 0.128619 0.202391
-0.042574 0.128599 0.264136
-0.030674 0.128112 0.279729
0.001703 0.128099 0.253223
-0.043168 0.128022 0.203417
0.011484 0.127110 0.267021
0.028430 0.127462 0.266306
-0.005153 0.127499 0.300125
-0.014404 0.128698 0.217613
-0.027474 0.127577 0.298229
-0.012443 0.128192 0.248216
0.004791 0.127438 0.236053
-0.011885 0.128982 0.283232
0.027518 0.127341 0.210242
-0.027995 0.128159 0.252306
-0.060002 0.116147 0.179050
-0.069353 0.123220 0.124835
-0.029535 0.116270 0.123824
-0.095674 0.123281 0.108375
-0.054710 0.121200 0.111865
-0.102584 0.125313 0.138498
-0.068582 0.119870 0.077918
-0.082188 0.124035 0.092772
-0.011744 0.119695 0.139616
-0.042711 0.115292 0.198857
-0.109757 0.116795 0.117540
-0.121199 0.118759 0.148235
-0.088056 0.116004 0.129313
-0.065121 0.118144 0.157590
-0.082127 0.123459 0.166592
-0.117415 0.122708 0.187285
-0.034928 0.114782 0.153694
-0.047759 0.116279 0.094024
-0.103473 0.116788 0.164996
-0.096208 0.116046 0.192284
-0.057760 0.115422 0.140890
-0.101634 0.117394 0.085637
-0.047772 0.121938 0.166443
-0.022659 0.117184 0.177190
-0.066462 0.121419 0.200757
-0.076831 0.116498 0.110775
-0.090852 0.119624 0.215623
-0.076027 0.118531 0.142260
-0.043883 0.122619 0.132029
-0.077242 0.115149 0.177300
-0.021269 0.120667 0.099467
-0.092073 0.120245 0.155496
0.067880 0.115241 0.315810
0.043018 0.115040 0.244709
0.102983 0.115265 0.268592
0.090399 0.115231 0.237925
0.089866 0.115264 0.279950
0.075725 0.115242 0.260850
0.058332 0.115198 0.238508
0.058507 0.115101 0.275263
0.064555 0.115279 0.287581
0.053483 0.115116 0.251944
0.078368 0.115248 0.284775
0.060904 0.115105 0.299771
0.097100 0.115057 0.303925
0.063158 0.115239 0.263760
0.048063 0.115125 0.266715
0.086088 0.115296 0.253152
0.066277 0.114955 0.251771
0.087989 0.115470 0.293334
0.037366 0.115309 0.278748
0.051734 0.115310 0.309647
0.073468 0.115347 0.296893
0.078306 0.115245 0.245475
0.081572 0.115028 0.270653
0.042352 0.114974 0.295034
0.101100 0.115109 0.248677
0.070636 0.115486 0.275536
0.093419 0.115025 0.264312
0.073167 0.115412 0.228337
0.035611 0.115199 0.257939
0.104689 0.115305 0.288558
0.052128 0.115188 0.285510
0.082027 0.115465 0.308799
0.067307 0.126432 0.357620
0.054899 0.125638 0.312420
0.080368 0.126711 0.306473
0.027064 0.126371 0.299903
0.064016 0.126398 0.297753
0.018616 0.126243 0.318074
0.054195 0.127020 0.276865
0.034872 0.126594 0.282360
0.095144 0.126217 0.318763
0.084779 0.126629 0.358133
0.003675 0.126705 0.306768
-0.002295 0.126506 0.330729
0.039047 0.126913 0.314288
0.053690 0.126042 0.344295
0.037208 0.126114 0.341452
0.006122 0.126526 0.356440
0.080336 0.126694 0.327773
0.073369 0.126746 0.283691
0.013816 0.127168 0.339310
0.024864 0.126714 0.351559
0.063307 0.127892 0.332833
0.013685 0.126615 0.284161
0.072962 0.125914 0.342725
0.091647 0.125972 0.342417
0.056251 0.126600 0.368652
0.045829 0.127126 0.298503
0.031056 0.126656 0.364965
0.048790 0.126462 0.326618
0.067447 0.126038 0.315656
0.047242 0.127469 0.356594
0.091301 0.125518 0.291283
0.029561 0.126620 0.328593
0.110552 0.115246 0.353938
0.086328 0.115056 0.253045
0.135624 0.115543 0.284738
0.124581 0.115314 0.235774
0.127408 0.115325 0.307086
0.116363 0.115233 0.282483
0.101011 0.115201 0.240668
0.100001 0.115114 0.300308
0.105984 0.115314 0.320469
0.097389 0.115130 0.263571
0.116443 0.115354 0.315395
0.103897 0.115119 0.334901
0.131140 0.115375 0.337752
0.105571 0.115169 0.287919
0.091742 0.115271 0.286110
0.122504 0.115337 0.268709
0.107591 0.115073 0.271948
0.125089 0.115764 0.321394
0.082302 0.115588 0.307884
0.095040 0.115423 0.345336
0.115125 0.115474 0.329675
0.115748 0.115216 0.252577
0.118740 0.115043 0.297438
0.087578 0.115099 0.328144
0.131433 0.115263 0.258274
0.110934 0.115405 0.305129
0.127917 0.115122 0.288106
0.111624 0.115330 0.218181
0.079647 0.115373 0.273779
0.135263 0.115649 0.320801
0.096136 0.115174 0.312886
0.120496 0.115464 0.344232
-0.019048 0.127447 0.242536
-0.030255 0.126444 0.193880
-0.005154 0.127822 0.187330
-0.056726 0.127271 0.181475
-0.022394 0.127361 0.178823
-0.064388 0.126605 0.200634
-0.031923 0.127772 0.158473
-0.049908 0.127461 0.162937
0.010130 0.126931 0.199293
-0.000918 0.127703 0.244653
-0.077463 0.127899 0.188467
-0.082910 0.127234 0.212728
-0.046168 0.127667 0.195790
-0.030073 0.127046 0.226046
-0.045427 0.126606 0.225778
-0.075621 0.127178 0.242376
-0.005466 0.127575 0.209291
-0.011684 0.128268 0.164860
-0.068809 0.128109 0.223084
-0.056280 0.127757 0.238332
-0.021900 0.127683 0.213143
-0.069277 0.127730 0.166145
-0.011494 0.126551 0.226208
0.006766 0.127063 0.224410
-0.029510 0.127104 0.258565
-0.038895 0.128385 0.179412
-0.052716 0.127241 0.256186
-0.037044 0.127740 0.209277
-0.018395 0.126981 0.196490
-0.036449 0.128452 0.242354
0.006015 0.127048 0.171898
-0.053455 0.127752 0.212342
-0.018825 0.115196 0.257043
-0.041981 0.115072 0.192623
0.014449 0.115295 0.215146
0.001972 0.115218 0.188548
0.001578 0.115276 0.223233
-0.012443 0.115211 0.205983
-0.028233 0.115201 0.187678
-0.027829 0.115157 0.218577
-0.022109 0.115309 0.229118
-0.032657 0.115169 0.198814
-0.009167 0.115211 0.226758
-0.025344 0.115104 0.240894
0.009287 0.114998 0.245464
-0.023929 0.115267 0.208066
-0.037325 0.115279 0.211376
-0.002574 0.115286 0.199708
-0.021055 0.114886 0.197550
0.000500 0.115482 0.235788
-0.046800 0.115387 0.221239
-0.033472 0.115415 0.250615
-0.013582 0.115330 0.238189
-0.009822 0.115222 0.193685
-0.006455 0.115011 0.214255
-0.042198 0.115064 0.236039
0.012729 0.115138 0.197320
-0.016788 0.115536 0.218304
0.004552 0.114994 0.208919
-0.014538 0.115453 0.179902
-0.048411 0.115373 0.203784
0.016715 0.115303 0.231184
-0.033596 0.115271 0.227794
-0.005550 0.115489 0.249677
-0.122641 0.115104 0.163763
-0.140739 0.115084 0.112322
-0.088842 0.115188 0.131166
-0.099429 0.115062 0.109685
-0.102270 0.115197 0.137721
-0.116053 0.115150 0.122894
-0.129701 0.115063 0.108686
-0.129618 0.115187 0.134402
-0.124700 0.115278 0.142251
-0.133617 0.115106 0.117178
-0.112734 0.115109 0.140268
-0.128580 0.115043 0.151554
-0.093069 0.114906 0.154908
-0.126570 0.115257 0.124522
-0.136954 0.115261 0.128119
-0.105098 0.115171 0.117221
-0.123705 0.114915 0.115572
-0.102888 0.115349 0.148644
-0.143899 0.115161 0.135537
-0.134925 0.115324 0.159783
-0.117764 0.115172 0.150014
-0.112536 0.115256 0.113479
-0.110146 0.114821 0.129433
-0.141261 0.114991 0.148531
-0.088831 0.114977 0.115706
-0.120143 0.115411 0.133050
-0.099115 0.114841 0.125077
-0.117248 0.115213 0.102857
-0.144825 0.115230 0.121731
-0.085769 0.115109 0.142576
-0.134755 0.115349 0.142229
-0.109314 0.115349 0.158067
0.254580 -0.101120 0.375884
0.236530 -0.034968 0.376308
0.306277 -0.107141 0.375756
0.211022 -0.042674 0.376706
0.287377 -0.038193 0.375920
0.185757 -0.026755 0.374779
0.256777 -0.041713 0.375053
0.254456 -0.020191 0.375139
0.303225 -0.046137 0.375570
0.288954 -0.093485 0.375349
0.170807 -0.114011 0.375541
0.159280 -0.080117 0.373990
0.219370 -0.106386 0.377377
0.273090 -0.081170 0.373873
0.216502 -0.022691 0.374017
0.163663 -0.042924 0.373321
0.292439 -0.126099 0.377346
0.275619 -0.111047 0.378277
0.204218 -0.127520 0.376210
0.190933 -0.092133 0.374752
0.263408 -0.132375 0.378026
0.214035 -0.072819 0.377508
0.269237 -0.027261 0.375178
0.301523 -0.073153 0.376445
0.269622 -0.051774 0.374603
0.236569 -0.085899 0.376793
0.230851 -0.055806 0.374726
0.253598 -0.068214 0.376879
0.294833 -0.025113 0.373398
0.239071 -0.120591 0.374234
0.285867 -0.062705 0.376526
0.189633 -0.058722 0.374464
-0.067794 0.115158 0.191799
-0.090870 0.115008 0.138167
-0.033649 0.115145 0.157766
-0.045735 0.115151 0.133854
-0.046630 0.115167 0.165032
-0.060634 0.115120 0.149324
-0.076866 0.115143 0.133797
-0.075975 0.115105 0.161708
-0.070278 0.115236 0.169957
-0.081503 0.115088 0.143827
-0.057298 0.115161 0.168081
-0.074361 0.115084 0.179635
-0.039264 0.114910 0.183681
-0.072320 0.115229 0.151252
-0.086030 0.115174 0.155357
-0.049918 0.115170 0.143745
-0.069176 0.114942 0.141231
-0.048863 0.115406 0.176498
-0.095969 0.115276 0.163341
-0.082640 0.115301 0.187717
-0.062760 0.115248 0.178189
-0.057548 0.115205 0.138935
-0.054305 0.114902 0.156686
-0.091757 0.115013 0.176461
-0.035066 0.114988 0.141039
-0.064947 0.115450 0.160358
-0.042990 0.114892 0.151757
-0.062629 0.115370 0.126811
-0.097732 0.115198 0.148433
-0.032024 0.115182 0.170772
-0.082736 0.115213 0.170034
-0.054120 0.115400 0.187342
0.096995 0.124726 0.376028
0.084641 0.125717 0.353400
0.113461 0.125918 0.351529
0.053365 0.126734 0.344209
0.095282 0.126272 0.343953
0.043942 0.126536 0.356829
0.085232 0.127323 0.322667
0.063896 0.126804 0.329210
0.126019 0.125753 0.360941
0.112107 0.125202 0.375887
0.027623 0.127013 0.348500
0.018909 0.126764 0.366802
0.067053 0.126669 0.355552
0.082210 0.125376 0.372554
0.062754 0.126358 0.369332
0.027593 0.126484 0.375215
0.112506 0.125642 0.366244
0.103907 0.126298 0.332919
0.037603 0.126316 0.366944
0.044582 0.126037 0.372187
0.093313 0.127317 0.367719
0.041387 0.126911 0.329380
0.100046 0.125914 0.370090
0.120943 0.124891 0.373766
0.084701 0.126202 0.375190
0.073500 0.126756 0.344375
0.058145 0.125880 0.374019
0.077100 0.125595 0.362687
0.100241 0.125913 0.357575
0.073263 0.125902 0.375870
0.122144 0.125383 0.335587
0.053204 0.126504 0.362023
0.127895 0.115148 0.350675
0.105247 0.114984 0.223277
0.149457 0.115426 0.261333
0.139586 0.115218 0.198550
0.142939 0.115225 0.292022
0.133362 0.115112 0.262872
0.119243 0.115121 0.206300
0.116734 0.115018 0.283217
0.122788 0.115243 0.310327
0.116259 0.115023 0.236760
0.131856 0.115291 0.303494
0.121500 0.115066 0.327687
0.145476 0.115247 0.329094
0.123302 0.115021 0.270351
0.110079 0.115241 0.265230
0.137834 0.115239 0.244294
0.124867 0.115012 0.250932
0.140978 0.115709 0.307424
0.101467 0.115530 0.294607
0.112905 0.115351 0.339538
0.132315 0.115415 0.319879
0.131688 0.115059 0.221680
0.133887 0.114975 0.281616
0.106712 0.115059 0.318901
0.145044 0.115120 0.230006
0.127545 0.115331 0.292051
0.142729 0.115013 0.270732
0.128154 0.115255 0.176090
0.099375 0.115360 0.249880
0.148824 0.115523 0.310308
0.114363 0.115053 0.298018
0.136329 0.115387 0.337729
0.047873 0.115410 0.260868
0.021622 0.115214 0.196040
0.085451 0.115475 0.218317
0.073332 0.115402 0.190982
0.070595 0.115458 0.227591
0.055635 0.115358 0.209934
0.037742 0.115392 0.190922
0.037799 0.115274 0.222930
0.044094 0.115470 0.233566
0.032564 0.115277 0.202562
0.058808 0.115423 0.231629
0.040132 0.115293 0.245460
0.080483 0.115210 0.248980
0.042615 0.115414 0.212277
0.026763 0.115351 0.215742
0.067491 0.115459 0.203217
0.046110 0.115099 0.201231
0.069950 0.115677 0.240177
0.015814 0.115508 0.226154
0.030901 0.115524 0.254968
0.053023 0.115511 0.242562
0.059422 0.115397 0.196997
0.062174 0.115196 0.218519
0.021335 0.115176 0.240873
0.085518 0.115320 0.200199
0.050510 0.115674 0.222860
0.075283 0.115195 0.213232
0.053658 0.115635 0.182859
0.013520 0.115433 0.207829
0.090150 0.115493 0.234877
0.031241 0.115383 0.232504
0.062880 0.115676 0.253566
-0.141508 0.115684 0.154642
-0.148800 0.115697 0.080308
-0.109851 0.115839 0.102082
-0.111938 0.115733 0.072841
-0.128350 0.115780 0.112771
-0.137798 0.115092 0.098258
-0.144746 0.115549 0.073835
-0.146733 0.116921 0.105899
-0.145081 0.115869 0.120768
-0.146888 0.115419 0.086025
-0.136760 0.115456 0.118169
-0.145900 0.115310 0.134137
-0.104665 0.115694 0.133028
-0.144784 0.115658 0.100692
-0.148375 0.115562 0.099281
-0.125204 0.115607 0.088441
-0.142129 0.115856 0.091027
-0.120434 0.115833 0.122471
-0.148897 0.115094 0.111811
-0.147617 0.115803 0.145463
-0.139313 0.115570 0.127646
-0.132455 0.115816 0.080899
-0.135076 0.115246 0.104926
-0.148367 0.116006 0.127006
-0.097123 0.115418 0.086729
-0.142068 0.115887 0.111953
-0.121391 0.116082 0.104110
-0.137822 0.115574 0.060906
-0.149209 0.115227 0.092436
-0.085872 0.115901 0.119260
-0.147732 0.115920 0.113780
-0.132400 0.115831 0.138815
0.062724 0.128188 0.297179
0.051674 0.127082 0.242809
0.076272 0.128336 0.236862
0.026691 0.127760 0.228863
0.060795 0.127887 0.227536
0.019168 0.127451 0.250662
0.050995 0.128347 0.203791
0.034105 0.127949 0.210494
0.088256 0.127429 0.250790
0.079844 0.128016 0.301283
0.006564 0.128097 0.237480
0.001730 0.127642 0.264495
0.036971 0.128231 0.245699
0.052050 0.127564 0.278732
0.036783 0.127269 0.278743
0.008914 0.127801 0.295821
0.075966 0.127831 0.261742
0.069400 0.128687 0.211920
0.014563 0.128053 0.276518
0.026806 0.128080 0.293421
0.059604 0.127821 0.265065
0.014424 0.127919 0.212533
0.069691 0.127292 0.279563
0.085728 0.127469 0.280394
0.053447 0.127727 0.313663
0.044088 0.128681 0.227609
0.030751 0.127536 0.312122
0.045830 0.128310 0.259313
0.062983 0.127493 0.247318
0.046364 0.128561 0.296650
0.085089 0.127268 0.220632
0.029691 0.128192 0.264258
-0.131167 -0.018712 0.070405
-0.160574 -0.017762 -0.048904
-0.048922 -0.013217 -0.051155
-0.241778 -0.016581 -0.082572
-0.120628 -0.016616 -0.081452
-0.258851 -0.018652 -0.027479
-0.159469 -0.017287 -0.157076
-0.213802 -0.020999 -0.124886
-0.022757 -0.015166 -0.012281
-0.081753 -0.013754 0.095272
-0.288910 -0.014635 -0.070201
-0.298541 -0.015972 0.001346
-0.214972 -0.015328 -0.041368
-0.150866 -0.014723 0.025261
-0.214512 -0.019166 0.033401
-0.292261 -0.017184 0.070230
-0.066053 -0.014872 0.013538
-0.088306 -0.013176 -0.115521
-0.272236 -0.014268 0.030117
-0.251570 -0.017767 0.078581
-0.131094 -0.009783 -0.005568
-0.263780 -0.018673 -0.140648
-0.098965 -0.018484 0.040639
-0.040715 -0.016260 0.059129
-0.161632 -0.014981 0.098623
-0.179929 -0.017667 -0.078541
-0.229756 -0.016013 0.113090
-0.180288 -0.016625 -0.000777
-0.098529 -0.022222 -0.031046
-0.184870 -0.016031 0.056362
-0.030822 -0.012406 -0.110690
-0.238204 -0.018248 0.007291
0.005388 0.115261 0.237566
-0.016999 0.115146 0.173816
0.038254 0.115369 0.195905
0.026150 0.115295 0.169517
0.025424 0.115357 0.204080
0.011738 0.115251 0.187088
-0.003631 0.115252 0.168965
-0.003391 0.115236 0.199581
0.002218 0.115386 0.209953
-0.007980 0.115212 0.179997
0.014878 0.115263 0.207588
-0.000990 0.115164 0.221568
0.033119 0.115062 0.225842
0.000509 0.115305 0.189246
-0.012607 0.115299 0.192527
0.021575 0.115355 0.180842
0.003345 0.114984 0.178751
0.024312 0.115536 0.216459
-0.021850 0.115405 0.202150
-0.008826 0.115450 0.231234
0.010552 0.115370 0.218826
0.014360 0.115291 0.174879
0.017492 0.115089 0.195256
-0.017404 0.115135 0.216700
0.036852 0.115214 0.178282
0.007371 0.115596 0.199320
0.028510 0.115085 0.190062
0.009669 0.115522 0.161214
-0.023181 0.115387 0.184972
0.040631 0.115391 0.211679
-0.009083 0.115334 0.208735
0.018351 0.115538 0.230160
0.267037 -0.062703 0.369698
0.251890 -0.020446 0.309815
0.291730 -0.088995 0.297536
0.211066 -0.033821 0.237501
0.282776 -0.029913 0.268289
0.175351 -0.020349 0.335732
0.278787 -0.035688 0.022348
0.267865 -0.027548 0.159843
0.290193 -0.040989 0.335559
0.288795 -0.089812 0.365960
0.172334 -0.086386 0.290381
0.126402 -0.059288 0.349103
0.233978 -0.091846 0.344409
0.282288 -0.070532 0.351892
0.237880 -0.013534 0.366846
0.140425 -0.033009 0.360584
0.295521 -0.110834 0.367398
0.278949 -0.104907 0.198433
0.187894 -0.117460 0.376027
0.197234 -0.065545 0.366362
0.291157 -0.128023 0.342149
0.228199 -0.058739 0.118614
0.286305 -0.019445 0.359747
0.296991 -0.060624 0.372165
0.280902 -0.032369 0.355365
0.263922 -0.072015 0.252050
0.243498 -0.043075 0.360450
0.265495 -0.048202 0.318447
0.278247 -0.008295 0.323275
0.262429 -0.123759 0.369417
0.286382 -0.039687 0.187514
0.210813 -0.036737 0.357455
-0.040493 0.115026 0.177845
-0.062717 0.114892 0.123288
-0.006919 0.115060 0.143063
-0.018815 0.115030 0.118749
-0.019889 0.115072 0.150626
-0.033457 0.115003 0.134833
-0.049304 0.115011 0.118895
-0.048676 0.114991 0.147253
-0.043140 0.115111 0.155680
-0.053718 0.114953 0.129026
-0.030213 0.115035 0.153728
-0.046925 0.114943 0.165514
-0.012394 0.114809 0.169369
-0.044903 0.115097 0.136877
-0.058263 0.115033 0.140767
-0.023019 0.115065 0.129128
-0.041894 0.114808 0.126768
-0.021822 0.115295 0.162099
-0.067883 0.115149 0.148947
-0.054864 0.115147 0.173621
-0.035463 0.115128 0.163836
-0.030463 0.115080 0.124153
-0.027446 0.114801 0.142281
-0.063728 0.114872 0.162078
-0.008207 0.114893 0.126272
-0.037793 0.115327 0.146064
-0.016231 0.114798 0.137409
-0.035462 0.115239 0.111618
-0.069137 0.115077 0.133758
-0.005076 0.115088 0.156446
-0.055130 0.115089 0.155648
-0.027064 0.115270 0.173075
-0.093011 0.115199 0.138486
-0.117138 0.115092 0.089676
-0.057085 0.115153 0.107920
-0.068896 0.115164 0.086317
-0.070853 0.115233 0.114309
-0.085547 0.115174 0.099429
-0.102394 0.115182 0.086014
-0.101415 0.115224 0.111382
-0.095518 0.115314 0.118470
-0.107424 0.115149 0.094637
-0.082175 0.115221 0.116941
-0.100218 0.115139 0.127444
-0.062452 0.114933 0.131077
-0.097689 0.115284 0.100888
-0.111997 0.115243 0.105438
-0.073689 0.115207 0.094199
-0.094213 0.115012 0.091578
-0.072896 0.115439 0.125266
-0.121994 0.115287 0.112486
-0.108638 0.115330 0.135161
-0.088272 0.115294 0.126354
-0.081669 0.115295 0.090522
-0.078712 0.114913 0.106062
-0.117762 0.115040 0.124926
-0.057828 0.115004 0.092039
-0.090118 0.115489 0.109506
-0.066698 0.114916 0.101464
-0.087303 0.115398 0.080087
-0.124262 0.115227 0.099042
-0.054896 0.115175 0.118883
-0.108465 0.115334 0.119183
-0.078739 0.115419 0.134421
0.102681 0.115482 0.292577
0.078020 0.115315 0.221335
0.135496 0.115570 0.244328
0.124332 0.115515 0.213645
0.123433 0.115495 0.256288
0.110223 0.115349 0.237572
0.093430 0.115446 0.214858
0.093127 0.115290 0.251894
0.099054 0.115469 0.264162
0.088473 0.115341 0.228507
0.112299 0.115506 0.261151
0.095649 0.115383 0.276303
0.130223 0.115280 0.279634
0.097841 0.115383 0.240619
0.082964 0.115361 0.243171
0.120103 0.115508 0.229809
0.101051 0.115286 0.228833
0.121460 0.115810 0.269192
0.072616 0.115599 0.255459
0.086534 0.115613 0.286139
0.107641 0.115647 0.273120
0.112557 0.115443 0.221899
0.115317 0.115227 0.247408
0.077249 0.115296 0.271423
0.134092 0.115377 0.225030
0.105007 0.115723 0.252284
0.126711 0.115283 0.240913
0.107882 0.115729 0.203915
0.070398 0.115465 0.234585
0.137367 0.115645 0.264683
0.086816 0.115375 0.261996
0.115946 0.115712 0.284920
-0.045221 0.118897 0.108620
-0.051000 0.124695 0.045911
-0.025338 0.118265 0.045861
-0.077589 0.124373 0.025157
-0.041980 0.122829 0.032590
-0.084355 0.125477 0.064167
-0.050423 0.122229 -0.012409
-0.061458 0.124800 0.009265
-0.014331 0.123274 0.063388
-0.033304 0.117218 0.132831
-0.094461 0.118434 0.038675
-0.112207 0.120657 0.076788
-0.070344 0.118448 0.051905
-0.051153 0.120925 0.086209
-0.061132 0.123924 0.096666
-0.108459 0.123599 0.120526
-0.026466 0.116494 0.082948
-0.039753 0.118430 0.009973
-0.085425 0.118208 0.095014
-0.078933 0.118622 0.125089
-0.044341 0.116512 0.068312
-0.086205 0.120881 -0.002389
-0.037497 0.123754 0.094504
-0.020572 0.121054 0.108614
-0.051594 0.122954 0.132408
-0.059538 0.118990 0.030083
-0.074188 0.121928 0.150493
-0.059977 0.121936 0.065298
-0.033110 0.123751 0.056473
-0.061128 0.115974 0.110202
-0.019669 0.123488 0.017955
-0.071738 0.122740 0.083032
-0.230069 -0.011544 -0.034634
-0.297008 -0.012426 -0.126772
-0.123785 -0.011760 -0.089941
-0.110611 -0.011274 -0.128085
-0.183433 -0.010691 -0.079136
-0.226229 -0.014842 -0.097745
-0.273034 -0.012294 -0.132831
-0.279445 -0.009602 -0.090120
-0.271103 -0.011345 -0.073817
-0.285158 -0.012986 -0.115384
-0.230774 -0.011898 -0.072320
-0.278503 -0.013740 -0.054558
-0.089028 -0.012925 -0.062123
-0.267722 -0.012677 -0.099054
-0.294657 -0.013407 -0.096016
-0.150991 -0.013061 -0.115534
-0.247152 -0.011780 -0.112593
-0.150602 -0.011766 -0.065089
-0.300262 -0.015591 -0.081459
-0.296090 -0.013509 -0.042874
-0.259628 -0.012570 -0.063372
-0.181843 -0.012080 -0.119043
-0.203089 -0.013540 -0.092025
-0.300548 -0.011608 -0.063278
-0.067616 -0.010920 -0.109986
-0.251398 -0.011965 -0.083343
-0.152307 -0.009888 -0.085969
-0.214022 -0.011588 -0.142835
-0.300421 -0.014560 -0.108679
-0.026638 -0.011268 -0.076828
-0.290127 -0.012411 -0.078591
-0.204031 -0.010937 -0.059203
0.147371 0.114481 0.386102
0.133899 0.114067 0.226983
0.151059 0.116144 0.269899
0.148392 0.115437 0.185934
0.149494 0.115158 0.304206
0.148403 0.115097 0.278510
0.146392 0.114007 0.201412
0.144076 0.116503 0.290349
0.145912 0.114634 0.329380
0.143804 0.114366 0.244181
0.147015 0.114712 0.320819
0.144755 0.114340 0.351893
0.150701 0.115717 0.345883
0.146542 0.114560 0.285065
0.138066 0.114639 0.274490
0.148100 0.115612 0.252105
0.146562 0.114324 0.262811
0.149126 0.115386 0.314541
0.130143 0.115190 0.311130
0.140100 0.114980 0.369120
0.148762 0.115147 0.336982
0.147414 0.115113 0.218825
0.147298 0.114750 0.294770
0.138132 0.115217 0.337556
0.149670 0.115466 0.235035
0.146688 0.114939 0.313628
0.149417 0.116074 0.294568
0.147589 0.114645 0.153062
0.123151 0.114881 0.258795
0.151898 0.116109 0.325142
0.142805 0.114490 0.301918
0.148428 0.115263 0.361343
-0.053499 0.127827 0.164578
-0.064224 0.126693 0.121129
-0.037906 0.128245 0.114680
-0.092342 0.127577 0.109812
-0.056953 0.127663 0.106450
-0.099585 0.126790 0.126606
-0.067020 0.128153 0.088692
-0.085641 0.127742 0.091621
-0.021111 0.127090 0.124982
-0.034622 0.128051 0.166100
-0.112642 0.128414 0.115487
-0.117799 0.127737 0.137705
-0.081355 0.128159 0.122236
-0.064382 0.127356 0.149863
-0.080540 0.126737 0.149704
-0.110778 0.127427 0.165240
-0.038785 0.128132 0.134063
-0.045039 0.128889 0.093854
-0.103743 0.128605 0.147035
-0.091887 0.128095 0.160876
-0.056155 0.128166 0.138140
-0.105160 0.128215 0.094936
-0.045135 0.126717 0.149709
-0.025340 0.127416 0.147192
-0.064826 0.127394 0.179265
-0.073551 0.128906 0.107526
-0.088525 0.127611 0.177066
-0.071712 0.128201 0.135209
-0.051502 0.127188 0.122584
-0.071949 0.128949 0.164808
-0.025674 0.127401 0.099997
-0.088914 0.128065 0.137187
0.080029 0.111363 0.376733
0.060399 0.126281 0.372251
0.111884 0.104365 0.373241
0.053849 0.125830 0.370030
0.091965 0.125065 0.369914
0.032121 0.131434 0.373073
0.073799 0.123530 0.349022
0.069736 0.128101 0.362839
0.113890 0.121950 0.373437
0.091766 0.112178 0.376814
0.021325 0.106083 0.373377
0.006406 0.113332 0.374856
0.066540 0.106554 0.375712
0.087472 0.114882 0.373808
0.050530 0.129501 0.376401
0.021250 0.125302 0.375534
0.103069 0.095306 0.377416
0.091921 0.103452 0.367208
0.042677 0.093876 0.377857
0.036603 0.112670 0.376928
0.085061 0.088080 0.376195
0.054738 0.117739 0.361222
0.082864 0.128934 0.374908
0.101847 0.115706 0.376007
0.084792 0.123655 0.377162
0.064779 0.111481 0.369128
0.063892 0.122365 0.377256
0.074787 0.114288 0.373893
0.095643 0.128442 0.372383
0.077064 0.098029 0.377446
0.097370 0.120535 0.363015
0.041436 0.121649 0.373530
-0.142092 0.117803 0.150249
-0.147298 0.117163 0.040881
-0.110432 0.118168 0.068179
-0.110756 0.118280 0.025399
-0.129576 0.118239 0.085526
-0.139107 0.117058 0.067320
-0.144784 0.117475 0.029618
-0.146857 0.118021 0.076418
-0.145775 0.118009 0.098764
-0.146553 0.117280 0.048624
-0.138212 0.117582 0.094754
-0.146101 0.117132 0.118546
-0.103459 0.117866 0.112138
-0.145351 0.117517 0.070988
-0.148016 0.117407 0.066616
-0.125780 0.117605 0.052685
-0.142317 0.118065 0.057870
-0.120997 0.118240 0.095213
-0.147916 0.116335 0.085306
-0.147413 0.117429 0.135369
-0.141088 0.117757 0.105872
-0.132851 0.117911 0.039508
-0.136708 0.117105 0.076221
-0.147216 0.117355 0.106745
-0.094507 0.117975 0.048179
-0.142977 0.117975 0.088098
-0.120547 0.118134 0.076524
-0.138523 0.117681 0.007972
-0.147725 0.116586 0.057580
-0.082022 0.118416 0.095388
-0.147601 0.117615 0.085222
-0.133820 0.118003 0.125002
0.030206 0.115148 0.217987
0.007000 0.115037 0.155041
0.064704 0.115297 0.177161
0.052522 0.115203 0.150364
0.051157 0.115306 0.185633
0.037134 0.115149 0.168380
0.021014 0.115134 0.150298
0.021118 0.115166 0.181365
0.026901 0.115304 0.191422
0.016447 0.115100 0.161204
0.040389 0.115178 0.189197
0.023413 0.115038 0.202887
0.059500 0.114984 0.206909
0.025318 0.115209 0.170605
0.011434 0.115184 0.174049
0.047621 0.115284 0.161951
0.028385 0.114882 0.159880
0.050088 0.115443 0.198138
0.001627 0.115292 0.183645
0.015237 0.115305 0.212119
0.035498 0.115262 0.200288
0.040101 0.115238 0.156135
0.043083 0.114994 0.176625
0.006401 0.115018 0.198163
0.063795 0.115136 0.159004
0.032485 0.115498 0.180895
0.054818 0.115002 0.171313
0.035046 0.115402 0.142260
0.000427 0.115281 0.166390
0.067685 0.115306 0.192699
0.015107 0.115263 0.190628
0.043936 0.115451 0.211101
-0.116820 0.115138 0.094365
-0.136203 0.115122 0.046307
-0.082082 0.115200 0.064311
-0.092926 0.115121 0.043513
-0.095966 0.115236 0.070652
-0.110135 0.115219 0.056166
-0.124407 0.115130 0.042966
-0.124114 0.115275 0.067745
-0.118902 0.115339 0.074808
-0.128581 0.115147 0.050857
-0.106842 0.115194 0.073043
-0.123338 0.115131 0.083513
-0.086685 0.114994 0.086707
-0.120910 0.115309 0.057639
-0.132195 0.115293 0.061632
-0.098579 0.115232 0.050690
-0.117791 0.114971 0.048838
-0.096953 0.115407 0.081325
-0.139714 0.115244 0.068539
-0.129894 0.115336 0.091241
-0.112096 0.115251 0.082345
-0.106203 0.115339 0.047492
-0.103851 0.114889 0.062456
-0.136710 0.114993 0.081022
-0.082066 0.115002 0.048964
-0.114394 0.115483 0.066020
-0.092338 0.114872 0.058133
-0.111430 0.115265 0.037056
-0.140648 0.115252 0.055443
-0.079260 0.115140 0.074712
-0.129716 0.115398 0.075348
-0.103395 0.115363 0.089686
-0.013280 0.115062 0.163252
-0.035821 0.114921 0.106089
0.020501 0.115097 0.126547
0.008648 0.115049 0.101205
0.007294 0.115144 0.134772
-0.006080 0.115076 0.118433
-0.022186 0.115031 0.101614
-0.021836 0.115055 0.131277
-0.016330 0.115158 0.140256
-0.026676 0.114978 0.111944
-0.003022 0.115073 0.138109
-0.019907 0.114952 0.150483
0.015148 0.114868 0.154176
-0.017711 0.115129 0.120577
-0.031525 0.115038 0.124307
0.004433 0.115125 0.112278
-0.014686 0.114828 0.110129
0.005618 0.115327 0.146583
-0.041267 0.115182 0.133081
-0.027978 0.115127 0.158781
-0.008280 0.115179 0.148492
-0.003036 0.115125 0.107051
-0.000274 0.114851 0.126190
-0.036874 0.114879 0.146654
0.019318 0.114949 0.109067
-0.010698 0.115360 0.130299
0.011198 0.114863 0.121182
-0.008150 0.115254 0.093790
-0.042300 0.115086 0.116979
0.022625 0.115130 0.140841
-0.028244 0.115140 0.139946
0.000260 0.115295 0.157998
0.082469 0.115486 0.243205
0.056706 0.115284 0.177153
0.120032 0.115524 0.199560
0.108699 0.115517 0.171115
0.104886 0.115544 0.209491
0.090253 0.115399 0.191785
0.072787 0.115485 0.171701
0.072324 0.115342 0.204860
0.078557 0.115591 0.215792
0.067595 0.115362 0.183985
0.093119 0.115510 0.213774
0.074737 0.115385 0.227817
0.115613 0.115254 0.230825
0.077298 0.115476 0.194341
0.061566 0.115406 0.197518
0.102280 0.115529 0.184577
0.080914 0.115265 0.183019
0.104549 0.115753 0.222060
0.050848 0.115537 0.208256
0.065576 0.115596 0.237203
0.087402 0.115559 0.224716
0.094136 0.115467 0.178047
0.096421 0.115265 0.200516
0.056244 0.115278 0.223008
0.121208 0.115398 0.181193
0.084957 0.115762 0.205063
0.109758 0.115277 0.195225
0.088436 0.115728 0.162618
0.048639 0.115490 0.189393
0.126250 0.115535 0.216647
0.065950 0.115420 0.214581
0.097210 0.115730 0.235629
-0.060883 0.115022 0.124237
-0.085092 0.114913 0.076293
-0.025793 0.114997 0.094020
-0.037278 0.115016 0.072756
-0.039600 0.115099 0.100238
-0.053582 0.115047 0.085752
-0.070384 0.115002 0.072839
-0.069562 0.115074 0.097503
-0.063798 0.115122 0.104414
-0.075399 0.114962 0.081134
-0.050391 0.115077 0.102890
-0.068222 0.114943 0.113357
-0.030948 0.114798 0.116709
-0.065569 0.115110 0.087176
-0.080279 0.115026 0.091696
-0.042001 0.115067 0.080712
-0.062100 0.114833 0.078049
-0.041395 0.115259 0.111083
-0.090558 0.115123 0.098501
-0.076571 0.115084 0.120894
-0.056465 0.115135 0.112045
-0.049656 0.115156 0.077150
-0.047063 0.114785 0.092220
-0.085859 0.114843 0.110557
-0.026166 0.114862 0.078374
-0.058234 0.115332 0.095689
-0.034947 0.114816 0.087744
-0.055333 0.115240 0.066893
-0.092446 0.115020 0.085395
-0.023011 0.115038 0.104720
-0.076612 0.115152 0.105170
-0.047081 0.115236 0.120143
0.118453 0.115453 0.281584
0.096668 0.115268 0.198202
0.146456 0.115630 0.223718
0.136576 0.115475 0.186677
0.136778 0.115464 0.240287
0.125345 0.115269 0.219337
0.110499 0.115401 0.189647
0.109115 0.115188 0.235207
0.114676 0.115419 0.250813
0.106244 0.115251 0.206603
0.126159 0.115482 0.246581
0.112093 0.115353 0.264089
0.141682 0.115339 0.266603
0.114070 0.115275 0.223543
0.100914 0.115384 0.224070
0.133123 0.115493 0.209296
0.116749 0.115277 0.210211
0.134673 0.115875 0.253580
0.091868 0.115602 0.240362
0.103633 0.115622 0.274088
0.123189 0.115713 0.259801
0.126234 0.115362 0.198548
0.128557 0.115204 0.231250
0.095856 0.115285 0.258148
0.144445 0.115436 0.202212
0.120018 0.115608 0.237333
0.138583 0.115214 0.223283
0.122598 0.115647 0.174018
0.090348 0.115488 0.214101
0.147336 0.115710 0.250757
0.104203 0.115294 0.246405
0.129790 0.115676 0.272699
0.225965 -0.011365 0.373863
0.198599 -0.009116 0.284062
0.295782 -0.012931 0.271335
0.095744 -0.006825 0.234708
0.240785 -0.012955 0.239103
0.058894 -0.012984 0.305675
0.215292 -0.012374 0.090637
0.152734 -0.017547 0.151037
0.296200 -0.011362 0.320034
0.276033 -0.015748 0.381029
0.014613 -0.000816 0.259440
-0.022570 -0.007107 0.337271
0.133468 -0.008854 0.294159
0.211389 -0.007301 0.349025
0.142627 -0.011020 0.351936
-0.010229 -0.008338 0.372689
0.291285 -0.013259 0.352565
0.265607 -0.006000 0.177503
0.050652 -0.010106 0.361650
0.077430 -0.005120 0.369600
0.245263 -0.017486 0.326095
0.071822 -0.004446 0.144625
0.253870 -0.009006 0.356528
0.308259 -0.014618 0.372972
0.205177 -0.008341 0.374430
0.171866 -0.007916 0.233910
0.126315 -0.007837 0.371067
0.172210 -0.008174 0.329983
0.258609 -0.010805 0.297293
0.173825 -0.017816 0.374050
0.299470 -0.007862 0.187462
0.095703 -0.006050 0.335259
0.052154 0.115347 0.203772
0.029164 0.115221 0.141004
0.085687 0.115456 0.162751
0.074121 0.115409 0.136250
0.072296 0.115474 0.171249
0.058676 0.115343 0.154427
0.043013 0.115361 0.136213
0.042941 0.115337 0.166912
0.048618 0.115516 0.176993
0.038483 0.115287 0.147208
0.061618 0.115374 0.174735
0.045267 0.115258 0.188413
0.080925 0.115199 0.192129
0.047206 0.115402 0.156644
0.033469 0.115374 0.159880
0.069100 0.115465 0.147952
0.050276 0.115095 0.146073
0.071495 0.115639 0.183386
0.024035 0.115474 0.169430
0.037321 0.115526 0.197736
0.056986 0.115458 0.185660
0.061740 0.115393 0.142036
0.064363 0.115208 0.162496
0.028748 0.115198 0.183651
0.085140 0.115333 0.145112
0.054001 0.115696 0.166625
0.075959 0.115185 0.157478
0.056737 0.115596 0.128184
0.022696 0.115456 0.152303
0.089132 0.115461 0.178258
0.037133 0.115419 0.176042
0.065296 0.115633 0.196441
-0.134893 0.115036 0.063689
-0.146638 0.115093 0.006036
-0.104462 0.115236 0.025954
-0.110945 0.115033 0.000790
-0.118792 0.115088 0.035127
-0.129887 0.114999 0.020472
-0.139735 0.115018 0.001529
-0.141147 0.115126 0.030941
-0.137812 0.115238 0.041084
-0.142477 0.115023 0.011413
-0.127944 0.114982 0.038726
-0.139916 0.114968 0.050928
-0.104933 0.115033 0.051882
-0.138253 0.115202 0.022921
-0.144746 0.115173 0.023796
-0.119179 0.115080 0.012806
-0.135825 0.115058 0.013736
-0.115780 0.115351 0.045374
-0.147671 0.115021 0.033344
-0.143476 0.115232 0.058993
-0.131346 0.115072 0.047959
-0.126059 0.115210 0.007583
-0.126255 0.114778 0.027408
-0.146326 0.114941 0.046680
-0.099946 0.114891 0.010496
-0.134168 0.115284 0.032153
-0.115026 0.114887 0.023708
-0.130963 0.115017 -0.008416
-0.147721 0.115083 0.017224
-0.094598 0.115168 0.039635
-0.143505 0.115267 0.038938
-0.124205 0.115206 0.055393
-0.090415 0.115293 0.078463
-0.115363 0.115209 0.033201
-0.052732 0.115281 0.050323
-0.064041 0.115289 0.030141
-0.067735 0.115371 0.056211
-0.082936 0.115299 0.041982
-0.100152 0.115284 0.029848
-0.099353 0.115353 0.053471
-0.093288 0.115414 0.059815
-0.105495 0.115259 0.037655
-0.079623 0.115348 0.058625
-0.098395 0.115246 0.068430
-0.057595 0.115081 0.071539
-0.095395 0.115396 0.043169
-0.110334 0.115343 0.047980
-0.069836 0.115348 0.037005
-0.091569 0.115128 0.034364
-0.069074 0.115548 0.066839
-0.120300 0.115417 0.054473
-0.106738 0.115446 0.075770
-0.086139 0.115394 0.067438
-0.078073 0.115426 0.034008
-0.075734 0.115032 0.048091
-0.115889 0.115127 0.066239
-0.052204 0.115125 0.035116
-0.087775 0.115637 0.051524
-0.062688 0.115056 0.043957
-0.084354 0.115504 0.024489
-0.122574 0.115319 0.041916
-0.048982 0.115319 0.059874
-0.106543 0.115448 0.060921
-0.075807 0.115523 0.074686
0.100016 0.019425 0.383842
0.090545 0.071378 0.384439
0.142444 0.002278 0.373868
0.076994 0.056486 0.372814
0.115570 0.077091 0.372397
0.060986 0.105428 0.382946
0.104832 0.056152 0.293197
0.106976 0.119296 0.352305
0.134742 0.052227 0.382558
0.110224 0.004561 0.384456
0.025772 0.002955 0.376261
0.008219 0.018650 0.385569
0.077317 0.006111 0.384577
0.115793 0.018070 0.375639
0.079649 0.113401 0.379993
0.040316 0.072237 0.377667
0.141067 -0.013154 0.384270
0.116921 -0.004510 0.342121
0.048248 -0.017890 0.385355
0.047900 0.017324 0.381426
0.112009 -0.030543 0.379861
0.076626 0.014813 0.328208
0.107249 0.092830 0.381627
0.126951 0.024013 0.383710
0.108154 0.063022 0.380645
0.088459 0.014318 0.358994
0.092755 0.040633 0.379178
0.097083 0.023717 0.376825
0.120210 0.119268 0.382538
0.092955 -0.008189 0.385454
0.122307 0.037204 0.343595
0.062219 0.044457 0.380119
0.010696 0.115084 0.149907
-0.011763 0.114949 0.092860
0.044379 0.115106 0.113146
0.032959 0.115067 0.087919
0.031017 0.115168 0.121560
0.017801 0.115085 0.105335
0.001889 0.115064 0.088439
0.001957 0.115092 0.117949
0.007419 0.115204 0.127051
-0.002631 0.114990 0.098695
0.020700 0.115091 0.124983
0.003904 0.114965 0.137328
0.039282 0.114879 0.140712
0.006257 0.115128 0.107527
-0.007666 0.115050 0.111071
0.028460 0.115141 0.099086
0.009350 0.114854 0.097077
0.029689 0.115342 0.133188
-0.017283 0.115158 0.120030
-0.004119 0.115139 0.145441
0.015453 0.115188 0.135139
0.021065 0.115133 0.093856
0.023456 0.114883 0.113045
-0.012823 0.114892 0.133387
0.043658 0.114970 0.095912
0.013059 0.115375 0.117231
0.035124 0.114894 0.108237
0.015856 0.115273 0.080606
-0.018250 0.115098 0.103772
0.047037 0.115141 0.127614
-0.004304 0.115150 0.126599
0.024065 0.115309 0.144508
-0.033300 0.114965 0.112875
-0.057142 0.114829 0.062407
0.001559 0.114911 0.080921
-0.010200 0.114931 0.058441
-0.012209 0.115014 0.087795
-0.025961 0.114982 0.072687
-0.042719 0.114937 0.058663
-0.042054 0.115006 0.084857
-0.036374 0.115060 0.092329
-0.047589 0.114877 0.067570
-0.022786 0.114986 0.090650
-0.040496 0.114866 0.101667
-0.003805 0.114728 0.105123
-0.037891 0.115028 0.074373
-0.052602 0.114924 0.078729
-0.014605 0.115001 0.067356
-0.034555 0.114749 0.064728
-0.013984 0.115199 0.098958
-0.062842 0.115053 0.086139
-0.048836 0.114999 0.109375
-0.028673 0.115080 0.100122
-0.022217 0.115056 0.063287
-0.019620 0.114733 0.079552
-0.058190 0.114763 0.098575
0.000766 0.114783 0.064699
-0.030653 0.115248 0.083235
-0.007583 0.114752 0.075019
-0.027827 0.115155 0.052231
-0.064262 0.114944 0.072088
0.003890 0.114979 0.092753
-0.049028 0.115057 0.092839
-0.019504 0.115163 0.108629
0.124376 0.122526 0.330703
0.113682 0.126160 0.278480
0.138620 0.119541 0.276932
0.094495 0.126436 0.262470
0.127112 0.125760 0.265747
0.088375 0.126065 0.293519
0.121163 0.125256 0.224891
0.110441 0.126045 0.244229
0.144273 0.124860 0.295064
0.135015 0.119181 0.352454
0.079832 0.119715 0.270850
0.068376 0.122274 0.299591
0.101180 0.119845 0.283786
0.120680 0.124614 0.308595
0.107146 0.126049 0.321671
0.075933 0.126178 0.333066
0.138687 0.118222 0.310254
0.128593 0.119068 0.244609
0.083938 0.118947 0.316826
0.094291 0.121905 0.342199
0.124311 0.118727 0.297284
0.090989 0.122402 0.237570
0.131783 0.125906 0.319202
0.142718 0.122813 0.333453
0.121771 0.126140 0.348510
0.111656 0.120973 0.263103
0.104099 0.124969 0.360449
0.110394 0.124655 0.295476
0.129667 0.126147 0.287765
0.112483 0.119050 0.329676
0.139884 0.125228 0.253535
0.097885 0.125493 0.308395
-0.246586 -0.011101 -0.050476
-0.296990 -0.012222 -0.157494
-0.148966 -0.011208 -0.120460
-0.138586 -0.011115 -0.159291
-0.204597 -0.010944 -0.108212
-0.241400 -0.013956 -0.128586
-0.278457 -0.012313 -0.164552
-0.285500 -0.007491 -0.120536
-0.279146 -0.011427 -0.100413
-0.288368 -0.012846 -0.146943
-0.241626 -0.011648 -0.100550
-0.283335 -0.013226 -0.078199
-0.118479 -0.011734 -0.085372
-0.275614 -0.012250 -0.129025
-0.295757 -0.013207 -0.127389
-0.178343 -0.012345 -0.145453
-0.259707 -0.011697 -0.142470
-0.173610 -0.011514 -0.093497
-0.299241 -0.014980 -0.110616
-0.296599 -0.012798 -0.062511
-0.266412 -0.011812 -0.089305
-0.204628 -0.011479 -0.151108
-0.222541 -0.012847 -0.121819
-0.299520 -0.011043 -0.089135
-0.097630 -0.011024 -0.139828
-0.261163 -0.011622 -0.111681
-0.176343 -0.009577 -0.115756
-0.230909 -0.011297 -0.175159
-0.299526 -0.014240 -0.139295
-0.060384 -0.010723 -0.102082
-0.292899 -0.012131 -0.108434
-0.219431 -0.010811 -0.079863
