-0.285465 -0.131843 0.360390
-0.295785 -0.103031 0.360753
-0.286653 -0.083987 0.360478
-0.263998 -0.125806 0.355897
-0.293083 -0.048938 0.365227
-0.291949 -0.059915 0.360611
-0.258116 -0.113650 0.360820
-0.267304 -0.094123 0.360607
-0.268194 -0.070214 0.360439
-0.301953 -0.076112 0.329989
-0.224451 -0.134508 0.361475
-0.292178 -0.021620 0.360005
-0.238672 -0.089860 0.360645
-0.269099 -0.031319 0.359959
-0.220265 -0.109404 0.361725
-0.298392 -0.002320 0.346739
-0.250200 -0.050848 0.360552
-0.196734 -0.094860 0.362302
-0.211282 -0.070109 0.361541
-0.231539 -0.030435 0.361416
-0.166089 -0.131170 0.362042
-0.281298 -0.019825 0.323874
-0.297546 -0.011798 0.312347
-0.234973 0.016060 0.371771
-0.200547 -0.112135 0.334760
-0.167050 -0.090843 0.362303
-0.187382 -0.051088 0.362280
-0.297753 -0.012050 0.280917
-0.126297 -0.112651 0.361913
-0.168859 -0.030802 0.362592
-0.241177 0.100643 0.365922
-0.134472 -0.070940 0.368908
-0.105167 -0.133567 0.360962
-0.148739 -0.051162 0.361961
-0.127805 -0.071982 0.361879
-0.107321 -0.092742 0.361312
-0.297414 -0.011431 0.251212
-0.135103 0.025426 0.377369
-0.139673 0.006672 0.362089
-0.109386 -0.031253 0.361488
-0.177060 0.129645 0.381294
-0.297682 -0.011557 0.222128
-0.022263 -0.109416 0.384113
-0.139234 0.045604 0.362045
-0.119434 0.025628 0.362609
-0.099117 0.007054 0.361842
-0.297648 -0.011033 0.194361
-0.118814 0.066136 0.362350
-0.077627 0.002424 0.363449
-0.035918 -0.019604 0.384127
-0.137498 0.104847 0.361656
-0.147317 0.124666 0.363232
-0.228410 0.114393 0.297741
-0.098984 0.046469 0.361737
-0.056821 0.001335 0.363975
-0.078242 0.046005 0.362511
-0.098455 0.087059 0.361409
-0.297751 -0.011204 0.167085
-0.268257 0.037625 0.202041
-0.058032 0.046734 0.362110
-0.042144 0.025123 0.363234
-0.148427 0.116547 0.324189
-0.078011 0.087996 0.361197
-0.020024 0.001391 0.364166
-0.077092 0.122044 0.370516
-0.297107 -0.010546 0.141150
-0.147079 0.138553 0.320229
-0.020345 0.025017 0.363345
-0.098143 0.116660 0.343861
0.001363 0.001948 0.364134
-0.042043 0.067852 0.361297
-0.056894 0.108544 0.362084
-0.020580 0.046324 0.362073
-0.233335 0.110761 0.232370
0.000762 0.024739 0.363319
-0.020473 0.067350 0.361464
0.122835 -0.121768 0.379087
-0.149262 0.117785 0.285854
-0.297025 -0.010949 0.116352
0.000596 0.046514 0.362611
-0.020623 0.088907 0.360846
0.022306 0.025716 0.363719
0.039638 0.001981 0.364083
0.000897 0.067816 0.361691
-0.163326 0.117148 0.263283
-0.020071 0.110982 0.361221
-0.023345 0.125299 0.363653
-0.296365 -0.014150 0.091897
0.001145 0.088845 0.360885
0.062090 0.001702 0.364700
0.052662 0.039942 0.373328
-0.265715 0.062329 0.146616
0.022157 0.067439 0.362199
0.038803 0.047259 0.362548
-0.105462 0.114234 0.285565
0.001026 0.111751 0.361074
-0.149671 0.114406 0.249460
0.049253 0.107454 0.382672
-0.296053 -0.014438 0.069882
-0.087502 0.129452 0.291494
0.078100 0.025780 0.363836
0.022692 0.112274 0.360933
-0.040067 0.116266 0.316925
0.039446 0.089782 0.361215
0.101989 0.001569 0.364703
0.061133 0.068542 0.362102
0.077702 0.046261 0.363033
0.127871 -0.031984 0.362434
-0.129021 0.113976 0.238674
0.101278 0.024651 0.364714
-0.295961 -0.014296 0.047560
-0.075973 0.113829 0.271666
-0.149701 0.115697 0.214919
0.124066 0.002105 0.364397
0.100824 0.047977 0.363521
0.061715 0.112588 0.361737
0.078419 0.091185 0.361782
-0.142403 0.108568 0.207713
0.123495 0.026884 0.363823
0.100734 0.069787 0.362829
0.146641 0.002215 0.364672
-0.296658 -0.014701 0.026157
-0.182512 0.127600 0.177231
0.123590 0.048778 0.363473
0.053813 0.116690 0.341896
-0.005910 0.136996 0.306587
0.100785 0.091933 0.362089
-0.027214 0.110992 0.276456
-0.000019 0.115931 0.297949
0.146825 0.026765 0.363918
0.123701 0.070944 0.362709
-0.262477 0.015703 0.051097
-0.045611 0.114457 0.257875
0.101740 0.113442 0.362266
-0.091743 0.113637 0.220474
0.146833 0.048900 0.363541
-0.130250 0.114327 0.186159
0.131692 0.115889 0.376383
0.077179 0.115431 0.331480
0.124800 0.108431 0.362009
0.197322 0.046403 0.380098
0.146932 0.087204 0.362212
0.282659 -0.116269 0.368103
-0.296710 -0.014299 -0.014151
-0.070980 0.113380 0.211120
-0.149603 0.114857 0.150975
0.147719 0.108650 0.361952
-0.110458 0.114758 0.175915
-0.015523 0.114519 0.242958
-0.052894 0.117444 0.214807
-0.197709 0.112920 0.103776
0.040251 0.114914 0.279797
0.054847 0.134853 0.292771
0.105567 0.114737 0.318779
-0.085287 0.122028 0.180793
-0.049911 0.114524 0.200385
-0.131606 0.115034 0.136932
0.284529 -0.022544 0.375233
-0.090233 0.114657 0.166200
0.130924 0.140155 0.333651
0.124256 0.113890 0.310042
0.014749 0.114642 0.229117
-0.149452 0.115803 0.106340
0.034596 0.116590 0.241544
-0.273658 0.059910 -0.018022
-0.029652 0.114309 0.190879
0.276625 -0.075906 0.323643
-0.070171 0.114518 0.156606
-0.108448 0.114998 0.125788
0.080491 0.113366 0.262544
-0.213610 0.108810 0.037352
-0.296986 -0.012998 -0.086548
0.147532 0.112870 0.300258
-0.119258 0.121750 0.108529
0.217516 0.132494 0.356937
-0.149774 0.117541 0.078464
-0.009290 0.114719 0.181508
-0.128911 0.115327 0.089108
-0.050328 0.115016 0.147057
0.044368 0.114373 0.215837
-0.089023 0.115164 0.116486
0.102898 0.112962 0.252453
0.241637 -0.005600 0.293069
0.011721 0.114665 0.171495
-0.144866 0.115520 0.054264
-0.109541 0.114885 0.080119
0.236929 0.076151 0.313746
-0.029942 0.114914 0.137493
-0.069189 0.115278 0.107076
0.145987 0.112156 0.258107
-0.297537 -0.012588 -0.135735
0.074555 0.113324 0.202127
-0.146716 0.115867 0.027410
0.138766 0.112260 0.235479
-0.010183 0.115228 0.127933
-0.087358 0.115168 0.069687
-0.050251 0.115418 0.097339
-0.023297 0.130978 0.122684
-0.115028 0.115538 0.039520
-0.074931 0.125276 0.074558
-0.145401 0.115631 0.013570
0.048248 0.122999 0.160265
0.049018 0.114270 0.154622
-0.230061 0.097707 -0.069835
0.009757 0.115132 0.119335
-0.068877 0.115299 0.060254
-0.186816 0.095326 -0.040500
-0.297256 -0.015273 -0.179857
-0.027108 0.115094 0.086768
0.113164 0.112605 0.183865
0.200268 0.135803 0.255864
-0.093298 0.115683 0.029057
-0.124385 0.116223 0.003150
0.069805 0.114008 0.145534
-0.261474 0.068132 -0.132831
-0.049685 0.115236 0.051446
0.029353 0.115092 0.110085
-0.007746 0.114972 0.077641
-0.297904 -0.014745 -0.208111
0.090813 0.113040 0.136528
0.049180 0.114577 0.100980
0.129046 0.132219 0.167001
-0.064107 0.115411 0.015344
-0.078318 0.109686 0.000907
-0.095600 0.115545 -0.010156
-0.027802 0.115131 0.040750
0.011628 0.115166 0.068285
-0.008659 0.122614 0.053771
-0.296768 -0.014239 -0.234008
-0.148722 0.115434 -0.057555
0.236406 0.075476 0.207787
-0.118322 0.115446 -0.037292
0.069050 0.114024 0.091813
0.042577 0.131764 0.079931
-0.008926 0.114699 0.032245
0.030840 0.114616 0.060041
-0.262821 -0.100449 -0.267741
-0.043065 0.115280 0.004699
-0.297300 -0.014291 -0.258243
-0.307440 -0.073241 -0.295944
-0.128707 0.115573 -0.067626
-0.160770 0.123741 -0.091335
-0.097466 0.115657 -0.047603
0.131031 0.120746 0.122966
-0.064149 0.115490 -0.025543
-0.142868 0.115402 -0.094926
0.049636 0.114592 0.050220
0.013318 0.114785 0.021786
-0.109195 0.115641 -0.077828
0.241426 0.092654 0.168878
-0.013769 0.114827 -0.008262
-0.076934 0.115654 -0.057272
-0.296258 -0.013924 -0.291890
-0.043313 0.115041 -0.034904
-0.088200 0.124162 -0.071025
0.000665 0.124990 -0.004792
-0.123630 0.115517 -0.104515
0.031198 0.115055 0.012182
-0.295776 -0.134745 -0.365654
-0.282745 -0.124618 -0.350921
0.126972 0.127784 0.082894
-0.089779 0.115404 -0.086942
-0.140278 0.115287 -0.128312
-0.057327 0.115287 -0.066577
-0.022488 0.114990 -0.045345
-0.181940 0.126817 -0.165249
-0.296528 -0.093570 -0.365261
-0.148539 0.114786 -0.150220
-0.233140 0.061892 -0.243355
-0.296993 -0.012792 -0.332510
-0.280430 -0.135899 -0.381529
0.248801 0.074700 0.120986
-0.296947 -0.071873 -0.365359
-0.034427 0.118813 -0.068402
-0.095111 0.115412 -0.118442
-0.067032 0.115204 -0.098437
-0.037513 0.115163 -0.076697
-0.283804 -0.113943 -0.381181
-0.001639 0.114554 -0.054944
0.079289 0.119620 0.007318
-0.297719 -0.034283 -0.365957
-0.228160 0.147142 -0.223694
-0.287367 0.018678 -0.331992
-0.252439 -0.135459 -0.380976
-0.274629 -0.035780 -0.350177
-0.128846 0.114898 -0.164003
-0.101541 0.119638 -0.141231
-0.296992 -0.054499 -0.381972
-0.100373 0.115214 -0.147841
-0.047685 0.115411 -0.107933
-0.017369 0.114640 -0.086315
-0.073092 0.114863 -0.128889
0.219788 0.115665 0.086331
-0.257863 -0.094886 -0.380739
-0.270951 -0.070345 -0.381010
-0.138924 0.114181 -0.187450
-0.234474 -0.115281 -0.380340
-0.220226 -0.136013 -0.380612
-0.108202 0.114979 -0.174155
-0.280123 -0.033180 -0.381788
-0.079084 0.115143 -0.158032
-0.232617 -0.093104 -0.380190
0.117006 0.121610 -0.010745
-0.253922 -0.054092 -0.380874
-0.148986 0.115135 -0.220002
0.202673 0.065253 0.022118
0.026997 0.127995 -0.078586
-0.275137 -0.011457 -0.381792
-0.118428 0.114762 -0.197205
-0.128594 0.131100 -0.197285
-0.222169 0.119641 -0.279336
-0.191264 -0.134990 -0.380162
-0.027803 0.131690 -0.123821
-0.200408 -0.114365 -0.379845
-0.227951 -0.054768 -0.380147
-0.128068 0.114463 -0.219134
-0.057491 0.114508 -0.168595
0.191046 0.126039 0.021692
-0.244313 -0.011388 -0.381354
-0.200846 -0.072877 -0.378839
-0.223102 -0.032871 -0.380239
-0.157862 -0.135273 -0.379320
-0.118543 0.102103 -0.233453
-0.182244 -0.087887 -0.378552
-0.069669 0.114824 -0.192717
-0.148875 0.113597 -0.259070
-0.160855 -0.114453 -0.379040
-0.108544 0.114636 -0.228924
-0.080945 0.114660 -0.215417
-0.245517 0.082370 -0.360843
-0.048175 0.117818 -0.189226
-0.162696 -0.074212 -0.378229
-0.142416 0.127088 -0.267302
-0.171511 -0.048445 -0.378605
-0.129973 -0.113938 -0.378859
-0.193911 -0.012535 -0.379940
-0.130000 0.114246 -0.267908
0.115689 0.119528 -0.085320
-0.129472 -0.093780 -0.379412
-0.152730 -0.053656 -0.378054
-0.097922 -0.101025 -0.357949
-0.101687 0.114716 -0.257665
-0.184035 0.019857 -0.371969
-0.198110 0.135226 -0.328235
-0.148882 0.001762 -0.357195
-0.152717 -0.034136 -0.378359
-0.169965 -0.008072 -0.378787
-0.128322 -0.073196 -0.378636
-0.090220 -0.133812 -0.379867
-0.111261 0.114364 -0.277316
-0.109555 -0.094060 -0.378922
-0.150308 -0.013254 -0.379142
-0.139217 0.114270 -0.308961
-0.120416 0.113941 -0.295716
0.066278 0.132990 -0.143721
-0.081334 -0.114179 -0.379574
-0.148994 0.041659 -0.358934
-0.101440 -0.074270 -0.379123
-0.123799 -0.033500 -0.379094
-0.145156 0.006981 -0.379383
-0.148951 0.062842 -0.359259
-0.102491 -0.052879 -0.378883
-0.076663 -0.092650 -0.379245
-0.057976 -0.112403 -0.379861
-0.136926 0.114409 -0.330930
-0.118715 -0.013968 -0.379406
0.264355 0.074079 -0.048121
-0.148953 0.082992 -0.358719
0.194240 0.109526 -0.085797
-0.139508 0.027805 -0.380330
-0.028937 0.140122 -0.240249
-0.100332 -0.031663 -0.379287
-0.034345 -0.133208 -0.379816
-0.071590 -0.071991 -0.379646
-0.116240 0.006639 -0.379620
0.019544 0.137058 -0.214890
-0.145209 0.066248 -0.380672
-0.043164 -0.087086 -0.379662
-0.110381 0.028396 -0.379370
-0.069746 -0.032285 -0.379269
-0.145070 0.086698 -0.381045
-0.105332 0.143718 -0.322255
-0.053305 -0.054029 -0.379619
-0.089035 0.007749 -0.379275
0.179596 0.096372 -0.132197
-0.023686 -0.093249 -0.379722
0.005633 -0.133773 -0.380405
-0.145291 0.107393 -0.380274
-0.116226 0.067028 -0.379931
-0.144380 0.133059 -0.372395
-0.145507 0.127238 -0.379631
-0.055188 -0.013216 -0.379114
-0.031194 -0.041351 -0.376409
-0.025531 -0.052186 -0.379723
-0.086741 0.047010 -0.380090
-0.078558 0.044247 -0.374898
-0.035615 -0.028027 -0.379218
-0.039992 0.131596 -0.306282
0.025801 -0.115475 -0.376825
-0.115894 0.106691 -0.380605
-0.086339 0.069073 -0.380231
0.040900 -0.133540 -0.381140
-0.055641 0.026955 -0.379568
-0.115705 0.127235 -0.379836
-0.039958 0.008016 -0.379213
-0.065062 0.053939 -0.379736
0.004609 -0.041547 -0.379377
0.031469 -0.087610 -0.380569
0.061630 -0.134529 -0.380349
-0.010531 -0.013995 -0.379425
0.199077 0.130627 -0.152760
0.057309 -0.114521 -0.380491
-0.073654 0.093884 -0.380512
-0.017289 0.008178 -0.379403
0.026080 -0.053173 -0.379389
-0.084778 0.128465 -0.380295
0.010510 -0.022038 -0.379110
0.107209 0.120734 -0.236126
0.130684 0.129404 -0.215539
-0.026927 0.043632 -0.380000
0.083891 -0.133628 -0.381711
0.052090 -0.073255 -0.380140
0.079562 -0.113088 -0.381305
0.003164 0.013724 -0.379961
-0.035500 0.087581 -0.380383
0.028331 -0.011461 -0.379409
0.105545 -0.134997 -0.381162
0.032888 0.129638 -0.310107
0.078421 -0.087009 -0.380560
-0.044569 0.109400 -0.380666
-0.053289 0.127990 -0.380670
0.101871 -0.115030 -0.381361
0.066265 -0.051945 -0.380262
0.013238 0.036180 -0.379027
-0.034048 0.125160 -0.373116
-0.006541 0.067212 -0.379991
0.035164 0.008539 -0.379634
0.061460 -0.031290 -0.380003
0.127624 -0.133930 -0.381323
0.184342 -0.122050 -0.332761
0.250846 0.076946 -0.188360
-0.005855 0.088454 -0.380170
0.109258 -0.094874 -0.381023
0.122796 -0.112385 -0.381344
0.108872 -0.075158 -0.381886
0.013873 0.078739 -0.380087
0.034645 0.049218 -0.380056
0.150771 -0.135562 -0.381404
0.091662 0.140089 -0.294060
0.063886 0.008402 -0.379971
0.107809 -0.054387 -0.380833
0.087516 -0.018528 -0.379877
-0.004494 0.128908 -0.380501
0.063632 0.035145 -0.373478
0.142900 -0.093810 -0.381011
0.162151 -0.112654 -0.381261
0.015287 0.119235 -0.380680
0.114131 -0.033623 -0.380024
0.063325 0.049077 -0.380181
0.221543 -0.038903 -0.303435
0.203095 0.115825 -0.246142
0.138674 -0.058600 -0.380907
0.105724 -0.004647 -0.379372
0.035775 0.109014 -0.380852
0.194719 -0.137108 -0.381787
0.154563 -0.073474 -0.380790
0.042622 0.121103 -0.375071
0.153486 -0.021690 -0.359639
0.104344 0.017562 -0.379419
0.124958 -0.012611 -0.379803
0.074640 0.078052 -0.380433
0.104153 0.037793 -0.380014
0.123850 0.008869 -0.379589
0.177750 -0.074691 -0.381603
0.191436 -0.094393 -0.382762
0.162295 -0.045379 -0.381253
0.223074 -0.135056 -0.382201
0.214485 -0.115922 -0.382438
0.103897 0.059457 -0.380856
0.182159 -0.053692 -0.382193
0.075546 0.119922 -0.380529
0.242687 -0.136068 -0.382551
0.134749 0.037682 -0.380089
0.276577 -0.114801 -0.352623
0.104782 0.097075 -0.380804
0.201754 -0.053867 -0.381918
0.230990 -0.095260 -0.382784
0.176337 -0.007398 -0.381697
0.130480 0.093136 -0.370975
0.104917 0.118834 -0.380501
0.229442 0.079453 -0.304844
0.134655 0.076764 -0.380856
0.161926 0.150376 -0.327884
0.238431 -0.073765 -0.381809
0.225453 -0.053716 -0.382122
0.266627 -0.114408 -0.382854
0.254360 -0.088893 -0.381970
0.134823 0.098486 -0.380914
0.203292 -0.010750 -0.382676
0.260454 -0.059891 -0.364608
0.289080 -0.136233 -0.382868
0.123119 0.127168 -0.380086
0.295668 0.007443 -0.312129
0.245700 -0.053704 -0.382161
0.224209 -0.010693 -0.383106
0.245165 -0.031450 -0.383399
0.292372 -0.096074 -0.383210
0.275175 -0.054975 -0.383150
0.238704 0.037754 -0.367128
0.265791 -0.010946 -0.384189
0.204323 0.136688 -0.361643
0.291643 -0.014996 -0.384227
