-0.118164 0.115961 -0.197972
-0.286500 -0.129625 0.361304
0.289534 -0.132661 -0.381127
0.146814 0.115956 0.297861
-0.281554 -0.132884 -0.380442
-0.296895 -0.012971 0.050683
0.123830 0.128392 -0.380926
-0.148753 0.119039 0.283125
0.001733 -0.131620 -0.380782
0.010570 0.115959 0.067775
-0.296624 -0.013437 -0.174899
-0.138610 0.029479 -0.380614
0.000649 0.007708 0.360960
-0.109106 -0.131864 0.361092
-0.297103 -0.010648 0.223938
-0.144124 0.115960 0.009756
0.158857 -0.040545 -0.380970
0.014461 0.115957 0.227616
-0.017925 0.115960 -0.086633
0.005111 0.015268 -0.380785
-0.139203 0.007397 0.361125
-0.148591 0.116421 0.146937
-0.132820 -0.111879 -0.380621
-0.296442 -0.011251 -0.327084
-0.053877 0.127713 -0.380715
0.146877 0.008032 0.360788
-0.297252 -0.002328 0.348321
0.294030 -0.014415 -0.381133
-0.057720 0.108618 0.361029
-0.138552 0.115962 -0.308346
0.113088 0.115957 0.181814
0.061048 0.112395 0.360889
-0.142527 0.115961 -0.097583
0.101138 -0.132768 -0.380901
-0.050343 0.115959 0.145880
-0.197808 -0.094474 0.361198
-0.228859 -0.052242 -0.380505
-0.296735 -0.011481 -0.082750
0.104886 0.039468 -0.380903
0.036065 0.108637 -0.380822
0.191043 -0.132717 -0.381009
-0.053877 -0.052430 -0.380715
0.064448 -0.050115 -0.380857
-0.043819 0.115960 0.003530
-0.091312 0.115959 0.218629
-0.297006 -0.010008 0.143735
-0.139203 0.106027 0.361125
0.237003 -0.070176 -0.381064
-0.087621 0.115959 0.067051
-0.296532 -0.012331 -0.251882
-0.144361 0.129020 -0.380608
-0.063350 0.054831 -0.380704
0.080057 0.115957 0.260206
0.077886 0.028889 0.360869
-0.000414 0.115957 0.297578
-0.231052 -0.031172 0.361238
-0.073529 0.115960 -0.129622
0.048769 0.115958 0.153575
0.146877 0.088352 0.360788
-0.295995 -0.052438 -0.380425
-0.077962 0.115960 -0.058755
-0.202520 -0.112332 -0.380537
-0.078462 0.047703 0.361054
-0.124063 -0.032311 -0.380631
-0.129230 -0.071721 0.361116
0.068594 0.115958 0.090645
-0.101302 0.115961 -0.257473
0.000649 0.069368 0.360960
-0.148504 0.118019 0.073991
-0.296821 -0.012288 -0.010522
0.224267 -0.010850 -0.381049
-0.297174 -0.011122 0.283360
-0.060203 -0.111193 -0.380708
0.030345 0.115959 0.012272
-0.045574 0.115958 0.255497
-0.291035 -0.058837 0.361310
-0.148668 0.117666 0.211706
0.138175 0.115956 0.233216
0.005111 -0.040251 -0.380786
-0.148235 0.116411 -0.152020
0.139246 -0.090718 -0.380947
-0.194452 -0.011163 -0.380547
-0.004984 0.067645 -0.380773
-0.008911 0.115958 0.180362
-0.088134 0.009233 -0.380674
0.053706 -0.112489 -0.380844
-0.164192 -0.071978 -0.380583
0.009126 0.115958 0.118262
0.064449 0.010023 -0.380855
0.135371 0.078669 -0.380940
-0.095898 0.115960 -0.012638
-0.168765 -0.031771 0.361164
0.075313 0.079194 -0.380868
-0.147987 0.085091 -0.359093
-0.069595 0.115961 -0.192505
0.241283 -0.132824 -0.381069
0.100589 0.071364 0.360843
0.112418 -0.030814 -0.380915
-0.107865 0.115959 0.122773
-0.226344 -0.132072 0.361232
-0.274234 -0.010632 -0.380451
-0.050557 0.115959 0.096162
-0.109812 0.115959 0.173495
-0.148040 0.115962 -0.259645
-0.259390 -0.091812 -0.380469
0.104791 0.115956 0.317377
-0.004984 0.128387 -0.380773
-0.168765 -0.129526 0.361163
-0.050112 0.115958 0.199496
0.089969 0.115957 0.134442
-0.098769 0.115958 0.343254
-0.057720 0.007578 0.361029
0.036065 0.049380 -0.380822
-0.103283 -0.071930 -0.380656
-0.296948 -0.013471 0.095416
-0.040650 0.115957 0.316264
0.039822 0.115957 0.278892
-0.109106 -0.032344 0.361092
-0.296677 -0.010942 -0.130987
-0.119199 0.066975 0.361102
-0.037867 0.009493 -0.380734
-0.105609 0.115958 0.283377
0.038843 0.049351 0.360915
0.186964 -0.089825 -0.381004
-0.240427 -0.088463 0.361249
0.147045 -0.132872 -0.380956
0.074495 0.115957 0.199736
-0.115217 0.068846 -0.380642
-0.010205 0.115959 0.031103
0.048774 0.115958 0.050034
0.276158 -0.052418 -0.381111
-0.041997 0.068516 0.361011
0.199250 -0.050541 -0.381019
0.000649 0.110475 0.360960
-0.023558 0.115960 -0.046229
-0.050756 0.115959 0.049933
-0.024854 -0.091509 -0.380750
-0.296396 -0.091672 -0.364422
0.075313 0.119511 -0.380868
-0.094225 -0.132765 -0.380667
-0.098954 0.007487 0.361078
-0.115049 0.115960 0.036606
0.100589 0.113653 0.360843
0.174824 -0.004540 -0.380990
0.104884 -0.071626 -0.380906
-0.148799 0.117385 0.321658
0.294030 -0.094497 -0.381133
-0.072724 0.094459 -0.380693
0.038843 0.007792 0.360915
-0.148153 0.117755 -0.221135
-0.109621 0.115960 -0.079517
0.146877 0.050869 0.360788
-0.148343 0.115986 -0.061293
0.029098 -0.085748 -0.380815
-0.034631 0.088308 -0.380738
-0.268229 -0.030814 0.361282
-0.115217 0.107816 -0.380642
-0.161387 -0.132808 -0.380586
-0.117986 0.115960 -0.040169
0.104886 0.097938 -0.380903
-0.148709 0.116060 0.246522
0.123830 0.010330 -0.380926
0.029098 -0.009840 -0.380815
-0.147987 0.003927 -0.359093
-0.064895 0.115960 -0.027034
-0.296491 -0.011844 -0.285810
-0.048199 0.115960 -0.108038
-0.075591 0.115958 0.269437
-0.015556 0.115958 0.241557
0.044478 0.115957 0.213676
-0.100436 0.115961 -0.148541
-0.034631 -0.025813 -0.380738
0.075311 -0.084953 -0.380870
-0.202520 -0.070362 -0.380537
-0.297212 -0.011375 0.315101
0.123584 0.029261 0.360816
-0.015327 0.115959 -0.009700
-0.085074 0.128164 -0.380678
0.100589 0.007929 0.360843
0.038843 0.090910 0.360915
0.076776 0.115956 0.330388
-0.236600 -0.112457 -0.380496
0.135371 0.040076 -0.380940
-0.037867 -0.131550 -0.380734
0.267331 -0.112315 -0.381101
0.061048 0.070574 0.360889
-0.024854 0.045072 -0.380749
0.086296 -0.015928 -0.380883
-0.295557 -0.101055 0.361315
-0.244268 -0.010832 -0.380487
-0.259015 -0.111726 0.361271
-0.020806 0.028086 0.360986
-0.008326 -0.012402 -0.380770
-0.109270 0.029978 -0.380649
-0.078462 0.087873 0.361054
-0.020806 0.089366 0.360986
-0.168765 -0.090424 0.361163
-0.108107 0.115961 -0.229166
-0.297137 -0.010880 0.253002
0.211683 -0.112474 -0.381034
-0.152916 -0.031778 -0.380596
-0.129230 -0.111291 0.361116
0.245580 -0.029750 -0.381075
-0.212138 -0.069942 0.361215
0.064449 0.050115 -0.380855
-0.139203 0.046849 0.361125
-0.148537 0.116583 0.102184
-0.119199 0.027286 0.361102
-0.149115 -0.051627 0.361140
-0.144361 0.067704 -0.380608
-0.297069 -0.010426 0.196088
-0.109106 -0.092056 0.361092
0.120010 -0.110471 -0.380924
0.135369 -0.054919 -0.380942
-0.188184 -0.051020 0.361186
-0.271779 -0.067442 -0.380454
-0.147987 0.043200 -0.359093
-0.078920 -0.091482 -0.380685
-0.296592 -0.013047 -0.202050
-0.254381 -0.132763 -0.380475
0.267331 -0.011073 -0.381101
-0.057801 0.115961 -0.168338
-0.069610 -0.030652 -0.380696
-0.129911 -0.070846 -0.380624
-0.024854 -0.050535 -0.380750
-0.249748 -0.050064 0.361260
-0.085074 0.070028 -0.380678
0.077886 0.091921 0.360869
0.022372 0.028438 0.360935
0.158857 -0.109622 -0.380970
-0.296396 -0.032145 -0.364422
0.036064 -0.131210 -0.380823
-0.297037 -0.010213 0.169376
-0.108070 0.115961 -0.174640
-0.080743 0.115961 -0.215347
-0.027634 0.115959 0.085517
-0.169775 -0.006293 -0.380576
0.050151 -0.072485 -0.380840
-0.268229 -0.068739 0.361282
-0.143541 0.115960 0.049836
-0.053877 0.028231 -0.380715
0.102410 0.115956 0.249825
-0.172552 -0.046493 -0.380573
-0.109740 0.115960 0.077322
-0.221623 -0.108216 0.361226
-0.296561 -0.012679 -0.227669
-0.095483 0.115961 -0.119428
-0.223658 -0.132848 -0.380512
-0.183573 -0.086142 -0.380560
-0.296977 -0.009811 0.119101
-0.100274 -0.030131 -0.380660
0.015317 0.037679 -0.380797
-0.291035 -0.021181 0.361310
0.254227 -0.086471 -0.381085
-0.254381 -0.051431 -0.380475
-0.053877 -0.012099 -0.380715
0.025633 -0.051917 -0.380811
-0.093680 0.115960 0.026683
-0.065188 0.115960 0.013453
0.015317 0.079545 -0.380797
-0.079118 0.115961 -0.158440
0.123584 0.109064 0.360816
-0.140026 0.115961 -0.130158
0.228495 -0.091637 -0.381054
0.123584 0.071823 0.360816
-0.128394 0.115959 0.235848
0.224267 -0.051152 -0.381049
-0.128787 0.115961 -0.165020
-0.123455 0.115960 0.000159
-0.002890 0.115960 -0.055826
-0.044226 0.115960 -0.036631
-0.119831 0.115962 -0.295438
-0.070712 0.115959 0.209062
-0.029511 0.115958 0.189929
0.011689 0.115958 0.170795
0.069369 0.115958 0.144009
0.015317 0.118619 -0.380797
-0.223658 -0.030470 -0.380512
-0.130788 0.115959 0.133417
-0.112249 -0.092384 -0.380645
0.104884 -0.001462 -0.380906
0.174824 -0.071134 -0.380990
0.078959 -0.131275 -0.380875
-0.138313 0.115961 -0.188615
0.061048 0.007842 0.360889
-0.004984 0.089733 -0.380773
-0.097974 0.115960 -0.049462
-0.037937 0.115960 -0.077340
-0.057949 0.115960 -0.068047
-0.296921 -0.013217 0.072627
-0.194452 -0.132721 -0.380547
0.150967 -0.070305 -0.380961
-0.072724 -0.070512 -0.380693
-0.089989 0.115959 0.164290
-0.030520 0.115959 0.136674
-0.070166 0.115959 0.155085
-0.129636 0.115959 0.182700
-0.010697 0.115958 0.127468
0.028949 0.115958 0.109057
0.048772 0.115958 0.099851
-0.296396 -0.132151 -0.364422
-0.234028 -0.090834 -0.380499
-0.148847 0.125482 0.362275
0.022372 0.111165 0.360935
0.022372 0.069802 0.360935
-0.279122 -0.031800 -0.380445
-0.085074 -0.112308 -0.380678
-0.115217 0.009093 -0.380642
-0.136616 0.115962 -0.329830
-0.283979 -0.111547 -0.380439
-0.296396 -0.070242 -0.364422
0.146877 0.029451 0.360788
0.146877 0.109770 0.360788
-0.129018 0.115961 -0.070510
-0.090224 0.115960 -0.088524
-0.067595 0.115960 -0.099031
0.053429 0.115956 0.341230
-0.268229 -0.092443 0.361282
-0.144361 0.008942 -0.380608
0.123584 0.007980 0.360816
0.123584 0.050542 0.360816
0.123827 -0.131344 -0.380928
-0.041997 0.027914 0.361011
-0.296869 -0.012735 0.029538
0.100589 0.029074 0.360843
0.100589 0.050219 0.360843
0.100589 0.092508 0.360843
-0.085074 0.048887 -0.380678
-0.088762 0.115959 0.113902
-0.069659 0.115959 0.105032
-0.008532 0.115959 0.076646
0.029672 0.115959 0.058905
0.077886 0.049900 0.360869
-0.118176 -0.011671 -0.380638
0.097407 -0.112130 -0.380897
-0.147987 0.064146 -0.359093
-0.103283 -0.051005 -0.380656
0.036065 0.009876 -0.380822
0.203378 -0.010742 -0.381024
-0.014972 0.009612 -0.380761
-0.115217 0.128599 -0.380642
0.135371 0.099449 -0.380940
0.220055 -0.131490 -0.381044
-0.123709 0.115961 -0.106321
-0.057720 0.047994 0.361029
0.075311 -0.110871 -0.380870
0.123827 -0.010330 -0.380928
-0.286500 -0.082488 0.361304
-0.164192 -0.112386 -0.380583
-0.044304 0.109466 -0.380726
0.123468 0.115956 0.308703
-0.110801 0.115962 -0.276936
-0.132820 -0.091304 -0.380621
0.000649 0.028261 0.360960
0.000649 0.048814 0.360960
0.000649 0.089921 0.360960
-0.127720 0.115961 -0.220059
-0.129420 0.115962 -0.268290
-0.098954 0.087343 0.361078
-0.098954 0.047415 0.361078
0.057273 -0.132669 -0.380849
-0.078462 0.007532 0.361054
-0.044305 -0.085140 -0.380727
0.104886 0.118403 -0.380903
0.104886 0.059932 -0.380903
0.104886 0.019003 -0.380903
0.104884 -0.092091 -0.380906
0.104884 -0.051162 -0.380906
0.011902 -0.020895 -0.380794
-0.144361 0.108581 -0.380608
-0.144361 0.088143 -0.380608
-0.020806 0.007660 0.360986
-0.020806 0.068939 0.360986
-0.020806 0.048513 0.360986
-0.020806 0.109792 0.360986
0.060854 -0.030013 -0.380853
0.178855 -0.050043 -0.380994
0.245580 -0.051672 -0.381075
-0.150074 -0.011459 -0.380600
-0.152916 -0.052115 -0.380596
-0.128172 0.115960 0.085881
-0.028638 0.115959 0.039662
-0.069189 0.115959 0.058492
0.011913 0.115959 0.020831
