-0.109964 -0.033497 0.316500
-0.348049 -0.021947 0.126577
-0.336186 -0.022009 0.126384
-0.080897 -0.033680 0.312339
-0.080378 -0.037463 0.295913
-0.321669 -0.027133 0.107753
-0.078736 -0.052352 0.264065
-0.309931 -0.027249 0.096778
-0.059803 -0.036879 0.281383
-0.071511 -0.040714 0.263345
-0.060281 -0.040296 0.262557
-0.308144 -0.032112 0.075209
-0.048738 -0.040780 0.255729
-0.289702 -0.032057 0.070760
-0.077114 -0.050565 0.211159
-0.055190 -0.045412 0.228889
-0.351650 -0.040240 0.003751
-0.332925 -0.043973 0.010578
-0.342374 -0.029970 0.008424
-0.030856 -0.041271 0.237689
-0.054110 -0.050244 0.213032
-0.324531 -0.029330 0.014565
-0.280141 -0.036849 0.044318
-0.035663 -0.046004 0.226084
-0.033479 -0.046830 0.223842
-0.303966 -0.047276 0.016578
-0.305117 -0.041040 0.014155
-0.289239 -0.046230 0.020815
-0.294328 -0.032796 0.022602
-0.305531 -0.024638 0.016773
-0.268470 -0.036567 0.038810
-0.025402 -0.045891 0.218168
-0.325291 -0.011858 0.000533
-0.280930 -0.032510 0.025196
-0.318529 -0.021191 0.000587
-0.331318 0.009588 0.000824
-0.269555 -0.046232 0.023832
-0.336913 0.018013 0.000543
-0.342851 0.035703 0.000663
-0.348858 0.048908 0.000826
-0.041278 -0.051471 0.190114
-0.260815 -0.036270 0.028593
-0.312714 -0.007566 0.001527
-0.306579 -0.016020 0.001582
-0.269430 -0.059670 0.009661
-0.355017 0.067690 0.000870
-0.283889 -0.020073 0.015413
-0.312681 0.005616 0.002009
-0.360934 0.086279 0.001091
-0.250032 -0.045441 0.027727
-0.330247 0.036010 0.001728
-0.342065 0.058070 0.001798
-0.264499 -0.023443 0.024583
-0.336637 0.049695 0.001644
-0.367857 0.104901 0.000886
-0.300034 -0.007793 0.002373
-0.238592 -0.044545 0.029686
-0.019334 -0.051000 0.192826
-0.008578 -0.046693 0.202220
-0.317788 0.031272 0.002580
-0.243171 -0.062588 0.015838
-0.299857 0.005322 0.003099
-0.306982 -0.026671 -0.017375
-0.252167 -0.023320 0.026387
-0.341616 0.076451 0.002270
-0.335542 0.067211 0.002425
-0.347652 0.090478 0.002656
-0.305922 0.022594 0.003141
-0.287885 -0.007670 0.003209
-0.281635 -0.016487 0.003548
-0.226788 -0.044695 0.030681
-0.311782 0.044537 0.003326
-0.323121 0.062418 0.003040
-0.288058 0.005289 0.003745
-0.233829 -0.027409 0.029358
-0.220050 -0.056733 0.026213
-0.228410 -0.065618 0.014701
-0.293750 0.022061 0.003840
-0.270205 -0.011840 0.004096
-0.215553 -0.044686 0.031465
-0.000350 -0.046379 0.191932
-0.053522 -0.060353 0.145305
-0.281920 0.013714 0.004595
-0.299579 0.044486 0.003955
-0.276218 0.005777 0.004636
0.001660 -0.060080 0.185223
-0.222938 -0.027570 0.029830
-0.330187 0.094219 0.001821
-0.242419 -0.015242 0.018838
-0.311997 0.071042 0.002910
-0.319316 0.085197 0.001413
-0.213679 -0.069923 0.012390
-0.201165 -0.064474 0.023641
-0.282082 0.031234 0.004564
-0.300927 0.062241 0.002746
-0.211827 -0.027581 0.030327
-0.258627 -0.003745 0.005056
0.000078 -0.050689 0.180329
-0.270496 0.017986 0.004843
-0.008425 -0.043774 0.174849
-0.231439 -0.015003 0.019314
-0.194539 -0.048376 0.032268
-0.025082 -0.055779 0.156380
-0.034218 -0.059808 0.148026
-0.289943 0.053727 0.002582
-0.227716 -0.054098 0.001247
-0.186762 -0.059932 0.029471
-0.015983 -0.054616 0.160789
-0.279230 0.040995 0.002860
-0.193769 -0.035543 0.033198
-0.201062 -0.027956 0.030560
-0.281113 -0.037975 -0.036730
-0.183899 -0.047823 0.033883
-0.247302 -0.003255 0.005197
-0.192147 -0.073288 0.014164
-0.180011 -0.068418 0.024467
-0.279766 0.049580 0.001176
-0.272782 0.040369 0.002411
-0.236148 -0.011752 0.005422
-0.005208 -0.055607 0.160444
-0.151884 -0.064846 0.046111
-0.214462 -0.015443 0.020058
-0.260947 0.027091 0.002973
-0.248749 0.009932 0.004117
0.009973 -0.051124 0.170650
-0.165110 -0.059895 0.031281
-0.178329 -0.076970 0.011397
-0.259976 -0.046916 -0.038020
-0.203776 -0.014864 0.020355
-0.172832 -0.036167 0.033668
-0.179989 -0.027551 0.031228
-0.163144 -0.047564 0.034319
-0.218256 -0.011567 0.007089
-0.227040 -0.002599 0.003020
-0.232882 -0.048534 -0.025768
-0.192930 -0.014857 0.020258
-0.159922 -0.076552 0.016326
-0.200073 -0.010707 0.010581
-0.261051 -0.043035 -0.051692
-0.142938 -0.067515 0.027718
-0.239769 0.001630 -0.017556
-0.143089 -0.047831 0.033979
-0.217403 -0.055335 -0.027217
-0.311712 -0.023926 -0.089376
-0.206690 -0.007085 0.000368
-0.207767 -0.024139 -0.008294
-0.143469 -0.035483 0.033784
0.020224 -0.047966 0.150400
-0.171685 -0.014691 0.021024
-0.149557 -0.027075 0.031174
-0.184273 -0.062976 -0.014915
-0.007133 -0.059904 0.120352
-0.146596 -0.080464 0.005052
-0.128289 -0.074930 0.019917
-0.110126 -0.071575 0.035746
-0.141192 -0.076637 0.007656
0.009694 -0.059689 0.127699
-0.011392 -0.057636 0.111150
-0.162984 -0.045832 0.000500
-0.178146 -0.071030 -0.024272
-0.113911 -0.046846 0.034217
-0.129961 -0.027006 0.031069
-0.030316 -0.060932 0.090214
-0.210976 -0.033464 -0.036363
0.030493 -0.055259 0.135249
-0.033526 -0.069007 0.080522
0.019716 -0.059752 0.124200
-0.113817 -0.035735 0.033451
0.034926 -0.061864 0.132721
-0.141989 -0.014470 0.020456
0.006958 -0.063763 0.109021
-0.100824 -0.069481 0.025710
-0.108264 -0.079047 0.012195
-0.094093 -0.050324 0.035276
-0.059761 -0.070830 0.051785
0.028991 -0.048097 0.125988
0.035931 -0.090167 0.111789
0.019296 -0.066636 0.109926
0.047914 -0.092776 0.118604
0.029879 -0.073074 0.114081
-0.094627 -0.042637 0.034810
-0.184365 -0.047938 -0.036414
-0.010521 -0.106516 0.067698
-0.014264 -0.068369 0.082043
-0.014529 -0.095025 0.068839
-0.086826 -0.069347 0.026244
-0.116425 -0.031333 0.021550
0.040039 -0.055245 0.125391
0.007172 -0.065224 0.096554
-0.107432 -0.022754 0.028862
0.055120 -0.078257 0.124673
-0.122368 -0.014461 0.020445
-0.018868 -0.058892 0.077798
-0.095706 -0.030468 0.032444
-0.081159 -0.049776 0.033806
-0.088171 -0.078684 0.014688
-0.094441 -0.074958 0.011658
-0.004805 -0.093278 0.070206
0.048159 -0.068563 0.119194
0.063469 -0.095830 0.117819
-0.069837 -0.068947 0.029880
0.003043 -0.098355 0.068459
-0.121400 -0.073497 -0.014235
-0.151963 -0.059722 -0.031182
0.039821 -0.062655 0.111253
-0.081892 -0.030159 0.032443
-0.067042 -0.049557 0.034114
0.061000 -0.068199 0.121314
0.075099 -0.094685 0.118798
-0.018033 -0.067520 0.061625
0.074783 -0.077437 0.125215
-0.167984 -0.012073 -0.027409
-0.057661 -0.077151 0.025723
-0.068236 -0.078002 0.015975
0.015815 -0.105402 0.066544
-0.087683 -0.083244 -0.001858
-0.005341 -0.095892 0.052718
-0.045439 -0.077461 0.029108
-0.093881 -0.014442 0.020447
0.086344 -0.076912 0.124807
0.084108 -0.098142 0.112475
0.093276 -0.086579 0.123520
0.049600 -0.051554 0.106565
-0.052604 -0.041941 0.034790
0.080214 -0.067372 0.121173
0.076113 -0.082788 0.111006
0.008053 -0.044601 0.078452
-0.070237 -0.022191 0.028927
0.011882 -0.105767 0.051460
0.068045 -0.058424 0.111784
-0.089432 -0.040805 0.002205
-0.047860 -0.051474 0.028664
-0.054315 -0.029891 0.032326
0.095235 -0.097437 0.112259
-0.134800 -0.019319 -0.026025
-0.026432 -0.047838 0.041562
0.058579 -0.055464 0.100499
-0.005899 -0.078465 0.040580
-0.034841 -0.041827 0.034458
-0.027859 -0.075330 0.024475
-0.107140 -0.075969 -0.036708
-0.080323 -0.010616 0.011672
-0.047260 -0.022276 0.028751
0.086563 -0.060631 0.110586
0.097754 -0.094623 0.101134
0.100787 -0.066548 0.115700
-0.016844 -0.053389 0.034058
0.055895 -0.052303 0.088572
-0.125520 -0.049448 -0.046652
-0.031445 -0.029412 0.032293
0.084869 -0.085470 0.090962
0.068097 -0.064624 0.086983
0.066839 -0.059691 0.085953
-0.053223 -0.034245 0.005693
-0.057192 -0.010462 0.011509
0.088302 -0.075014 0.089624
-0.043019 -0.014429 0.019835
0.096676 -0.085320 0.090201
0.000723 -0.053307 0.033761
0.095116 -0.067455 0.096390
-0.008558 -0.033281 0.033175
-0.020605 -0.021907 0.028301
0.004690 -0.040923 0.034454
0.073816 -0.059675 0.076889
0.099781 -0.074286 0.089201
-0.050990 -0.074739 -0.025159
0.031882 -0.062444 0.041171
-0.048867 -0.069371 -0.023196
-0.076792 -0.020485 -0.021392
-0.007223 -0.021847 0.027926
-0.070374 -0.071174 -0.044058
0.021863 -0.052533 0.033804
-0.070182 -0.047120 -0.033939
0.022271 -0.063271 0.026417
0.075189 -0.063971 0.064298
-0.015460 -0.079776 -0.010811
-0.029083 -0.010207 0.011063
0.005387 -0.050029 0.018041
0.068504 -0.052783 0.059934
-0.073960 -0.056227 -0.048673
0.007416 -0.017795 0.031128
0.020708 -0.032805 0.032708
-0.041344 -0.060812 -0.026816
0.009837 -0.021365 0.027935
0.038236 -0.052295 0.033404
0.061584 -0.059566 0.046761
0.034144 -0.040302 0.034203
0.079322 -0.067517 0.049390
0.022539 -0.021454 0.027659
0.070065 -0.053166 0.047154
0.073879 -0.071972 0.038950
0.084614 -0.056566 0.051858
-0.031609 -0.058997 -0.036456
0.055139 -0.043679 0.033699
0.015832 -0.074846 -0.011322
0.049905 -0.032315 0.032516
-0.033752 -0.031735 -0.029990
0.038859 -0.021108 0.027691
0.069032 -0.080528 0.020857
0.083487 -0.071663 0.033463
0.004332 -0.090242 -0.034337
0.073096 -0.061348 0.028971
0.070969 -0.046485 0.033686
0.073182 -0.058695 0.029495
0.093406 -0.067595 0.037560
0.079522 -0.053101 0.033423
0.090784 -0.056538 0.039977
0.040829 -0.075559 -0.006273
0.074595 -0.035490 0.033706
0.091471 -0.065625 0.031652
0.090806 -0.080121 0.022970
0.098636 -0.075118 0.031402
0.031288 -0.009988 0.009716
0.068855 -0.024318 0.029759
0.057792 -0.017321 0.024076
-0.030914 -0.052304 -0.058957
0.004657 -0.049547 -0.030596
0.091212 -0.045784 0.033849
0.099081 -0.056249 0.033298
-0.007612 -0.032532 -0.037823
0.109530 -0.074619 0.029659
0.060419 -0.071097 -0.005203
-0.013409 -0.053963 -0.053197
0.095056 -0.035195 0.033499
0.098535 -0.079694 0.013248
0.051598 -0.010221 0.009567
0.100417 -0.061857 0.019993
0.078438 -0.017083 0.023770
0.119302 -0.074654 0.024824
0.118457 -0.052256 0.033460
0.118522 -0.042226 0.034190
0.090168 -0.017031 0.023914
0.068005 -0.010057 0.009749
0.113659 -0.031815 0.032262
0.117744 -0.078823 0.011856
0.130829 -0.070899 0.024223
0.023789 -0.068242 -0.054129
0.130420 -0.041740 0.034307
0.108188 -0.020623 0.027373
0.137963 -0.051982 0.033241
-0.039274 -0.047764 -0.098160
0.145364 -0.053989 0.037648
0.125913 -0.031119 0.032240
0.052633 -0.008570 -0.011846
0.144398 -0.062502 0.029971
0.133994 -0.081901 0.013202
0.048455 -0.025010 -0.025673
0.087846 -0.009890 0.008802
0.119503 -0.020006 0.027238
0.149342 -0.051394 0.033409
0.106131 -0.077664 -0.012727
0.155737 -0.061866 0.029924
0.149560 -0.041077 0.034275
0.099962 -0.009802 0.009063
0.144908 -0.031170 0.032116
0.057682 -0.062853 -0.047132
0.153881 -0.077039 0.015116
0.142204 -0.077702 0.004365
0.160885 -0.041108 0.034153
0.138898 -0.020053 0.026906
0.168225 -0.050906 0.033587
0.168925 -0.068843 0.025537
0.066811 -0.030848 -0.032176
0.147022 -0.073589 0.007299
0.076107 -0.064140 -0.042693
0.165545 -0.076323 0.016213
0.117589 -0.073814 -0.018382
-0.029836 -0.058897 -0.123607
0.117166 -0.071080 -0.019884
0.163811 -0.030752 0.032279
0.150019 -0.020210 0.026691
0.119508 -0.010136 0.008623
0.049940 -0.062484 -0.067313
0.181471 -0.064381 0.028633
0.013472 -0.081328 -0.104924
0.119852 -0.023056 0.001725
0.179296 -0.047379 0.033836
0.161044 -0.080919 0.002424
0.056632 -0.058200 -0.065637
0.179752 -0.037040 0.034180
0.189792 -0.057391 0.032293
0.181246 -0.075843 0.017170
0.174765 -0.026973 0.031090
0.190532 -0.036799 0.034168
0.200854 -0.056819 0.032304
0.139131 -0.009492 0.006996
0.087662 -0.014953 -0.033534
0.047707 -0.091341 -0.099590
0.201403 -0.047006 0.033819
0.167579 -0.016708 0.022539
0.157892 -0.012999 0.017067
0.189203 -0.079527 0.008763
0.199868 -0.075040 0.018683
0.206333 -0.067443 0.026499
0.192901 -0.026747 0.031073
0.033093 -0.066677 -0.105446
0.214933 -0.059730 0.031135
0.196630 -0.040802 0.022965
0.138889 -0.056550 -0.026689
0.200141 -0.088172 0.002317
0.102857 -0.035941 -0.044910
0.219645 -0.070402 0.023837
0.072960 -0.090520 -0.095016
0.208299 -0.078798 0.011215
0.059249 -0.095721 -0.107062
0.225718 -0.059292 0.031158
0.207940 -0.030105 0.032127
0.119002 -0.058392 -0.046100
0.219120 -0.039547 0.034330
0.190163 -0.016214 0.022637
0.180747 -0.012786 0.016534
0.183963 -0.072457 -0.009310
0.229893 -0.049023 0.033738
0.219513 -0.077833 0.012833
0.230584 -0.069699 0.024257
0.236135 -0.058949 0.031354
0.210467 -0.074287 0.002817
0.176219 -0.072980 -0.022626
0.230451 -0.077704 0.013863
0.089072 -0.094508 -0.098202
0.241091 -0.069853 0.024481
0.229691 -0.032755 0.032958
0.162757 -0.006223 -0.005403
0.240313 -0.042251 0.034255
0.208371 -0.016104 0.022893
0.224724 -0.022635 0.028836
0.099238 -0.089856 -0.094482
0.235837 -0.074791 0.012646
0.250497 -0.051889 0.033381
0.024673 -0.055798 -0.138957
0.218897 -0.016360 0.022786
0.248655 -0.076527 0.015897
0.260278 -0.061496 0.029891
0.235641 -0.022587 0.028835
-0.048331 -0.060332 -0.201085
0.199019 -0.009629 0.006008
0.178655 -0.012662 -0.010250
0.250899 -0.032336 0.032695
0.260913 -0.041831 0.034506
0.259245 -0.075715 0.016707
0.229839 -0.015959 0.022361
0.270757 -0.054667 0.032896
0.167333 -0.019093 -0.025108
0.252135 -0.080724 0.003695
0.209851 -0.009418 0.006262
0.207602 -0.048594 -0.015001
0.248132 -0.035963 0.020496
0.256036 -0.022276 0.028670
0.271118 -0.035089 0.033794
0.094729 -0.091451 -0.123265
0.281290 -0.044529 0.033969
0.271131 -0.079824 0.008626
0.250499 -0.016065 0.022199
0.289658 -0.064517 0.028011
0.290716 -0.054065 0.032424
0.270183 -0.025636 0.030358
0.228049 -0.009512 0.005228
0.244773 -0.080397 -0.016290
0.202172 -0.027300 -0.024666
0.288116 -0.078736 0.011079
0.238549 -0.009269 0.006028
0.097556 -0.072613 -0.127156
0.244201 -0.064137 -0.017104
0.000757 -0.047322 -0.191477
0.300714 -0.041170 0.032873
0.305001 -0.067295 0.023874
0.288716 -0.050927 0.019345
0.290427 -0.025163 0.029957
0.314585 -0.104438 0.008047
0.310217 -0.047340 0.030830
0.278622 -0.015478 0.021687
0.309607 -0.073813 0.015349
0.318857 -0.056872 0.027769
0.277006 -0.093089 -0.020909
0.259407 -0.009444 0.004815
0.319671 -0.070281 0.017202
0.316544 -0.094181 0.001397
0.306441 -0.077902 0.001039
0.309537 -0.025292 0.026778
0.322509 -0.037511 0.028738
0.330290 -0.063079 0.020902
0.329071 -0.046957 0.026984
0.324771 -0.080419 0.007823
0.320892 -0.102494 -0.007316
0.312304 -0.058721 0.007870
0.280562 -0.009368 0.003882
-0.028983 -0.038739 -0.241603
0.340234 -0.056478 0.021811
0.307017 -0.015560 0.017816
0.238059 -0.030862 -0.041962
-0.067201 -0.037261 -0.280467
0.340451 -0.037309 0.022160
0.320453 -0.018825 0.017003
0.300643 -0.066361 -0.019356
0.349079 -0.060134 0.016255
0.338752 -0.070793 0.003432
0.350522 -0.050021 0.020410
0.310140 -0.012523 0.004013
0.333943 -0.059696 -0.001002
0.323868 -0.064498 -0.011908
0.271943 -0.023140 -0.030606
0.339050 -0.024891 0.014388
0.324633 -0.070566 -0.018032
0.351677 -0.034276 0.014046
0.359025 -0.064085 0.002248
0.361697 -0.040527 0.013635
0.325950 -0.015865 -0.001074
0.363092 -0.068321 -0.003021
0.342846 -0.022282 0.002104
0.369754 -0.057106 0.005037
0.371237 -0.046955 0.009149
0.352978 -0.028395 0.000806
