-0.215382 -0.015015 0.021544
-0.218223 -0.018172 0.024707
-0.207382 -0.018621 0.024537
-0.196410 -0.011655 0.014345
-0.208749 -0.017021 0.026515
-0.191016 -0.012375 0.017552
-0.195742 -0.019147 0.022724
-0.179170 -0.016145 0.018824
-0.216029 -0.010471 0.012411
-0.209369 -0.011698 0.015427
-0.171818 -0.013566 0.018784
-0.187863 -0.014989 0.020753
-0.218033 -0.012318 0.017590
-0.206034 -0.011151 0.014208
-0.197691 -0.016389 0.022235
-0.188719 -0.018227 0.025380
-0.200180 -0.013257 0.020471
-0.181801 -0.018451 0.023060
-0.190414 -0.010454 0.011175
-0.204380 -0.012761 0.021050
-0.198891 -0.011126 0.014016
-0.182665 -0.011979 0.013065
-0.203042 -0.017197 0.022566
-0.158339 -0.040847 0.035007
-0.175185 -0.032977 0.033763
-0.163422 -0.027899 0.031243
-0.178407 -0.032218 0.032598
-0.181285 -0.038454 0.034782
-0.186101 -0.032119 0.032813
-0.172170 -0.034998 0.033542
-0.187324 -0.037269 0.033578
-0.168761 -0.046165 0.035464
-0.176445 -0.036907 0.034337
-0.182955 -0.041438 0.034394
-0.174974 -0.040106 0.033348
-0.169630 -0.027571 0.031940
-0.177791 -0.044490 0.034539
-0.165832 -0.030925 0.033178
-0.168436 -0.033063 0.032107
-0.154366 -0.032580 0.033361
-0.182147 -0.028878 0.031788
-0.175827 -0.028232 0.031711
-0.152978 -0.037913 0.034085
-0.160593 -0.032476 0.033455
-0.182089 -0.035315 0.033826
-0.172179 -0.030611 0.032581
-0.166160 -0.040237 0.034729
-0.163656 -0.042292 0.034034
-0.171145 -0.039539 0.034462
-0.157710 -0.035363 0.033658
-0.165079 -0.033640 0.034925
-0.172024 -0.043417 0.035084
-0.162425 -0.039253 0.035351
-0.158298 -0.030031 0.032944
-0.167382 -0.037304 0.034063
-0.163452 -0.031691 0.034077
-0.180481 -0.024780 0.031013
-0.168694 -0.020933 0.027062
-0.183469 -0.024319 0.029575
-0.186572 -0.028352 0.033197
-0.191520 -0.023836 0.029784
-0.177461 -0.026091 0.031348
-0.192420 -0.028892 0.032130
-0.174489 -0.036397 0.035230
-0.181683 -0.028609 0.032547
-0.188036 -0.032211 0.033048
-0.180118 -0.031124 0.031895
-0.174835 -0.020172 0.027320
-0.182881 -0.034640 0.034218
-0.170811 -0.023152 0.029927
-0.172881 -0.025012 0.029414
-0.159275 -0.024298 0.030020
-0.187532 -0.021475 0.028168
-0.181134 -0.020804 0.027553
-0.157114 -0.028930 0.032228
-0.165370 -0.024622 0.030709
-0.187916 -0.026531 0.031550
-0.176881 -0.023064 0.029311
-0.170715 -0.031514 0.033082
-0.168726 -0.032763 0.033018
-0.176678 -0.030435 0.033067
-0.162119 -0.027192 0.031463
-0.170282 -0.024376 0.032139
-0.177136 -0.034084 0.034646
-0.167687 -0.029776 0.033468
-0.163594 -0.022021 0.029348
-0.172532 -0.029009 0.032010
-0.154400 -0.053131 0.034056
-0.169491 -0.045508 0.034940
-0.158619 -0.039868 0.034336
-0.172851 -0.044515 0.034402
-0.174890 -0.051846 0.034412
-0.179808 -0.044820 0.034405
-0.166648 -0.048116 0.034163
-0.181284 -0.049703 0.033660
-0.163049 -0.058783 0.033587
-0.171082 -0.049217 0.034456
-0.177077 -0.054053 0.033938
-0.169363 -0.052647 0.032965
-0.164142 -0.039912 0.035168
-0.172342 -0.057097 0.032841
-0.160866 -0.043496 0.034997
-0.163833 -0.045371 0.033609
-0.150410 -0.045522 0.034890
-0.176151 -0.041094 0.034410
-0.170222 -0.040016 0.034778
-0.149601 -0.050667 0.034072
-0.156469 -0.044922 0.034702
-0.176090 -0.047898 0.034394
-0.167177 -0.042796 0.034519
-0.161695 -0.052634 0.034500
-0.158215 -0.054980 0.033061
-0.165246 -0.051988 0.034009
-0.153977 -0.047936 0.034264
-0.159945 -0.046822 0.035651
-0.166493 -0.055545 0.033532
-0.157991 -0.051766 0.035300
-0.153835 -0.042545 0.035142
-0.162397 -0.049448 0.034615
-0.206671 -0.012601 -0.002109
-0.225104 -0.010218 0.003797
-0.215748 -0.012115 0.007605
-0.234986 -0.010716 0.008314
-0.232086 -0.014322 -0.011803
-0.252400 -0.010024 0.004001
-0.220778 -0.011484 -0.000047
-0.257560 -0.010906 -0.004415
-0.214282 -0.013717 -0.004660
-0.241032 -0.010274 0.004936
-0.245476 -0.010629 0.007825
-0.230149 -0.011308 0.010146
-0.215714 -0.011519 0.005391
-0.235020 -0.012617 0.000116
-0.210979 -0.011189 0.002609
-0.219013 -0.012689 0.008893
-0.200312 -0.012322 0.006929
-0.240838 -0.012393 -0.007092
-0.230004 -0.010785 0.006384
-0.195066 -0.011533 0.000737
-0.206337 -0.011139 0.004875
-0.244916 -0.010167 0.000867
-0.231740 -0.011335 -0.002948
-0.221670 -0.010264 0.006396
-0.209396 -0.010058 0.005634
-0.218345 -0.010767 0.000181
-0.206809 -0.011747 0.009464
-0.209577 -0.014757 -0.009927
-0.225358 -0.011857 -0.002137
-0.221167 -0.012307 -0.006426
-0.201439 -0.013290 -0.004548
-0.225449 -0.010611 0.007831
-0.219634 -0.012857 -0.001872
-0.241493 -0.003893 0.002366
-0.228183 -0.001513 0.002735
-0.251844 -0.003363 0.005113
-0.251812 -0.011322 -0.002042
-0.270854 -0.002097 0.003318
-0.236141 -0.006356 0.000822
-0.278181 -0.008972 -0.000341
-0.228968 -0.018326 -0.001399
-0.252236 -0.006336 0.002655
-0.264976 -0.010517 0.002975
-0.243734 -0.009374 0.004110
-0.234046 0.000328 0.002853
-0.253560 -0.016532 -0.001896
-0.228795 -0.004428 0.002143
-0.234003 -0.005727 0.004436
-0.215926 -0.008028 0.002344
-0.259666 -0.001002 0.001241
-0.247089 0.002010 0.004500
-0.210433 -0.011323 -0.000324
-0.223128 -0.005457 0.002643
-0.260669 -0.005412 0.001456
-0.242805 -0.001579 0.001333
-0.229883 -0.008559 0.001941
-0.222745 -0.011241 0.001592
-0.234002 -0.010618 -0.000533
-0.220093 -0.008963 0.003121
-0.227579 -0.009211 -0.001789
-0.240317 -0.014057 -0.002828
-0.227977 -0.009757 0.000837
-0.220308 -0.005366 0.002119
-0.235150 -0.006736 0.003215
-0.220072 -0.058615 -0.017417
-0.267916 -0.032175 -0.023030
-0.227019 -0.030848 -0.028305
-0.278474 -0.038519 -0.021925
-0.268989 -0.047711 -0.017661
-0.293153 -0.037626 -0.019265
-0.248888 -0.043067 -0.022664
-0.287012 -0.045161 -0.016821
-0.236945 -0.054179 -0.016497
-0.250163 -0.053520 -0.017812
-0.284645 -0.052316 -0.015261
-0.265190 -0.053397 -0.018871
-0.261815 -0.027310 -0.024198
-0.272417 -0.055438 -0.014554
-0.245188 -0.032263 -0.026183
-0.263815 -0.041263 -0.024596
-0.205221 -0.049628 -0.024379
-0.282791 -0.032566 -0.021513
-0.273529 -0.045663 -0.020320
-0.240733 -0.040195 -0.023711
-0.233490 -0.042456 -0.024170
-0.270566 -0.039851 -0.021489
-0.252711 -0.035969 -0.023276
-0.229593 -0.051422 -0.020528
-0.240665 -0.060120 -0.017748
-0.256766 -0.047230 -0.021232
-0.214207 -0.040563 -0.026925
-0.248326 -0.044391 -0.022851
-0.257421 -0.060959 -0.012618
-0.221652 -0.046874 -0.022249
-0.235032 -0.034940 -0.025082
-0.241259 -0.048879 -0.020495
-0.177064 -0.012261 0.018667
-0.193559 -0.012575 0.019310
-0.184332 -0.014861 0.018019
-0.197832 -0.014109 0.019993
-0.196353 -0.010074 0.010848
-0.208711 -0.012770 0.019179
-0.188666 -0.011807 0.016017
-0.211975 -0.012004 0.018164
-0.186519 -0.014691 0.024422
-0.202622 -0.013723 0.020486
-0.204657 -0.016044 0.023288
-0.195543 -0.017280 0.023280
-0.185837 -0.011768 0.014896
-0.196604 -0.015026 0.024627
-0.181480 -0.012228 0.017153
-0.186102 -0.017911 0.022036
-0.171679 -0.015344 0.018405
-0.203018 -0.010375 0.012423
-0.197716 -0.011572 0.015774
-0.166554 -0.013095 0.017616
-0.178783 -0.014195 0.019691
-0.204485 -0.011904 0.017144
-0.194822 -0.011343 0.014270
-0.187368 -0.015203 0.021171
-0.179945 -0.016662 0.023567
-0.188773 -0.012955 0.018992
-0.174043 -0.016980 0.021862
-0.180361 -0.010428 0.010822
-0.192492 -0.012027 0.019095
-0.188211 -0.011267 0.013105
-0.173992 -0.011899 0.012978
-0.192068 -0.015954 0.021435
-0.151310 -0.079527 0.007601
-0.165923 -0.076916 0.013661
-0.156900 -0.075423 0.020047
-0.173135 -0.074077 0.018780
-0.169868 -0.079595 0.001428
-0.182110 -0.075295 0.014967
-0.162471 -0.078890 0.011277
-0.181689 -0.077373 0.007064
-0.155473 -0.079090 0.003563
-0.173558 -0.076966 0.014287
-0.176546 -0.074273 0.015150
-0.168867 -0.073883 0.017942
-0.160302 -0.076385 0.018866
-0.170792 -0.076864 0.006488
-0.155177 -0.077466 0.014811
-0.163223 -0.072937 0.019250
-0.145727 -0.077243 0.017521
-0.174674 -0.079119 0.006031
-0.168962 -0.075716 0.018588
-0.143165 -0.079398 0.011824
-0.150714 -0.077479 0.015205
-0.176623 -0.077237 0.011355
-0.169524 -0.077923 0.011330
-0.162229 -0.076166 0.017061
-0.154026 -0.076837 0.011682
-0.159909 -0.078773 0.009834
-0.151696 -0.074408 0.019444
-0.155111 -0.080540 0.002259
-0.164523 -0.078746 0.006171
-0.160988 -0.079263 0.006801
-0.147721 -0.080127 0.009602
-0.164803 -0.075424 0.018280
-0.173350 -0.011633 -0.001025
-0.198248 -0.009085 0.006138
-0.187440 -0.013064 0.010506
-0.207070 -0.010290 0.010818
-0.202133 -0.013295 -0.009870
-0.224223 -0.008488 0.007203
-0.192085 -0.010636 -0.000041
-0.227340 -0.008481 -0.001471
-0.183580 -0.010480 -0.001269
-0.214416 -0.009359 0.007763
-0.217225 -0.010180 0.012550
-0.204371 -0.012825 0.014604
-0.188136 -0.011480 0.006148
-0.206664 -0.008579 0.004337
-0.181166 -0.010774 0.003615
-0.189777 -0.015119 0.012420
-0.163263 -0.014291 0.009345
-0.213196 -0.010257 -0.006191
-0.204169 -0.010009 0.007177
-0.153924 -0.011539 0.001326
-0.173868 -0.011850 0.007136
-0.215972 -0.008095 0.002561
-0.205252 -0.009547 -0.002677
-0.195899 -0.010343 0.008953
-0.178715 -0.009153 0.009566
-0.190062 -0.009477 0.001583
-0.172478 -0.013311 0.013016
-0.177613 -0.014434 -0.008877
-0.198200 -0.010393 -0.000515
-0.194435 -0.011204 -0.006283
-0.165719 -0.014022 -0.005282
-0.200128 -0.010756 0.011432
-0.305376 -0.027634 -0.064730
-0.320418 -0.023066 -0.082196
-0.302092 -0.027839 -0.057037
-0.322234 -0.029768 -0.051986
-0.325086 -0.022456 -0.111795
-0.334436 -0.026058 -0.077969
-0.310610 -0.028562 -0.053841
-0.337382 -0.024629 -0.096604
-0.299903 -0.025060 -0.083226
-0.319842 -0.028260 -0.068863
-0.330611 -0.029479 -0.062022
-0.317643 -0.030064 -0.045437
-0.314463 -0.023517 -0.101357
-0.326643 -0.024368 -0.075824
-0.315712 -0.026562 -0.070425
-0.310869 -0.032615 -0.037393
-0.288998 -0.028385 -0.064791
-0.327250 -0.025582 -0.092536
-0.320642 -0.028320 -0.057543
-0.313542 -0.024826 -0.088211
-0.310095 -0.026244 -0.060969
-0.333488 -0.023763 -0.111080
-0.322718 -0.026762 -0.069055
-0.307618 -0.029445 -0.044105
-0.317285 -0.029470 -0.059590
-0.312674 -0.025854 -0.077813
-0.295033 -0.028719 -0.049768
-0.313547 -0.023581 -0.120316
-0.319868 -0.025203 -0.088570
-0.309634 -0.020706 -0.102655
-0.308734 -0.026612 -0.078416
-0.316851 -0.027402 -0.073643
-0.135761 -0.071686 0.023864
-0.154304 -0.065147 0.028797
-0.139682 -0.059729 0.031829
-0.161122 -0.063650 0.029497
-0.160381 -0.071080 0.025259
-0.169799 -0.064318 0.028789
-0.150738 -0.068204 0.026912
-0.170367 -0.068704 0.024737
-0.143951 -0.074216 0.019828
-0.158187 -0.067892 0.026740
-0.164520 -0.070522 0.023198
-0.153835 -0.069132 0.023835
-0.147344 -0.060073 0.032885
-0.158177 -0.072888 0.019495
-0.142603 -0.063894 0.031097
-0.148397 -0.062786 0.028403
-0.128997 -0.066136 0.029250
-0.162919 -0.061893 0.030683
-0.157179 -0.059312 0.032873
-0.128670 -0.069732 0.025637
-0.137707 -0.065310 0.029237
-0.163989 -0.067297 0.027787
-0.153148 -0.062397 0.030945
-0.144432 -0.069300 0.026081
-0.139259 -0.071675 0.021603
-0.147461 -0.071179 0.024566
-0.134263 -0.065943 0.027408
-0.141150 -0.068617 0.028196
-0.150578 -0.073621 0.021179
-0.139930 -0.069709 0.027764
-0.134012 -0.063268 0.031598
-0.146804 -0.066393 0.028520
-0.231426 -0.032070 -0.011632
-0.274221 -0.020428 -0.005518
-0.237592 -0.015837 -0.003284
-0.285114 -0.021863 -0.002723
-0.275223 -0.028838 -0.013280
-0.300818 -0.024003 -0.002321
-0.257738 -0.020643 -0.006274
-0.298983 -0.029833 -0.009357
-0.247459 -0.033918 -0.010660
-0.262936 -0.030196 -0.008672
-0.291948 -0.030724 -0.008102
-0.272657 -0.025531 -0.007167
-0.267178 -0.014416 0.000128
-0.284928 -0.036742 -0.009207
-0.252947 -0.017836 -0.001774
-0.267864 -0.019762 -0.005973
-0.219067 -0.027830 -0.010566
-0.289034 -0.019400 -0.001216
-0.280985 -0.023825 -0.003717
-0.250142 -0.023409 -0.008799
-0.245844 -0.022309 -0.005926
-0.281120 -0.028019 -0.008737
-0.265232 -0.019809 -0.003205
-0.243626 -0.025225 -0.006402
-0.255073 -0.032651 -0.011827
-0.263121 -0.025675 -0.010724
-0.227465 -0.019909 -0.007734
-0.258780 -0.030588 -0.013825
-0.269821 -0.040100 -0.012193
-0.234056 -0.029259 -0.010436
-0.243436 -0.021813 -0.002199
-0.253455 -0.028362 -0.008345
-0.130086 -0.054277 0.033585
-0.146205 -0.046113 0.034688
-0.134630 -0.040334 0.034017
-0.149504 -0.045012 0.034146
-0.151397 -0.052682 0.034242
-0.156493 -0.045361 0.034195
-0.143392 -0.048822 0.033933
-0.157795 -0.050497 0.033462
-0.139227 -0.059985 0.033187
-0.147707 -0.049924 0.034228
-0.153531 -0.055166 0.033533
-0.145999 -0.053439 0.032634
-0.140702 -0.040208 0.034821
-0.148998 -0.058241 0.032532
-0.137237 -0.044023 0.034673
-0.140338 -0.045934 0.033224
-0.125445 -0.045973 0.034517
-0.152796 -0.041394 0.034246
-0.146793 -0.040465 0.034542
-0.124381 -0.051575 0.033606
-0.132311 -0.045454 0.034371
-0.152676 -0.048491 0.034228
-0.143708 -0.043195 0.034291
-0.137922 -0.053334 0.034093
-0.135013 -0.055747 0.032639
-0.141742 -0.052925 0.033673
-0.129465 -0.048564 0.033756
-0.135944 -0.047560 0.035429
-0.143215 -0.056751 0.033185
-0.133799 -0.052639 0.034953
-0.129378 -0.042960 0.034770
-0.138887 -0.050103 0.034282
-0.209013 -0.064720 -0.014326
-0.257576 -0.035182 -0.022052
-0.218448 -0.034069 -0.028525
-0.269016 -0.040954 -0.020143
-0.258367 -0.050954 -0.014339
-0.284466 -0.039696 -0.017155
-0.238567 -0.047186 -0.020096
-0.277362 -0.048530 -0.013448
-0.225323 -0.059157 -0.013751
-0.239679 -0.057549 -0.014698
-0.274794 -0.056845 -0.011094
-0.254635 -0.058378 -0.015202
-0.251797 -0.029172 -0.025127
-0.261131 -0.060011 -0.010491
-0.235692 -0.035528 -0.026294
-0.254056 -0.044741 -0.023374
-0.194742 -0.053060 -0.024354
-0.273956 -0.035251 -0.020471
-0.262673 -0.048901 -0.017893
-0.229039 -0.044580 -0.022620
-0.223433 -0.046541 -0.022950
-0.261029 -0.041621 -0.019793
-0.242399 -0.039637 -0.021544
-0.218564 -0.057883 -0.017955
-0.229568 -0.064302 -0.014412
-0.245227 -0.051646 -0.018770
-0.204423 -0.045238 -0.026735
-0.235974 -0.046949 -0.021721
-0.244910 -0.065406 -0.008484
-0.211764 -0.050115 -0.021065
-0.224644 -0.038059 -0.025132
-0.229633 -0.053895 -0.018333
-0.327290 -0.023469 -0.099489
-0.344496 -0.018978 -0.116069
-0.328314 -0.024086 -0.091466
-0.347119 -0.024545 -0.082623
-0.343919 -0.017846 -0.141990
-0.355565 -0.019418 -0.110256
-0.334863 -0.023558 -0.087620
-0.357078 -0.019409 -0.126964
-0.322843 -0.019393 -0.117408
-0.342565 -0.024458 -0.101861
-0.351266 -0.024543 -0.093726
-0.340220 -0.024938 -0.077484
-0.338474 -0.019461 -0.133978
-0.347946 -0.019996 -0.109856
-0.339121 -0.022472 -0.104800
-0.335962 -0.027510 -0.068921
-0.316754 -0.022573 -0.102851
-0.349898 -0.019593 -0.124218
-0.344289 -0.022538 -0.088180
-0.335315 -0.020269 -0.122120
-0.333774 -0.022015 -0.094784
-0.353156 -0.018192 -0.141528
-0.348111 -0.021375 -0.102212
-0.330854 -0.025816 -0.076744
-0.340309 -0.024258 -0.092526
-0.333878 -0.021893 -0.109514
-0.320356 -0.024228 -0.086585
-0.334720 -0.018634 -0.151924
-0.340901 -0.020443 -0.121434
-0.331551 -0.017606 -0.134631
-0.329361 -0.021757 -0.112936
-0.338824 -0.022987 -0.108896
-0.188431 -0.023733 -0.021152
-0.216674 -0.013777 -0.012665
-0.199491 -0.011236 -0.006003
-0.230225 -0.010569 -0.005930
-0.228645 -0.024856 -0.023777
-0.251911 -0.011739 -0.010192
-0.210621 -0.015963 -0.015868
-0.259158 -0.021022 -0.021665
-0.202731 -0.030172 -0.026128
-0.228823 -0.015466 -0.013447
-0.243855 -0.020239 -0.015882
-0.219483 -0.016256 -0.013752
-0.206861 -0.010450 -0.004031
-0.234960 -0.028324 -0.025060
-0.198945 -0.013529 -0.009063
-0.209142 -0.011282 -0.009017
-0.179855 -0.016479 -0.009807
-0.236858 -0.013996 -0.013348
-0.223384 -0.009956 -0.003628
-0.174907 -0.020007 -0.018633
-0.192264 -0.013368 -0.010099
-0.239330 -0.015402 -0.014875
-0.219802 -0.012092 -0.011638
-0.204412 -0.015689 -0.013851
-0.197405 -0.019743 -0.020311
-0.207647 -0.020914 -0.020266
-0.188861 -0.015281 -0.011308
-0.197241 -0.022597 -0.021290
-0.217303 -0.025837 -0.024826
-0.200270 -0.021110 -0.017291
-0.187809 -0.016004 -0.010551
-0.209929 -0.013422 -0.011132
-0.179353 -0.030862 -0.032705
-0.233144 -0.018798 -0.025371
-0.185183 -0.014553 -0.018311
-0.244976 -0.016333 -0.017470
-0.230890 -0.028676 -0.031942
-0.259285 -0.019301 -0.022461
-0.212082 -0.017132 -0.024016
-0.255479 -0.027021 -0.030093
-0.197662 -0.031848 -0.032976
-0.221195 -0.025434 -0.030229
-0.250648 -0.025720 -0.028830
-0.228365 -0.022177 -0.026523
-0.219325 -0.016157 -0.018525
-0.240891 -0.031829 -0.031896
-0.203500 -0.015133 -0.020263
-0.223771 -0.015326 -0.018886
-0.165982 -0.023654 -0.030403
-0.245893 -0.017428 -0.021684
-0.239882 -0.019786 -0.023162
-0.200874 -0.021190 -0.028900
-0.196243 -0.018416 -0.025333
-0.238920 -0.023609 -0.028830
-0.222385 -0.015481 -0.023651
-0.194264 -0.020573 -0.025074
-0.208787 -0.032974 -0.035494
-0.216273 -0.023214 -0.031303
-0.172506 -0.016960 -0.025794
-0.210598 -0.027640 -0.032802
-0.223517 -0.039603 -0.034597
-0.182428 -0.026401 -0.029669
-0.193568 -0.016217 -0.022266
-0.206818 -0.024294 -0.029831
-0.131983 -0.040990 0.035551
-0.148729 -0.032382 0.033826
-0.137315 -0.026713 0.030886
-0.152126 -0.031334 0.032588
-0.155133 -0.038096 0.035225
-0.159825 -0.031386 0.032848
-0.145500 -0.034533 0.033745
-0.161396 -0.036926 0.034050
-0.142435 -0.046653 0.036122
-0.149867 -0.036602 0.034626
-0.157046 -0.041444 0.035062
-0.148960 -0.040045 0.033851
-0.143455 -0.026398 0.031470
-0.151786 -0.044998 0.035298
-0.139511 -0.030026 0.033150
-0.142301 -0.032330 0.032250
-0.128630 -0.031917 0.033341
-0.155841 -0.027842 0.031718
-0.149556 -0.026846 0.031569
-0.127242 -0.037713 0.034467
-0.134494 -0.031778 0.033553
-0.156014 -0.034630 0.034073
-0.145669 -0.029778 0.032581
-0.139512 -0.040360 0.035198
-0.136987 -0.042722 0.034663
-0.144725 -0.039173 0.034813
-0.131719 -0.034976 0.033761
-0.139035 -0.032902 0.034872
-0.145605 -0.043722 0.035770
-0.136134 -0.038735 0.035607
-0.132454 -0.029047 0.032838
-0.140746 -0.037046 0.034336
0.019283 -0.047393 0.135387
0.013123 -0.044768 0.143704
0.011901 -0.046808 0.156866
0.007337 -0.045235 0.154934
0.013524 -0.045562 0.116424
-0.003660 -0.044553 0.148017
0.015112 -0.045651 0.138554
-0.004812 -0.044791 0.138329
0.020297 -0.051325 0.131143
0.005043 -0.044749 0.150812
-0.001754 -0.045205 0.158526
0.007370 -0.046309 0.162549
0.014268 -0.045960 0.146191
0.012799 -0.050568 0.142764
0.017156 -0.045733 0.141426
0.011159 -0.046357 0.167181
0.017945 -0.049811 0.151135
0.006878 -0.044393 0.125356
0.007513 -0.043760 0.146686
0.021721 -0.051044 0.137379
0.016993 -0.047272 0.147666
0.005929 -0.044637 0.141104
0.009188 -0.045203 0.133652
0.013798 -0.046849 0.150782
0.016163 -0.050830 0.150005
0.017048 -0.046644 0.138609
0.015503 -0.047736 0.159364
0.021214 -0.046459 0.120275
0.015739 -0.044890 0.134857
0.015292 -0.045655 0.128107
0.019482 -0.047042 0.127919
0.011059 -0.045673 0.154087
-0.166425 -0.009795 0.013930
-0.182724 -0.010961 0.017830
-0.172645 -0.014294 0.016837
-0.189072 -0.013527 0.018526
-0.188284 -0.008457 0.002030
-0.203972 -0.012391 0.017102
-0.177173 -0.010098 0.012564
-0.209191 -0.010885 0.012487
-0.175780 -0.013557 0.021408
-0.196142 -0.012653 0.018794
-0.198994 -0.016165 0.022272
-0.186021 -0.017604 0.023046
-0.173446 -0.010687 0.012766
-0.188395 -0.014964 0.023349
-0.168582 -0.010532 0.014525
-0.174832 -0.018379 0.021823
-0.161211 -0.014336 0.018069
-0.196495 -0.009135 0.005294
-0.188983 -0.010712 0.013232
-0.157789 -0.011244 0.015489
-0.166940 -0.012580 0.018640
-0.198775 -0.010584 0.013084
-0.186240 -0.009911 0.008908
-0.175776 -0.014253 0.020479
-0.167720 -0.016127 0.023024
-0.177061 -0.011051 0.016122
-0.163272 -0.016395 0.021590
-0.168953 -0.009024 0.003356
-0.182377 -0.010003 0.014685
-0.178318 -0.009745 0.006551
-0.162390 -0.010334 0.007911
-0.181734 -0.015268 0.020858
-0.137015 -0.030780 0.033944
-0.153723 -0.023900 0.030402
-0.142424 -0.019815 0.026116
-0.156869 -0.023226 0.028984
-0.159915 -0.027080 0.032798
-0.164870 -0.022866 0.029171
-0.150269 -0.025062 0.030776
-0.166177 -0.028052 0.031987
-0.148034 -0.035683 0.035253
-0.154879 -0.027764 0.032136
-0.161818 -0.031334 0.033010
-0.153753 -0.030143 0.031718
-0.148367 -0.018947 0.026170
-0.156494 -0.033894 0.034298
-0.144094 -0.022143 0.029200
-0.146359 -0.024042 0.028962
-0.133640 -0.023305 0.029314
-0.160794 -0.020357 0.027275
-0.154686 -0.019341 0.026703
-0.131619 -0.027952 0.031928
-0.139151 -0.023655 0.030244
-0.161464 -0.025339 0.031086
-0.150081 -0.022041 0.028530
-0.143913 -0.030908 0.033044
-0.141807 -0.032215 0.032933
-0.149941 -0.029268 0.032712
-0.136182 -0.026263 0.031126
-0.144031 -0.023093 0.031074
-0.150236 -0.033192 0.034576
-0.141402 -0.028320 0.033022
-0.137687 -0.020868 0.028478
-0.145799 -0.028273 0.031770
-0.174917 -0.075061 -0.016189
-0.221116 -0.049270 -0.028825
-0.186805 -0.047750 -0.036280
-0.230872 -0.054666 -0.025826
-0.219461 -0.060610 -0.018957
-0.243954 -0.053217 -0.022961
-0.201093 -0.060725 -0.024154
-0.235828 -0.058411 -0.018313
-0.190851 -0.070261 -0.017258
-0.203862 -0.067916 -0.017053
-0.234726 -0.066069 -0.013462
-0.219448 -0.068814 -0.018624
-0.217186 -0.042676 -0.034246
-0.224458 -0.068294 -0.014238
-0.202468 -0.050533 -0.033158
-0.216260 -0.060051 -0.028960
-0.164158 -0.064456 -0.028982
-0.234775 -0.046166 -0.026853
-0.223743 -0.060753 -0.022521
-0.194828 -0.058672 -0.027953
-0.189811 -0.059920 -0.026764
-0.223736 -0.052236 -0.025652
-0.207018 -0.053371 -0.027504
-0.185225 -0.071578 -0.019799
-0.195258 -0.074027 -0.014719
-0.208678 -0.062757 -0.023842
-0.172993 -0.060665 -0.030702
-0.200875 -0.056193 -0.027823
-0.207256 -0.072907 -0.012021
-0.181152 -0.063045 -0.025113
-0.191075 -0.052344 -0.031530
-0.195204 -0.067809 -0.021576
-0.001447 -0.059363 0.115466
-0.012217 -0.057724 0.122189
-0.005537 -0.055772 0.135961
-0.017354 -0.056294 0.130546
-0.020275 -0.059441 0.098576
-0.031624 -0.056257 0.119550
-0.009645 -0.058339 0.116321
-0.034120 -0.058467 0.109221
-0.004251 -0.058733 0.112243
-0.022743 -0.058602 0.123193
-0.025570 -0.056979 0.131076
-0.014310 -0.056911 0.140262
-0.007376 -0.054582 0.124620
-0.015708 -0.057978 0.115122
-0.003513 -0.057916 0.121590
-0.007154 -0.056429 0.147154
0.005121 -0.058083 0.131721
-0.026070 -0.057152 0.104214
-0.017017 -0.054708 0.122679
0.007097 -0.058291 0.121749
0.000087 -0.058367 0.125348
-0.026471 -0.058269 0.114738
-0.018858 -0.056158 0.109687
-0.009350 -0.057978 0.128733
-0.000823 -0.058522 0.126697
-0.008480 -0.059513 0.117356
0.002134 -0.056881 0.141331
-0.006921 -0.059520 0.102220
-0.013780 -0.058847 0.113665
-0.012588 -0.058001 0.108944
0.001520 -0.058615 0.111299
-0.012345 -0.058180 0.133707
-0.135274 -0.080118 -0.008770
-0.153474 -0.079684 -0.001005
-0.145462 -0.082689 0.005953
-0.162115 -0.080035 0.005266
-0.159105 -0.078244 -0.020594
-0.176750 -0.079092 -0.000611
-0.149089 -0.080193 -0.007618
-0.177944 -0.078341 -0.010404
-0.140601 -0.078617 -0.009087
-0.168310 -0.080259 0.000980
-0.170887 -0.079029 0.005501
-0.160167 -0.079228 0.008906
-0.145989 -0.081536 -0.000033
-0.160158 -0.077059 -0.002830
-0.139103 -0.080898 -0.002868
-0.149162 -0.080600 0.008952
-0.129598 -0.082570 0.003766
-0.168120 -0.078981 -0.016563
-0.158706 -0.081059 0.000759
-0.125328 -0.081359 -0.004134
-0.134709 -0.081365 0.000936
-0.170069 -0.078647 -0.006002
-0.160194 -0.080272 -0.011425
-0.150735 -0.080624 0.003785
-0.138843 -0.078723 0.002920
-0.145496 -0.080108 -0.005305
-0.136235 -0.080528 0.008505
-0.139791 -0.079576 -0.019577
-0.153788 -0.078797 -0.006473
-0.152342 -0.079828 -0.014678
-0.129622 -0.081821 -0.012611
-0.155653 -0.080707 0.005571
-0.122722 -0.078637 0.012117
-0.139787 -0.075490 0.018550
-0.127898 -0.072353 0.024429
-0.148652 -0.072250 0.022697
-0.145368 -0.079326 0.008492
-0.158767 -0.074141 0.019918
-0.136452 -0.077795 0.017015
-0.158866 -0.076863 0.012622
-0.128796 -0.079069 0.007077
-0.147579 -0.075811 0.018050
-0.152278 -0.073477 0.017576
-0.142120 -0.072667 0.019994
-0.132600 -0.073364 0.024206
-0.145883 -0.076776 0.008928
-0.127588 -0.075296 0.020304
-0.136842 -0.070151 0.022652
-0.116244 -0.074919 0.021144
-0.149207 -0.077735 0.013833
-0.143039 -0.072823 0.024247
-0.113543 -0.077898 0.016018
-0.122802 -0.075405 0.019555
-0.152718 -0.076482 0.016886
-0.142452 -0.076036 0.018772
-0.134031 -0.074761 0.020217
-0.125731 -0.076067 0.013801
-0.133139 -0.078187 0.013934
-0.122354 -0.072198 0.022103
-0.126503 -0.079730 0.009156
-0.137880 -0.079047 0.009583
-0.131634 -0.078169 0.013549
-0.119343 -0.077761 0.017027
-0.137019 -0.073475 0.021887
-0.092951 -0.075151 0.015598
-0.142483 -0.064127 0.025458
-0.099305 -0.055829 0.028025
-0.153619 -0.060733 0.025914
-0.141991 -0.074578 0.017770
-0.167172 -0.064512 0.024807
-0.123082 -0.065981 0.024324
-0.163513 -0.071444 0.019220
-0.106626 -0.076238 0.012697
-0.128357 -0.073813 0.019308
-0.155587 -0.071989 0.015353
-0.136453 -0.071091 0.017110
-0.132943 -0.055730 0.028936
-0.144221 -0.076374 0.012355
-0.114473 -0.059106 0.027930
-0.134030 -0.061891 0.023940
-0.081910 -0.073169 0.022809
-0.156021 -0.057361 0.028422
-0.147581 -0.066166 0.024199
-0.112747 -0.068742 0.022807
-0.107605 -0.066043 0.024869
-0.146701 -0.069794 0.022605
-0.127248 -0.060948 0.026572
-0.103437 -0.070325 0.021599
-0.112837 -0.073622 0.012915
-0.126454 -0.071280 0.019044
-0.090601 -0.065141 0.024229
-0.121353 -0.074574 0.019082
-0.129048 -0.077598 0.010862
-0.097552 -0.073943 0.022557
-0.105388 -0.062447 0.028641
-0.115411 -0.072231 0.020876
-0.126393 -0.080804 -0.000112
-0.164503 -0.080162 -0.004316
-0.132090 -0.082205 0.009915
-0.173870 -0.079133 0.014091
-0.159975 -0.078184 -0.016503
-0.186558 -0.078010 0.002126
-0.144591 -0.079986 0.009397
-0.182851 -0.077801 -0.007966
-0.124018 -0.079348 -0.009069
-0.156381 -0.080190 0.001349
-0.176824 -0.077785 0.005277
-0.160576 -0.077629 0.010791
-0.152774 -0.081174 -0.010373
-0.169955 -0.077640 -0.001532
-0.146131 -0.082434 0.002402
-0.152558 -0.079357 0.013416
-0.115379 -0.082287 -0.002277
-0.174270 -0.079984 -0.007251
-0.164986 -0.079757 0.008652
-0.137888 -0.082122 -0.008034
-0.137714 -0.081123 0.003578
-0.171389 -0.078788 -0.013866
-0.163553 -0.080665 0.000771
-0.139592 -0.080374 0.013843
-0.150804 -0.078845 0.005356
-0.141606 -0.080482 -0.004962
-0.121547 -0.080734 0.006861
-0.145076 -0.079589 -0.018651
-0.155924 -0.080095 -0.009806
-0.134043 -0.081626 -0.014334
-0.132426 -0.082250 -0.003681
-0.151123 -0.080862 -0.003485
0.013244 -0.058954 0.122846
0.003562 -0.057144 0.127740
0.008994 -0.055390 0.136125
-0.002214 -0.055062 0.133217
-0.002476 -0.059499 0.112787
-0.012848 -0.055572 0.126273
0.005428 -0.057923 0.122949
-0.013717 -0.057640 0.119100
0.010281 -0.057844 0.119011
-0.005690 -0.057553 0.127764
-0.007992 -0.055304 0.132505
0.000372 -0.055298 0.137795
0.007769 -0.055133 0.130263
0.000034 -0.056386 0.121210
0.011414 -0.057488 0.127832
0.006498 -0.054955 0.141782
0.018275 -0.057446 0.133460
-0.007143 -0.057976 0.116759
-0.000031 -0.055339 0.129763
0.019058 -0.057948 0.126977
0.014601 -0.057303 0.129336
-0.008035 -0.057795 0.123384
-0.001948 -0.056841 0.120739
0.005106 -0.056863 0.131137
0.012834 -0.056456 0.128772
0.007458 -0.058922 0.124867
0.014858 -0.055649 0.139475
0.009621 -0.059342 0.114751
0.002901 -0.057673 0.122428
0.004220 -0.058275 0.119149
0.015856 -0.058962 0.120788
0.003033 -0.056818 0.134604
0.013416 -0.052597 0.121337
-0.016693 -0.050297 0.103561
0.011525 -0.050906 0.130647
-0.024094 -0.050259 0.139247
-0.015753 -0.054299 0.084597
-0.034771 -0.050633 0.113535
-0.002312 -0.048479 0.134577
-0.034724 -0.054334 0.096233
0.015298 -0.053025 0.099236
-0.010823 -0.053044 0.113462
-0.028398 -0.054153 0.121962
-0.012972 -0.051823 0.136775
-0.007202 -0.053479 0.088898
-0.024405 -0.053563 0.107457
-0.003230 -0.051852 0.119999
-0.005013 -0.048353 0.145752
0.025992 -0.050196 0.111554
-0.024642 -0.052149 0.102450
-0.020900 -0.051380 0.127473
0.001275 -0.048393 0.099399
0.004082 -0.049831 0.123219
-0.027146 -0.051073 0.083019
-0.019437 -0.048601 0.118536
0.006406 -0.051219 0.142443
-0.012026 -0.052219 0.122506
-0.002247 -0.049716 0.109924
0.023774 -0.048690 0.130544
-0.002224 -0.052780 0.079104
-0.013806 -0.053240 0.097704
0.012221 -0.051421 0.089722
0.010832 -0.049695 0.111986
-0.004101 -0.056052 0.105318
-0.129747 -0.055376 -0.031550
-0.199017 -0.020369 -0.029434
-0.130508 -0.017761 -0.032275
-0.212609 -0.027845 -0.028067
-0.198406 -0.045868 -0.028900
-0.232526 -0.031676 -0.026601
-0.170451 -0.031640 -0.032230
-0.225669 -0.041302 -0.026524
-0.151455 -0.050309 -0.029603
-0.170652 -0.052040 -0.030984
-0.219101 -0.051859 -0.028805
-0.189572 -0.051299 -0.033041
-0.183014 -0.016187 -0.026169
-0.203742 -0.056272 -0.027936
-0.158850 -0.018687 -0.030318
-0.187105 -0.027831 -0.032254
-0.109532 -0.043883 -0.031731
-0.216318 -0.018367 -0.025932
-0.206995 -0.038426 -0.030058
-0.158905 -0.031460 -0.031571
-0.146910 -0.031472 -0.032661
-0.198528 -0.033767 -0.030031
-0.175487 -0.022377 -0.031229
-0.141280 -0.043761 -0.032110
-0.158608 -0.061928 -0.032772
-0.180123 -0.040014 -0.030808
-0.118366 -0.027381 -0.035461
-0.170392 -0.040554 -0.032140
-0.180867 -0.059556 -0.029276
-0.129380 -0.039766 -0.030869
-0.147263 -0.023755 -0.030032
-0.158675 -0.042392 -0.032451
-0.165830 -0.076850 -0.008738
-0.219407 -0.057916 -0.023655
-0.178469 -0.059644 -0.026633
-0.229052 -0.061516 -0.017716
-0.215428 -0.060947 -0.016571
-0.245844 -0.057803 -0.018323
-0.194368 -0.066233 -0.016946
-0.236811 -0.061364 -0.014275
-0.180149 -0.072735 -0.010295
-0.203023 -0.069389 -0.010847
-0.235411 -0.067729 -0.007953
-0.215484 -0.071089 -0.009716
-0.211887 -0.051935 -0.030009
-0.222321 -0.069793 -0.006891
-0.197202 -0.059468 -0.025958
-0.210925 -0.067379 -0.018797
-0.152860 -0.068056 -0.022891
-0.234542 -0.055303 -0.023130
-0.219759 -0.064341 -0.015789
-0.186172 -0.065175 -0.022928
-0.182451 -0.067411 -0.019191
-0.224249 -0.056066 -0.022549
-0.205322 -0.060860 -0.021153
-0.179396 -0.074287 -0.011736
-0.189412 -0.075148 -0.007556
-0.201297 -0.066591 -0.018524
-0.162806 -0.069159 -0.021381
-0.194490 -0.058068 -0.026116
-0.203422 -0.073680 -0.005880
-0.174108 -0.064558 -0.021600
-0.182568 -0.060068 -0.025772
-0.192405 -0.071528 -0.014792
-0.112876 -0.056699 0.033051
-0.135496 -0.048104 0.034869
-0.118820 -0.041249 0.034144
-0.141870 -0.046605 0.034263
-0.145513 -0.056011 0.034358
-0.153938 -0.046924 0.034414
-0.131829 -0.051017 0.033747
-0.158098 -0.052851 0.033099
-0.125711 -0.064257 0.032034
-0.139714 -0.051944 0.033748
-0.150413 -0.058842 0.033394
-0.135756 -0.056338 0.032098
-0.126143 -0.041517 0.035323
-0.141308 -0.062067 0.031371
-0.121996 -0.045401 0.035102
-0.127146 -0.047315 0.033237
-0.106955 -0.047666 0.034323
-0.148002 -0.042492 0.034978
-0.137538 -0.041169 0.034987
-0.106031 -0.053735 0.033356
-0.115548 -0.046830 0.034350
-0.148093 -0.050966 0.034313
-0.132989 -0.044554 0.034587
-0.123335 -0.056484 0.033696
-0.117026 -0.059641 0.032164
-0.128471 -0.055661 0.033312
-0.112232 -0.050810 0.033640
-0.120085 -0.049332 0.035851
-0.131522 -0.060248 0.032267
-0.118504 -0.055380 0.034865
-0.111395 -0.044004 0.035227
-0.124598 -0.052416 0.034122
-0.121506 -0.030979 0.033459
-0.137983 -0.024193 0.030546
-0.126798 -0.019877 0.026760
-0.141371 -0.023378 0.029210
-0.144637 -0.027776 0.032685
-0.149514 -0.023179 0.029435
-0.134467 -0.025424 0.030773
-0.151622 -0.028043 0.031729
-0.132130 -0.036124 0.034754
-0.139200 -0.027862 0.031994
-0.146806 -0.031617 0.032949
-0.138307 -0.030468 0.031580
-0.132504 -0.019255 0.026955
-0.141115 -0.034388 0.033865
-0.128579 -0.022374 0.029537
-0.130966 -0.024239 0.029126
-0.118624 -0.023727 0.029680
-0.145592 -0.020515 0.027827
-0.139212 -0.019442 0.027222
-0.116758 -0.028302 0.031914
-0.123799 -0.023909 0.030313
-0.145959 -0.025706 0.031085
-0.134624 -0.022338 0.028876
-0.128373 -0.031262 0.033008
-0.125624 -0.032665 0.032696
-0.134038 -0.029536 0.032520
-0.121022 -0.026468 0.031143
-0.128325 -0.023672 0.031281
-0.134433 -0.033328 0.034144
-0.125896 -0.028803 0.032923
-0.122238 -0.021308 0.028950
-0.129991 -0.028388 0.031626
-0.014423 -0.061337 0.079492
-0.027024 -0.060020 0.088592
-0.019614 -0.058465 0.096173
-0.028493 -0.059566 0.091937
-0.031652 -0.061650 0.052529
-0.037836 -0.061294 0.085393
-0.027140 -0.061205 0.082060
-0.041226 -0.062599 0.073389
-0.020053 -0.062327 0.074337
-0.033952 -0.061381 0.089610
-0.033784 -0.061473 0.094986
-0.028513 -0.060793 0.100796
-0.022704 -0.057945 0.089061
-0.028667 -0.062400 0.082195
-0.019042 -0.060067 0.085714
-0.022930 -0.060384 0.105889
-0.003761 -0.060477 0.093621
-0.035538 -0.059458 0.063017
-0.030811 -0.056538 0.084911
0.005420 -0.060752 0.084070
-0.014202 -0.059870 0.090459
-0.035709 -0.060685 0.080473
-0.031569 -0.058503 0.072987
-0.025150 -0.060540 0.093278
-0.017722 -0.062213 0.091010
-0.024521 -0.060527 0.081701
-0.010578 -0.059654 0.100856
-0.017638 -0.060948 0.059142
-0.028915 -0.061651 0.074801
-0.026571 -0.059678 0.069054
-0.007517 -0.059943 0.071377
-0.027770 -0.060841 0.097351
-0.200720 -0.039257 -0.023291
-0.258395 -0.020469 -0.018229
-0.205025 -0.016297 -0.016490
-0.268946 -0.023048 -0.017796
-0.258422 -0.033499 -0.022406
-0.286912 -0.023699 -0.016950
-0.237307 -0.024865 -0.021415
-0.284332 -0.032892 -0.021488
-0.220280 -0.038216 -0.021834
-0.238576 -0.037044 -0.022872
-0.277868 -0.035648 -0.022908
-0.252138 -0.032669 -0.023800
-0.246609 -0.017816 -0.012679
-0.264055 -0.041235 -0.021725
-0.226666 -0.018518 -0.015226
-0.253309 -0.021574 -0.020969
-0.182007 -0.031459 -0.023422
-0.274497 -0.021169 -0.016092
-0.266195 -0.027023 -0.020057
-0.225708 -0.026008 -0.020718
-0.217573 -0.025322 -0.020948
-0.261815 -0.029038 -0.022477
-0.241144 -0.019288 -0.018458
-0.213688 -0.028795 -0.023255
-0.226961 -0.042122 -0.026799
-0.242783 -0.030999 -0.023672
-0.191743 -0.021629 -0.022520
-0.236556 -0.032616 -0.023497
-0.248760 -0.045345 -0.021844
-0.200078 -0.031209 -0.021907
-0.217700 -0.020668 -0.016183
-0.228086 -0.030955 -0.022382
0.032315 -0.056674 0.130125
0.025909 -0.055153 0.136788
0.027649 -0.050709 0.145948
0.017822 -0.052998 0.145047
0.023233 -0.058405 0.122185
0.006632 -0.054492 0.139730
0.025230 -0.055996 0.131981
0.006025 -0.056662 0.131978
0.029887 -0.055682 0.125316
0.016407 -0.055540 0.139714
0.009596 -0.053829 0.146002
0.017573 -0.053232 0.148760
0.029485 -0.051158 0.139336
0.018228 -0.055815 0.132275
0.031434 -0.053682 0.134532
0.023876 -0.051617 0.153115
0.033411 -0.052612 0.139725
0.018310 -0.057233 0.127510
0.023346 -0.052964 0.141504
0.034067 -0.053715 0.130847
0.031315 -0.054271 0.137728
0.014418 -0.056492 0.134993
0.024167 -0.054005 0.132221
0.026100 -0.054179 0.139357
0.026266 -0.053790 0.138299
0.029400 -0.057059 0.132336
0.030100 -0.051924 0.147457
0.033750 -0.056779 0.121877
0.023110 -0.056478 0.132020
0.029715 -0.056410 0.127689
0.033783 -0.053899 0.126586
0.024809 -0.054311 0.145157
-0.006673 -0.070874 0.077164
-0.027320 -0.068071 0.080845
-0.015674 -0.064369 0.082557
-0.029584 -0.066890 0.081037
-0.030722 -0.070045 0.063450
-0.037125 -0.067296 0.078537
-0.026993 -0.069626 0.078048
-0.040971 -0.070163 0.074138
-0.015866 -0.072205 0.073366
-0.033133 -0.068596 0.080267
-0.033905 -0.069843 0.081339
-0.028815 -0.068921 0.083699
-0.022794 -0.064905 0.080685
-0.029131 -0.071890 0.075800
-0.016899 -0.068205 0.080163
-0.022550 -0.067360 0.086676
0.007043 -0.068605 0.081643
-0.034903 -0.065735 0.069605
-0.031509 -0.061649 0.078934
0.021445 -0.071115 0.077761
-0.009263 -0.068410 0.081411
-0.035016 -0.068336 0.077641
-0.030423 -0.065524 0.074820
-0.023117 -0.069128 0.081393
-0.015225 -0.070743 0.079563
-0.022548 -0.070247 0.077369
-0.002406 -0.068237 0.084352
-0.012220 -0.068940 0.066143
-0.027623 -0.071168 0.074115
-0.021070 -0.068957 0.073389
0.001405 -0.067675 0.074311
-0.026151 -0.068419 0.082925
0.023661 -0.059176 0.120031
0.014180 -0.057672 0.124235
0.019430 -0.056779 0.130671
0.008129 -0.056294 0.128641
0.008810 -0.059500 0.110754
-0.002285 -0.056594 0.123058
0.016076 -0.058341 0.119886
-0.003531 -0.057844 0.116620
0.020871 -0.058022 0.116669
0.004587 -0.058203 0.124042
0.002284 -0.056271 0.128077
0.010560 -0.056212 0.131967
0.018649 -0.056841 0.126361
0.010180 -0.056535 0.119161
0.022025 -0.058085 0.124162
0.016950 -0.056226 0.134676
0.027894 -0.058273 0.128755
0.003901 -0.058491 0.114390
0.010981 -0.056886 0.126157
0.028256 -0.058465 0.123192
0.024875 -0.057888 0.125232
0.002474 -0.058209 0.120264
0.008928 -0.058023 0.118128
0.015590 -0.057515 0.126837
0.022923 -0.056741 0.125146
0.018376 -0.059128 0.121922
0.024468 -0.056593 0.133619
0.020608 -0.059416 0.112304
0.013597 -0.057594 0.120100
0.014987 -0.058797 0.116215
0.025954 -0.059454 0.117888
0.013424 -0.057548 0.129545
-0.105199 -0.041909 0.034724
-0.120384 -0.033853 0.033929
-0.109829 -0.028197 0.031546
-0.123457 -0.032811 0.032869
-0.126501 -0.039724 0.034718
-0.130786 -0.032871 0.033216
-0.117553 -0.036085 0.033645
-0.132451 -0.038041 0.033782
-0.114590 -0.047662 0.035285
-0.121632 -0.037794 0.034424
-0.128270 -0.042781 0.034745
-0.120612 -0.041549 0.033466
-0.115263 -0.028263 0.032326
-0.123344 -0.046048 0.034551
-0.111833 -0.031512 0.033303
-0.114480 -0.033850 0.032312
-0.101923 -0.033486 0.033478
-0.127247 -0.029336 0.032341
-0.121054 -0.028319 0.032154
-0.100590 -0.039015 0.034009
-0.107387 -0.033114 0.033481
-0.127219 -0.035999 0.033898
-0.117745 -0.031289 0.032818
-0.112225 -0.041633 0.034782
-0.109127 -0.043825 0.033999
-0.116523 -0.040426 0.034337
-0.104825 -0.036370 0.033621
-0.111182 -0.034466 0.034799
-0.117561 -0.044466 0.034913
-0.109012 -0.040205 0.035169
-0.105238 -0.030544 0.033124
-0.112982 -0.038244 0.033972
0.035815 -0.051429 0.128297
0.011550 -0.049856 0.116964
0.036244 -0.045530 0.140782
0.004519 -0.043684 0.150824
0.012507 -0.053230 0.099476
-0.006097 -0.049956 0.124439
0.025426 -0.050158 0.146031
-0.004658 -0.052949 0.110485
0.040004 -0.052591 0.111633
0.015862 -0.052976 0.123271
-0.000103 -0.049981 0.134710
0.015638 -0.049272 0.149418
0.020319 -0.046407 0.105261
0.005884 -0.051788 0.118903
0.022912 -0.046119 0.131139
0.023854 -0.044649 0.160984
0.046724 -0.052198 0.123092
0.003181 -0.046521 0.116132
0.007760 -0.050426 0.139665
0.027892 -0.051121 0.111196
0.029063 -0.051002 0.135227
0.002462 -0.052170 0.101571
0.010641 -0.046580 0.131033
0.033189 -0.050026 0.150990
0.016858 -0.049949 0.132079
0.025382 -0.051271 0.122400
0.044009 -0.050252 0.142820
0.025799 -0.054339 0.095745
0.015964 -0.051994 0.109830
0.035974 -0.051831 0.104700
0.033767 -0.047570 0.121980
0.023132 -0.053786 0.116540
-0.134743 -0.010041 0.004033
-0.153282 -0.010515 0.013441
-0.142939 -0.015294 0.016023
-0.161516 -0.013770 0.015875
-0.159692 -0.010768 -0.009098
-0.179848 -0.012356 0.012092
-0.147744 -0.010382 0.005575
-0.184197 -0.010580 0.002526
-0.143740 -0.010530 0.010447
-0.170687 -0.012311 0.014255
-0.173338 -0.015049 0.018950
-0.158281 -0.017924 0.021424
-0.142202 -0.012028 0.010716
-0.161523 -0.011100 0.015057
-0.137260 -0.010500 0.009192
-0.145965 -0.019095 0.020789
-0.127745 -0.014909 0.016394
-0.169624 -0.010477 -0.004488
-0.160079 -0.012121 0.010761
-0.123107 -0.011022 0.009021
-0.133698 -0.012233 0.014273
-0.172977 -0.010586 0.006439
-0.159695 -0.010450 0.000667
-0.147718 -0.013226 0.016598
-0.135535 -0.012953 0.018439
-0.146161 -0.010193 0.008317
-0.131971 -0.015916 0.020162
-0.137541 -0.011531 -0.006014
-0.153402 -0.009718 0.005654
-0.151138 -0.010600 -0.003440
-0.128574 -0.011724 -0.000378
-0.154496 -0.014647 0.018308
0.013012 -0.062670 0.100586
0.000575 -0.061823 0.107072
0.005961 -0.062263 0.113958
-0.005909 -0.061110 0.112378
-0.004396 -0.061958 0.080000
-0.018093 -0.060680 0.106713
0.003651 -0.062257 0.100360
-0.019569 -0.061115 0.095896
0.010318 -0.061641 0.096395
-0.011545 -0.062204 0.108454
-0.012563 -0.061054 0.113438
-0.004409 -0.061453 0.116655
0.004733 -0.060814 0.108584
-0.002941 -0.060084 0.104238
0.009762 -0.062859 0.106957
0.003438 -0.062234 0.118371
0.017851 -0.064059 0.112780
-0.011476 -0.061279 0.088442
-0.003715 -0.060830 0.108713
0.018844 -0.062982 0.103329
0.013632 -0.063039 0.108554
-0.013013 -0.061778 0.100854
-0.005934 -0.061786 0.095498
0.001662 -0.062594 0.111079
0.010921 -0.061402 0.110643
0.006665 -0.062997 0.103736
0.012501 -0.062278 0.117440
0.009722 -0.062363 0.083182
0.000066 -0.060966 0.099683
0.001077 -0.062385 0.090136
0.015782 -0.063558 0.092909
-0.001681 -0.062519 0.113511
-0.090210 -0.073864 0.022276
-0.108207 -0.068176 0.026829
-0.094124 -0.063554 0.029531
-0.114835 -0.067169 0.027593
-0.113862 -0.073840 0.023983
-0.123054 -0.067719 0.027126
-0.105057 -0.070897 0.025163
-0.124171 -0.071622 0.023371
-0.098463 -0.076569 0.018964
-0.112043 -0.070492 0.025082
-0.118205 -0.073101 0.022021
-0.108341 -0.071600 0.022656
-0.101213 -0.064044 0.030501
-0.112857 -0.075359 0.018719
-0.096984 -0.067416 0.028481
-0.102567 -0.066256 0.026560
-0.083501 -0.068718 0.027227
-0.116489 -0.065973 0.028625
-0.110729 -0.063530 0.030536
-0.082289 -0.072073 0.023647
-0.091987 -0.068072 0.026973
-0.117865 -0.070111 0.025923
-0.107167 -0.066079 0.028718
-0.099028 -0.071566 0.024409
-0.094754 -0.073449 0.020447
-0.101698 -0.073484 0.023084
-0.088831 -0.068581 0.025514
-0.095135 -0.071431 0.026335
-0.105150 -0.075564 0.020214
-0.094857 -0.072446 0.025762
-0.088317 -0.066781 0.029174
-0.101603 -0.069049 0.026540
-0.102040 -0.081453 -0.000940
-0.118161 -0.079652 0.005979
-0.110560 -0.079771 0.013862
-0.127810 -0.078517 0.012401
-0.124524 -0.081692 -0.013715
-0.141575 -0.079599 0.006807
-0.115957 -0.081504 0.001180
-0.143169 -0.080570 -0.003838
-0.108002 -0.080399 -0.006311
-0.132082 -0.080314 0.007555
-0.135084 -0.078608 0.011355
-0.124714 -0.078167 0.015335
-0.111146 -0.080273 0.010359
-0.126264 -0.079079 0.000809
-0.104965 -0.080107 0.005460
-0.115832 -0.077495 0.015184
-0.095832 -0.079905 0.012006
-0.131950 -0.082063 -0.008608
-0.122631 -0.079882 0.010355
-0.092235 -0.080632 0.003683
-0.100352 -0.079894 0.008432
-0.135390 -0.080183 0.002005
-0.124934 -0.081592 -0.002382
-0.115902 -0.079263 0.010840
-0.105204 -0.078265 0.007900
-0.110737 -0.080833 0.002112
-0.102922 -0.077887 0.015584
-0.105532 -0.082506 -0.012016
-0.119209 -0.080527 -0.000698
-0.116555 -0.081396 -0.006535
-0.097299 -0.082407 -0.004478
-0.119618 -0.079243 0.013734
-0.076197 -0.060581 0.031043
-0.115723 -0.041501 0.033409
-0.081450 -0.036956 0.031329
-0.124629 -0.044910 0.032754
-0.119114 -0.056376 0.033976
-0.135977 -0.046037 0.033591
-0.100829 -0.047862 0.032257
-0.134222 -0.052847 0.033126
-0.090405 -0.061495 0.031226
-0.102424 -0.058559 0.031692
-0.128846 -0.059734 0.031324
-0.112036 -0.057994 0.029904
-0.107549 -0.035044 0.031985
-0.119510 -0.063635 0.030135
-0.094166 -0.039051 0.032645
-0.108304 -0.045152 0.030916
-0.068455 -0.053834 0.033066
-0.128621 -0.037306 0.032638
-0.121287 -0.049251 0.032241
-0.090004 -0.047392 0.033837
-0.085549 -0.045818 0.032746
-0.118976 -0.049574 0.033581
-0.103192 -0.041923 0.032535
-0.084976 -0.055984 0.032567
-0.091834 -0.062803 0.029112
-0.105420 -0.054249 0.032402
-0.074041 -0.045518 0.031642
-0.099094 -0.052624 0.033897
-0.105552 -0.065875 0.031020
-0.078889 -0.054611 0.034327
-0.085178 -0.041982 0.033414
-0.092094 -0.053653 0.032463
-0.015058 -0.075564 0.021305
-0.076004 -0.054117 0.028017
-0.020058 -0.050075 0.024660
-0.087448 -0.059068 0.026532
-0.075759 -0.072033 0.028240
-0.102577 -0.059706 0.027433
-0.051646 -0.062048 0.025108
-0.097240 -0.069378 0.026595
-0.033218 -0.074264 0.020987
-0.054282 -0.076736 0.024120
-0.090428 -0.074225 0.022181
-0.069116 -0.074515 0.020497
-0.065715 -0.048993 0.027889
-0.078338 -0.078030 0.019226
-0.043623 -0.053678 0.026136
-0.068758 -0.061266 0.024000
0.001372 -0.074853 0.025810
-0.092518 -0.049337 0.028720
-0.083570 -0.068174 0.024852
-0.045736 -0.060045 0.027491
-0.033148 -0.062640 0.026221
-0.076960 -0.063610 0.027444
-0.055720 -0.055794 0.026167
-0.026229 -0.069881 0.023795
-0.043071 -0.076257 0.017867
-0.061850 -0.068123 0.024500
-0.008590 -0.058950 0.025251
-0.055371 -0.073753 0.027213
-0.062096 -0.080767 0.019634
-0.017130 -0.069310 0.029854
-0.033767 -0.055984 0.028946
-0.041102 -0.070938 0.025542
0.029396 -0.048664 0.107809
0.017783 -0.046602 0.117470
0.024672 -0.047343 0.129304
0.008897 -0.047024 0.128298
0.012878 -0.048508 0.087261
-0.008251 -0.047988 0.118025
0.021947 -0.047242 0.108099
-0.010398 -0.047895 0.105538
0.026183 -0.051376 0.103595
0.001826 -0.047285 0.120971
-0.002132 -0.047443 0.130193
0.011156 -0.046874 0.136759
0.024981 -0.047540 0.122099
0.010515 -0.050610 0.116447
0.028405 -0.046957 0.116508
0.021752 -0.046968 0.138942
0.033892 -0.048166 0.128284
0.002947 -0.047680 0.096041
0.013065 -0.046351 0.121874
0.034998 -0.049456 0.113994
0.031505 -0.047062 0.121884
0.000272 -0.047558 0.112472
0.009119 -0.048386 0.103400
0.018934 -0.046996 0.125431
0.028234 -0.051723 0.124293
0.025078 -0.047747 0.113731
0.029402 -0.046821 0.135504
0.028378 -0.048959 0.091207
0.016363 -0.045794 0.110785
0.017415 -0.047705 0.097721
0.033386 -0.049289 0.099593
0.015333 -0.047161 0.130553
0.048576 -0.092747 0.110520
0.036065 -0.086617 0.111827
0.036152 -0.078659 0.115847
0.034735 -0.082109 0.115240
0.040517 -0.088919 0.106663
0.028096 -0.080810 0.114091
0.038732 -0.089364 0.109704
0.029610 -0.086985 0.113793
0.047964 -0.093897 0.110901
0.035068 -0.088177 0.113561
0.032248 -0.087252 0.118078
0.037984 -0.090159 0.118778
0.033246 -0.078088 0.110581
0.042821 -0.094165 0.113482
0.038185 -0.085658 0.110607
0.036884 -0.086482 0.122131
0.050225 -0.088532 0.108839
0.032062 -0.078069 0.108834
0.030501 -0.071907 0.110253
0.058036 -0.093150 0.107341
0.040680 -0.088697 0.110899
0.033447 -0.085195 0.111946
0.035172 -0.080674 0.109439
0.040381 -0.090585 0.112436
0.045339 -0.093039 0.114838
0.039214 -0.090279 0.110482
0.045591 -0.089871 0.116650
0.044342 -0.085283 0.106198
0.041276 -0.091311 0.111121
0.041647 -0.088499 0.109290
0.045642 -0.083351 0.107684
0.036264 -0.087067 0.113557
0.026511 -0.064523 0.108358
0.014165 -0.063128 0.111688
0.021213 -0.061666 0.112827
0.009444 -0.061494 0.112787
0.009480 -0.063420 0.099452
-0.003409 -0.060910 0.110965
0.017248 -0.063492 0.107870
-0.007054 -0.061994 0.107398
0.023365 -0.065368 0.108271
0.005559 -0.063258 0.110965
0.002459 -0.062436 0.113276
0.012370 -0.062710 0.113209
0.018135 -0.061591 0.111270
0.013007 -0.064044 0.109330
0.021579 -0.064640 0.111378
0.018665 -0.063379 0.115378
0.032479 -0.066057 0.111827
0.002983 -0.060758 0.103954
0.010218 -0.059944 0.110831
0.037063 -0.066148 0.109298
0.024815 -0.064811 0.110706
0.003531 -0.062664 0.109342
0.010678 -0.061856 0.106734
0.016794 -0.063967 0.111370
0.025348 -0.064098 0.110981
0.018284 -0.064653 0.109826
0.028159 -0.064544 0.114234
0.023124 -0.063391 0.100633
0.015875 -0.062992 0.108198
0.017871 -0.064301 0.104832
0.028722 -0.064647 0.106939
0.014981 -0.063654 0.112060
0.056358 -0.094264 0.113907
0.045025 -0.089848 0.119702
0.053935 -0.084336 0.121618
0.042890 -0.086784 0.119890
0.043530 -0.092037 0.101640
0.035887 -0.087075 0.118702
0.047790 -0.092404 0.117995
0.035459 -0.089866 0.112239
0.056353 -0.094314 0.111045
0.042010 -0.090368 0.118847
0.041600 -0.090346 0.116357
0.049000 -0.092425 0.115530
0.046431 -0.085283 0.122689
0.047243 -0.092529 0.111539
0.050062 -0.090671 0.121452
0.050195 -0.087713 0.119624
0.061615 -0.091807 0.120405
0.038764 -0.086419 0.110318
0.041001 -0.081309 0.122042
0.067162 -0.095055 0.117136
0.053372 -0.091585 0.119571
0.040351 -0.089790 0.116470
0.042926 -0.087092 0.117671
0.050192 -0.091621 0.119553
0.057647 -0.094096 0.115614
0.048621 -0.093520 0.115756
0.058196 -0.091364 0.119108
0.052271 -0.091465 0.106365
0.049201 -0.093967 0.108610
0.050469 -0.092397 0.112201
0.057562 -0.091088 0.118356
0.048602 -0.090390 0.119446
0.037678 -0.076773 0.114685
0.030088 -0.068640 0.114264
0.034781 -0.061547 0.114092
0.029364 -0.066870 0.113739
0.027894 -0.073032 0.109226
0.019005 -0.065549 0.113166
0.030644 -0.071649 0.113226
0.015138 -0.071392 0.113122
0.035350 -0.083650 0.113491
0.028731 -0.070492 0.113774
0.023076 -0.074635 0.113771
0.032154 -0.074717 0.112912
0.029957 -0.062871 0.113587
0.029910 -0.084109 0.112987
0.031811 -0.068170 0.114330
0.033269 -0.068593 0.114912
0.042621 -0.068845 0.113411
0.023416 -0.062500 0.111653
0.027220 -0.058230 0.114554
0.047488 -0.076207 0.113662
0.034161 -0.069151 0.114178
0.025414 -0.069506 0.113847
0.029002 -0.064681 0.113223
0.033779 -0.073569 0.113422
0.036402 -0.078870 0.113536
0.031689 -0.073797 0.113670
0.039119 -0.072341 0.113234
0.033304 -0.068617 0.110606
