-0.435620 -0.070708 0.140636
-0.357464 -0.099511 0.178834
-0.436879 -0.040045 0.141702
-0.330354 -0.128900 0.179026
-0.374915 -0.055740 0.173124
-0.409499 -0.064815 0.141132
-0.357998 -0.067987 0.179639
-0.332670 -0.099015 0.175983
-0.293089 -0.141253 0.177743
-0.399206 -0.035533 0.141044
-0.299996 -0.119089 0.176556
-0.354724 -0.037875 0.170789
-0.335092 -0.042393 0.180157
-0.310795 -0.088916 0.176544
-0.338343 -0.069307 0.162967
-0.298542 -0.143226 0.158455
-0.272635 -0.132085 0.176335
-0.283724 -0.101322 0.176636
-0.320166 -0.114321 0.138600
-0.326046 -0.056392 0.157072
-0.334234 -0.107699 0.126270
-0.369086 -0.012264 0.141922
-0.332810 -0.025627 0.162705
-0.297235 -0.051825 0.178004
-0.276214 -0.134185 0.152794
-0.283141 -0.072197 0.175814
-0.314582 -0.020356 0.171935
-0.297097 -0.028898 0.179303
-0.299443 -0.083054 0.148412
-0.319448 -0.066119 0.137273
-0.264147 -0.063213 0.179592
-0.253402 -0.106227 0.166786
-0.339671 -0.073236 0.111318
-0.283702 -0.136863 0.123300
-0.323567 -0.016360 0.140319
-0.362446 -0.054904 0.088600
-0.261455 -0.117328 0.136963
-0.253055 -0.103321 0.147241
-0.283096 -0.020606 0.156376
-0.336218 -0.027545 0.110348
-0.258872 -0.033083 0.165862
-0.239881 -0.059442 0.162460
-0.252400 -0.081432 0.141235
-0.377147 -0.073808 0.046428
-0.319810 -0.012186 0.116220
-0.308574 -0.035905 0.110881
-0.257892 -0.115522 0.111345
-0.274259 -0.016098 0.139164
-0.249409 -0.043817 0.143118
-0.240259 -0.060415 0.141310
-0.250326 -0.096606 0.112655
-0.253119 -0.073891 0.117147
-0.397257 -0.035340 0.019981
-0.252241 -0.015810 0.140368
-0.219883 -0.070087 0.138913
-0.301064 -0.012742 0.101911
-0.257963 -0.065784 0.102235
-0.358809 -0.035079 0.037116
-0.218905 -0.038405 0.139591
-0.224752 -0.014308 0.140643
-0.191595 -0.074316 0.138290
-0.290446 -0.068819 0.059041
-0.240873 -0.083170 0.084447
-0.182343 -0.041765 0.139916
-0.388516 -0.054573 -0.026534
-0.160937 -0.073640 0.138478
-0.169854 -0.070120 0.133445
-0.303232 -0.086150 0.020798
-0.318632 -0.102601 0.001240
-0.405263 -0.113102 -0.082228
-0.161795 -0.042145 0.139840
-0.352471 -0.070177 -0.029935
-0.131367 -0.071553 0.139221
-0.300910 -0.074504 0.004829
-0.169684 -0.011457 0.131484
-0.102534 -0.087646 0.147723
-0.248969 -0.014545 0.068210
-0.141292 -0.033192 0.140047
-0.159061 0.009162 0.133796
-0.111535 -0.053232 0.141152
-0.075981 -0.086240 0.152058
-0.394429 -0.039044 -0.076413
-0.137842 -0.073454 0.107686
-0.114468 -0.032706 0.143565
-0.172014 0.038929 0.131452
-0.310707 -0.089773 -0.037446
-0.132399 -0.003894 0.140079
-0.232378 -0.013411 0.057027
-0.093605 -0.069868 0.136255
-0.335912 -0.040318 -0.038434
-0.144083 0.026495 0.140101
-0.114323 -0.011727 0.144093
-0.232456 -0.038158 0.037709
-0.159000 0.054642 0.133448
-0.173072 0.077475 0.130964
-0.085324 -0.040305 0.143812
-0.120830 -0.024692 0.123525
-0.041961 -0.085663 0.152871
-0.239572 -0.036569 0.025326
-0.117111 0.017527 0.141977
-0.360395 -0.099090 -0.104046
-0.117534 -0.084565 0.092656
-0.133218 0.045809 0.139461
-0.143661 -0.006468 0.106322
-0.064124 -0.064990 0.138927
-0.339543 -0.132079 -0.106767
-0.084256 -0.011751 0.144575
-0.141850 0.066748 0.134234
-0.095532 0.009495 0.143377
-0.178026 0.010858 0.079881
-0.165608 -0.037979 0.066313
-0.298736 -0.054186 -0.045796
-0.188608 -0.068973 0.032421
-0.062469 -0.031326 0.144507
-0.143989 0.024448 0.107350
-0.158552 0.106995 0.133323
-0.158829 -0.068723 0.052864
-0.109337 0.037785 0.137743
-0.015824 -0.089881 0.147234
-0.044199 -0.052469 0.142839
-0.036844 -0.073229 0.136322
-0.173799 0.140829 0.129566
-0.144309 0.043969 0.107304
-0.307440 -0.141504 -0.106509
-0.161698 -0.048514 0.050251
-0.229712 0.018958 0.029421
-0.120364 0.056671 0.127826
-0.061565 -0.003552 0.143868
-0.174248 -0.058033 0.031915
-0.210171 -0.051966 0.005744
-0.204291 -0.057701 0.006439
-0.050015 -0.050282 0.126923
-0.131369 0.084533 0.126094
-0.149219 0.093082 0.115907
-0.364779 -0.068441 -0.127783
-0.021646 -0.060312 0.140868
-0.151443 0.128647 0.127956
-0.319792 -0.050673 -0.085022
-0.313138 -0.120559 -0.113721
-0.063109 0.017261 0.141993
-0.042720 -0.011328 0.144518
-0.133935 0.061197 0.106651
-0.081028 0.041872 0.137287
-0.024903 -0.031112 0.144795
0.021200 -0.088375 0.151579
-0.286442 -0.141764 -0.111390
-0.324740 -0.116924 -0.130854
-0.261493 -0.044250 -0.046301
-0.000261 -0.072887 0.136692
-0.008293 -0.086859 0.123324
-0.094923 0.065474 0.127685
-0.171851 -0.080247 0.002137
-0.280493 -0.070455 -0.079609
-0.283769 -0.113829 -0.104919
-0.127379 0.106100 0.116439
-0.293222 -0.083330 -0.099899
0.005806 -0.051443 0.143108
-0.330410 -0.095202 -0.136188
0.038126 -0.078408 0.154756
-0.110349 0.096844 0.119842
-0.139213 0.126196 0.108426
-0.254119 -0.045077 -0.061949
-0.017270 0.009381 0.143140
-0.129077 0.097170 0.099310
-0.071786 0.065106 0.126776
0.001645 -0.015251 0.144904
-0.324612 -0.118556 -0.155565
-0.245532 -0.007391 -0.040636
-0.270257 -0.097489 -0.103537
0.052855 -0.091015 0.144987
-0.303576 -0.145651 -0.154123
-0.050833 0.049233 0.131273
0.030951 -0.067364 0.138577
-0.251639 -0.001819 -0.046955
-0.297850 -0.105543 -0.136624
0.027960 -0.034739 0.144682
-0.284258 -0.138604 -0.144444
0.005042 0.004445 0.143945
-0.258740 -0.119991 -0.117311
-0.019722 0.036402 0.138522
-0.274604 -0.030561 -0.090496
-0.028641 -0.054922 0.087085
0.080244 -0.089097 0.150634
-0.065136 0.085773 0.120916
-0.082647 0.104330 0.116303
-0.093626 -0.029260 0.045490
0.004616 0.023982 0.141116
-0.104829 0.129465 0.105884
0.037631 -0.015201 0.144773
-0.135978 -0.061733 -0.007212
-0.283739 -0.025682 -0.106215
0.055587 -0.046499 0.143300
-0.097741 -0.087680 0.009447
0.063650 -0.066228 0.138837
0.022956 0.012272 0.142884
-0.234693 -0.081902 -0.097315
-0.020258 0.056091 0.128828
-0.096782 -0.034893 0.030265
-0.263247 -0.121701 -0.142851
-0.064722 0.107497 0.115284
-0.268281 -0.049429 -0.114200
0.110740 -0.088048 0.153290
-0.077318 0.128181 0.109465
0.010459 0.043408 0.134837
-0.032701 0.085642 0.121464
0.055430 -0.007442 0.144400
-0.275234 -0.135940 -0.170763
0.087793 -0.073300 0.136194
-0.207092 -0.031414 -0.067221
0.073493 -0.022951 0.145966
-0.024950 -0.071190 0.050726
-0.044676 0.106802 0.115015
0.054038 0.012335 0.142525
0.131358 -0.087085 0.153992
0.044034 0.030865 0.140003
0.095001 -0.041955 0.143407
0.019515 -0.077017 0.070538
-0.237354 0.001193 -0.090278
-0.326684 -0.021773 -0.172847
-0.000099 0.079371 0.122699
-0.041994 0.035866 0.071928
-0.189884 0.009719 -0.052734
-0.249475 -0.095519 -0.152361
0.120126 -0.076118 0.134692
-0.131162 -0.062999 -0.048501
0.065463 0.027917 0.139625
-0.085160 -0.038781 -0.003507
0.109268 -0.071585 0.126716
0.072818 -0.043148 0.112426
-0.138884 -0.065508 -0.057758
0.084979 0.007362 0.142785
0.029999 0.062225 0.127095
0.159188 -0.090290 0.151656
-0.013297 0.109070 0.113986
0.099712 -0.008261 0.143793
-0.036626 0.130005 0.105292
0.056968 -0.083151 0.076428
0.130653 -0.055905 0.142244
0.048334 0.049646 0.129656
0.004454 0.021157 0.084581
0.116303 -0.019699 0.144731
0.179346 -0.081216 0.156408
0.136621 -0.037453 0.143664
0.025945 0.091396 0.119259
0.150490 -0.067241 0.138365
-0.060849 -0.072175 -0.021396
0.096335 0.031226 0.139655
0.115304 0.011489 0.142088
0.080571 0.046857 0.130869
0.198903 -0.088005 0.154578
0.054471 0.075351 0.123354
0.008282 0.122335 0.110149
0.153351 0.064059 0.189126
0.139892 -0.007355 0.143710
0.164039 -0.048055 0.142963
0.170626 -0.067164 0.138716
-0.153523 -0.088119 -0.120502
0.134959 0.011695 0.141936
-0.017854 -0.047694 0.001311
0.056610 0.094896 0.117937
0.164725 -0.018338 0.144157
0.044131 -0.022027 0.054642
0.036540 0.118771 0.111567
0.011423 -0.034101 0.023197
0.115326 0.042640 0.134066
0.166837 0.083948 0.189533
0.083282 -0.061201 0.062680
0.191725 -0.054576 0.142603
0.099549 0.062580 0.126989
-0.093520 -0.072091 -0.079149
0.170412 0.047413 0.171019
0.155691 0.011695 0.141912
0.130315 -0.012364 0.111714
-0.104048 0.017523 -0.049935
0.051563 -0.066089 0.028689
0.078867 0.090357 0.119481
0.218631 -0.103653 0.132484
-0.035910 -0.047511 -0.029304
0.208974 -0.076633 0.136964
0.146190 0.031676 0.139400
-0.013126 -0.069549 -0.025343
0.244934 -0.116233 0.141396
0.171153 0.072575 0.171312
0.196897 -0.025686 0.145145
0.211558 -0.054404 0.142309
0.176507 0.003754 0.142796
-0.108251 -0.050858 -0.094701
0.121274 0.061324 0.126726
0.232856 -0.087197 0.139524
0.263490 -0.125744 0.142013
-0.020692 0.085419 0.030972
0.192428 -0.007524 0.143905
0.065549 0.121029 0.109393
-0.158280 -0.036259 -0.138993
0.109343 0.089270 0.119408
0.227869 -0.042953 0.144453
0.089265 0.110867 0.112929
0.245327 -0.072403 0.141915
0.285388 -0.144511 0.137060
0.219089 -0.103587 0.105995
0.199621 -0.046956 0.113987
0.177680 0.040311 0.135275
0.195226 0.022393 0.140039
0.220548 -0.003740 0.144638
0.235798 -0.025435 0.145387
0.157687 -0.082866 0.062402
0.256401 -0.090470 0.128915
0.192095 -0.049861 0.100222
0.129879 0.091426 0.118051
0.285214 -0.106698 0.138549
0.224782 -0.075287 0.109146
0.156134 0.066752 0.123913
0.269551 -0.075055 0.138155
-0.026271 -0.018030 -0.055318
0.128290 -0.061820 0.038931
0.260176 -0.042723 0.141500
0.214296 0.025668 0.139145
-0.080993 0.034131 -0.076113
0.105866 0.122944 0.102294
0.247524 -0.004840 0.146085
-0.092110 -0.059651 -0.131363
0.231689 -0.036601 0.119477
0.324293 -0.131819 0.141108
0.305661 -0.109763 0.138409
0.149804 0.095782 0.114967
0.130907 0.114052 0.109277
0.285025 -0.056680 0.138042
-0.012976 -0.055075 -0.080054
0.175846 0.078935 0.118987
0.041980 -0.065870 -0.046136
0.244917 0.021345 0.138929
0.075732 0.059196 0.033360
0.228566 -0.058264 0.090533
0.200930 0.063662 0.122922
0.334937 -0.098086 0.143718
0.079340 0.011566 0.009885
0.246095 -0.010988 0.120298
0.276487 -0.003705 0.144845
0.304579 -0.107790 0.116617
0.074230 -0.059090 -0.027961
0.102094 -0.056867 -0.007030
0.289321 -0.028176 0.140085
0.323923 -0.080233 0.139454
-0.017969 0.077861 -0.037596
0.211720 -0.036467 0.078319
-0.036595 -0.037653 -0.106767
0.310096 -0.088605 0.124093
0.310614 -0.055783 0.138692
0.233222 0.048850 0.128392
0.251169 -0.088651 0.077686
0.270951 0.017554 0.138743
0.258582 -0.068739 0.090637
0.127420 0.117375 0.080225
0.212014 -0.053200 0.060848
-0.000260 -0.084983 -0.111410
0.152113 0.104520 0.087452
0.244151 -0.021722 0.097317
0.345405 -0.076368 0.141862
0.324135 -0.038327 0.140440
0.296598 0.004761 0.140312
0.073036 -0.027430 -0.037695
0.175544 0.045278 0.068874
0.176658 0.087993 0.088115
0.278210 -0.060417 0.090449
0.216998 0.059105 0.100164
0.342524 -0.107415 0.112949
0.302321 -0.027857 0.120650
0.170663 -0.066901 0.008036
0.270307 -0.026815 0.095922
0.242766 0.051945 0.110355
0.201212 0.072238 0.088950
0.263392 -0.005100 0.098686
0.357935 -0.062150 0.137291
0.365728 -0.018771 0.161542
0.368823 -0.091633 0.130496
0.272745 0.049028 0.125288
0.060800 -0.034521 -0.066854
0.023992 -0.054181 -0.104943
0.347568 -0.080919 0.117054
0.286649 -0.077400 0.075199
0.304259 0.029232 0.133395
0.107863 -0.053298 -0.047081
0.323308 0.009638 0.136675
0.358289 -0.041192 0.137960
0.137496 0.117438 0.047028
0.285255 -0.005259 0.097041
0.340317 -0.057308 0.111765
0.325812 -0.039573 0.109834
0.327164 -0.065050 0.099219
0.189628 0.081293 0.064680
0.365496 0.016778 0.160322
0.118321 0.129494 0.035044
0.226728 0.052091 0.077688
0.310470 -0.032164 0.099888
0.031039 0.034752 -0.073811
0.204872 -0.071425 0.005265
0.347769 -0.005021 0.137141
0.165256 0.099407 0.051420
0.387908 -0.093130 0.122520
0.245026 -0.079200 0.026520
0.310618 -0.034442 0.090475
0.214602 0.062516 0.065378
0.170687 -0.046990 -0.018386
0.189679 -0.006412 0.012025
0.387171 -0.053163 0.129792
0.324034 0.037060 0.126647
0.393324 -0.029561 0.144578
0.150121 0.109889 0.033954
0.133288 0.120164 0.025869
0.343361 -0.071321 0.084671
0.271715 0.052632 0.090688
0.383839 0.006212 0.148220
0.377432 -0.021643 0.130127
0.398920 -0.074578 0.117203
0.363617 0.010452 0.129870
0.336803 -0.042043 0.085764
0.326574 -0.009583 0.092772
0.274256 0.011746 0.065106
0.399029 -0.094801 0.103630
0.348285 0.033023 0.125582
0.188750 0.083381 0.033746
0.149430 -0.055940 -0.059471
0.169143 0.096706 0.024659
0.148494 0.111131 0.015174
0.138070 0.073838 -0.011728
0.159449 -0.015533 -0.037939
0.298455 -0.051582 0.045659
0.130738 0.122411 0.003662
0.380130 -0.003858 0.123610
0.399686 -0.043742 0.117824
0.310966 -0.084802 0.036575
0.301189 0.048600 0.087536
0.227398 0.050986 0.035707
0.278459 -0.079456 0.009134
0.272533 -0.001138 0.041200
0.161430 -0.074039 -0.075833
0.132133 0.030082 -0.049036
0.398526 -0.072282 0.092941
0.407799 -0.054822 0.103278
0.180937 0.089938 0.007535
0.403967 -0.001837 0.124606
0.406549 -0.093506 0.082644
0.212875 -0.071297 -0.044720
0.213523 0.064508 0.016742
0.410141 -0.020158 0.117869
0.378606 0.033189 0.118466
0.159311 0.104562 -0.005792
0.282436 -0.074822 -0.003330
0.238481 0.059247 0.026742
0.335195 -0.079644 0.029974
0.407838 -0.033519 0.102289
0.370174 -0.073359 0.057918
0.332876 0.044043 0.083856
0.302266 -0.078970 0.005501
0.142649 -0.068172 -0.110120
0.406365 0.017690 0.117372
0.092014 -0.008691 -0.122065
0.214358 0.031380 -0.016040
0.128660 0.121365 -0.040547
0.177215 0.091126 -0.018881
0.226013 0.054283 -0.001713
0.410709 -0.096315 0.057413
0.358144 0.040792 0.082247
0.424129 -0.075132 0.071383
0.413893 0.004776 0.096823
0.333394 -0.090777 -0.004412
0.419722 -0.020366 0.087484
0.413972 -0.034888 0.071853
0.347920 0.044239 0.060604
0.195295 0.077296 -0.033540
0.237953 -0.057694 -0.065177
0.159195 0.102138 -0.050788
0.391029 0.032526 0.083886
0.290520 -0.034571 -0.020278
0.416781 -0.085216 0.043509
0.431785 -0.046563 0.070939
0.275697 -0.079500 -0.055163
0.223188 0.054293 -0.032115
0.325805 -0.079317 -0.019821
0.326816 -0.097174 -0.032967
0.413437 -0.010140 0.067702
0.418208 0.017153 0.077056
0.237762 -0.064728 -0.092968
0.421202 -0.053666 0.038862
0.378621 -0.046419 0.008406
0.410845 -0.023490 0.040958
0.417594 -0.092542 0.013699
0.316366 -0.078630 -0.054067
0.431555 0.000558 0.062584
0.298406 -0.145619 -0.110811
0.418868 0.024941 0.052723
0.217895 0.056857 -0.077427
0.421912 -0.058948 0.011704
0.340246 -0.026482 -0.031138
0.399755 0.032752 0.026305
0.285949 -0.075491 -0.106256
0.321591 -0.126217 -0.106657
0.246998 -0.013795 -0.108349
0.430769 -0.086388 -0.011234
0.433907 -0.027580 0.017538
0.318807 -0.102493 -0.102668
0.416434 -0.036418 -0.007973
0.339005 -0.116785 -0.107834
0.421081 0.024588 0.001378
0.339196 -0.120154 -0.134799
0.423786 -0.077836 -0.054163
0.398205 0.033963 -0.027014
0.421350 0.021464 -0.034045
0.435205 -0.053312 -0.062992
0.439315 -0.031490 -0.060659
0.422486 0.000882 -0.063806
0.422745 0.021166 -0.062316
