0.108720 0.056947 -0.101836
0.171805 0.078580 -0.071636
0.130825 0.048536 -0.142133
0.119485 -0.014257 -0.106446
0.162900 0.075805 -0.123038
0.151038 0.098118 -0.101808
0.145354 0.036498 -0.092331
0.398199 -0.082407 0.086062
0.400408 -0.067648 0.091718
0.394748 -0.035003 0.103903
0.394760 -0.052340 0.101874
0.400872 -0.078457 0.050876
0.374001 -0.055281 0.097039
0.396929 -0.079771 0.092201
0.367517 -0.075748 0.087830
0.400050 -0.092906 0.081076
0.392756 -0.071691 0.096425
0.376509 -0.074382 0.105665
0.390907 -0.083137 0.105138
0.400371 -0.040675 0.094109
0.393921 -0.096016 0.092229
0.401305 -0.058560 0.086287
0.390189 -0.062827 0.107512
0.398970 -0.056030 0.089878
0.398668 -0.049297 0.066051
0.399544 -0.012609 0.091544
0.404212 -0.079014 0.086422
0.397311 -0.066778 0.092137
0.395258 -0.065166 0.084922
0.400450 -0.047987 0.088031
0.396780 -0.077819 0.097357
0.392356 -0.087226 0.096236
0.399699 -0.072944 0.085645
0.394609 -0.072071 0.102159
0.403245 -0.062734 0.052673
0.399588 -0.081405 0.075285
0.401839 -0.073105 0.073450
0.403020 -0.039731 0.073729
0.395916 -0.065102 0.097759
0.407787 -0.076239 0.100426
0.408079 -0.053703 0.102589
0.403513 -0.030326 0.112024
0.404095 -0.042363 0.110763
0.409772 -0.068612 0.090102
0.400173 -0.045219 0.107732
0.404297 -0.066967 0.103699
0.397701 -0.063606 0.106337
0.405832 -0.086198 0.098456
0.403376 -0.060958 0.107086
0.396241 -0.065830 0.114221
0.399081 -0.074099 0.114898
0.407999 -0.033981 0.104922
0.401148 -0.090834 0.105154
0.409744 -0.045236 0.100209
0.400054 -0.050293 0.116220
0.411777 -0.045094 0.099921
0.410834 -0.040497 0.095684
0.408881 -0.018843 0.104869
0.415559 -0.067674 0.096297
0.406545 -0.052012 0.103566
0.406976 -0.051685 0.102575
0.408502 -0.039059 0.104379
0.404052 -0.071357 0.106753
0.400100 -0.079397 0.107574
0.407528 -0.061070 0.101465
0.403718 -0.058202 0.111991
0.413901 -0.051986 0.087854
0.406125 -0.073912 0.098888
0.410457 -0.060370 0.095924
0.413724 -0.032211 0.095102
0.403973 -0.054941 0.107775
0.189585 0.084352 -0.020009
0.180207 0.093040 -0.004094
0.171940 0.095729 0.017666
0.175087 0.095108 0.007071
0.185664 0.085548 -0.056338
0.172706 0.099572 -0.001086
0.192212 0.082257 -0.007676
0.181902 0.089889 -0.027377
0.197631 0.074485 -0.027736
0.186211 0.088240 0.004661
0.182758 0.089386 0.011078
0.191327 0.080933 0.020072
0.167669 0.097646 0.005763
0.198395 0.073701 -0.008668
0.176191 0.093545 -0.007609
0.180626 0.089872 0.024744
0.178560 0.089507 0.009021
0.171563 0.096925 -0.044408
0.164359 0.101731 -0.007975
0.190544 0.080981 -0.011237
0.184061 0.086904 -0.001656
0.177392 0.093533 -0.016641
0.169142 0.098868 -0.022101
0.190426 0.083886 0.010621
0.196518 0.075077 0.004436
0.185309 0.087871 -0.013905
0.185525 0.085762 0.018734
0.180649 0.089564 -0.044126
0.189622 0.083045 -0.033154
0.180508 0.090625 -0.034049
0.171360 0.094830 -0.031869
0.177579 0.092335 0.014780
0.404825 -0.015816 0.122583
0.402624 -0.000696 0.124401
0.400656 0.016641 0.129758
0.400229 0.006322 0.128917
0.403001 -0.010931 0.118211
0.394591 0.004570 0.126623
0.400629 -0.007887 0.124270
0.391479 -0.006945 0.126862
0.402103 -0.023916 0.121363
0.399680 -0.005414 0.126476
0.393904 -0.009651 0.132031
0.398131 -0.014332 0.134066
0.402301 0.012766 0.123755
0.398409 -0.029311 0.125777
0.404002 0.004420 0.121676
0.399140 0.001675 0.136552
0.407418 0.005492 0.121132
0.401131 0.009310 0.120520
0.401519 0.025596 0.123781
0.412007 -0.010000 0.118972
0.402902 0.001350 0.123917
0.400040 -0.000305 0.125371
0.402881 0.008186 0.124398
0.401525 -0.011820 0.126291
0.400077 -0.017925 0.126961
0.402437 -0.006786 0.123586
0.402893 -0.003565 0.131018
0.407246 0.000552 0.116085
0.401412 -0.013632 0.123531
0.404746 -0.005561 0.120701
0.407582 0.013698 0.118886
0.400544 -0.001945 0.127684
0.410268 -0.091792 0.073395
0.410260 -0.090826 0.083488
0.407333 -0.073210 0.095813
0.406471 -0.084982 0.094052
0.409764 -0.093253 0.053160
0.392035 -0.088505 0.087805
0.406357 -0.092589 0.081912
0.388431 -0.094737 0.075691
0.408209 -0.092391 0.071147
0.402564 -0.092946 0.088965
0.393203 -0.092495 0.098100
0.401048 -0.093519 0.101987
0.410175 -0.073863 0.087076
0.400607 -0.092802 0.080910
0.410910 -0.083937 0.076799
0.405396 -0.089263 0.105848
0.411033 -0.083393 0.085656
0.407746 -0.084416 0.064307
0.410531 -0.067386 0.082951
0.413435 -0.090803 0.076801
0.409303 -0.089643 0.084336
0.405018 -0.091527 0.076799
0.412426 -0.077685 0.076621
0.407933 -0.091268 0.091847
0.403878 -0.091661 0.090718
0.409139 -0.090863 0.075607
0.407526 -0.090223 0.098465
0.413899 -0.087320 0.055415
0.404486 -0.091876 0.068733
0.412347 -0.090888 0.066823
0.412517 -0.075682 0.065267
0.407537 -0.090581 0.095504
0.288484 -0.077106 -0.055083
0.245632 -0.043251 -0.078021
0.275218 -0.010246 -0.029053
0.228767 -0.019070 -0.020635
0.248365 -0.073521 -0.103995
0.206052 -0.052893 -0.055522
0.262504 -0.066093 -0.019677
0.213415 -0.070559 -0.081794
0.285685 -0.075071 -0.088619
0.245486 -0.075515 -0.047962
0.216096 -0.076030 -0.033427
0.243872 -0.073522 -0.005592
0.256507 -0.001736 -0.095644
0.233837 -0.072335 -0.064773
0.253394 -0.007649 -0.051966
0.251264 -0.039665 0.000602
0.300669 -0.067458 -0.070400
0.224489 -0.011335 -0.070995
0.232843 -0.064600 -0.026157
0.266671 -0.063922 -0.089634
0.270225 -0.064495 -0.045234
0.228954 -0.055890 -0.102345
0.249203 -0.039646 -0.046059
0.283794 -0.074374 -0.015573
0.258660 -0.078374 -0.036551
0.253740 -0.065516 -0.062427
0.290444 -0.056315 -0.033721
0.265774 -0.071998 -0.121046
0.253911 -0.079935 -0.080250
0.286199 -0.052744 -0.104615
0.277582 -0.027423 -0.070733
0.269170 -0.078457 -0.068455
0.223955 0.056789 0.002158
0.214411 0.067511 0.013526
0.206527 0.071191 0.038488
0.209661 0.070203 0.025917
0.219960 0.060365 -0.031645
0.206981 0.074152 0.016835
0.225183 0.056533 0.012160
0.215287 0.064037 -0.004709
0.231340 0.046846 -0.006721
0.219860 0.062622 0.022448
0.216636 0.063613 0.031043
0.224766 0.054869 0.043560
0.203106 0.073472 0.023157
0.233180 0.042923 0.012041
0.210498 0.068323 0.009728
0.214843 0.064572 0.049151
0.214068 0.064166 0.026126
0.206474 0.072292 -0.021629
0.199638 0.077393 0.009403
0.225719 0.055028 0.007471
0.218149 0.061768 0.016294
0.212225 0.068144 0.001822
0.205000 0.074266 -0.002376
0.224330 0.057350 0.029678
0.230734 0.046579 0.024449
0.218413 0.062220 0.005270
0.220438 0.060245 0.039993
0.214500 0.064970 -0.022021
0.223668 0.057787 -0.011067
0.214806 0.065398 -0.011998
0.206583 0.070420 -0.010444
0.212463 0.067171 0.034098
0.411442 -0.037893 0.115859
0.409165 -0.018046 0.117975
0.404588 0.003725 0.129045
0.405882 -0.008759 0.126258
0.410352 -0.030573 0.108411
0.399910 -0.011101 0.122178
0.406740 -0.027940 0.118767
0.397432 -0.025740 0.120462
0.408707 -0.047920 0.112885
0.405380 -0.023722 0.122018
0.398382 -0.028169 0.129648
0.402785 -0.034487 0.133949
0.407875 -0.000685 0.119622
0.404384 -0.054344 0.119572
0.410157 -0.011212 0.115001
0.402999 -0.014531 0.137344
0.414715 -0.010491 0.116267
0.408437 -0.006439 0.112451
0.407472 0.014950 0.119277
0.420285 -0.029800 0.111580
0.408753 -0.015960 0.118622
0.406593 -0.017147 0.118348
0.409183 -0.006322 0.118697
0.407124 -0.032284 0.122782
0.404522 -0.040887 0.122842
0.408651 -0.024992 0.116639
0.407524 -0.021304 0.129954
0.414265 -0.016818 0.106203
0.407920 -0.034255 0.115578
0.411610 -0.023510 0.112136
0.414197 -0.000008 0.111045
0.405993 -0.018758 0.125178
0.388094 0.030279 0.114809
0.374624 0.031783 0.119792
0.379738 0.027063 0.124738
0.370775 0.030352 0.123367
0.373531 0.033142 0.102080
0.358048 0.032563 0.120526
0.380083 0.032693 0.114018
0.355150 0.033856 0.115096
0.383709 0.027560 0.118161
0.365377 0.032406 0.121439
0.363487 0.029589 0.128520
0.371660 0.027879 0.131109
0.379058 0.028703 0.117417
0.374578 0.028121 0.123121
0.383059 0.029679 0.116980
0.380709 0.024950 0.133594
0.392999 0.024823 0.123143
0.363959 0.034303 0.107420
0.368198 0.032170 0.116231
0.401381 0.026544 0.115369
0.387421 0.028789 0.119902
0.366758 0.033613 0.116685
0.370633 0.032845 0.110787
0.378436 0.030985 0.123192
0.389843 0.026526 0.126822
0.377362 0.032575 0.117305
0.390654 0.025408 0.130190
0.384353 0.031127 0.105418
0.376068 0.033454 0.116118
0.376272 0.032185 0.109520
0.389517 0.028134 0.108462
0.373622 0.029386 0.125718
0.164057 0.100999 -0.040556
0.155915 0.109608 -0.021712
0.147586 0.113284 0.004027
0.151171 0.112754 -0.008174
0.158613 0.100805 -0.077634
0.147333 0.117015 -0.019295
0.168141 0.098085 -0.024918
0.155452 0.106301 -0.049067
0.171623 0.091583 -0.046818
0.161841 0.104523 -0.012225
0.158894 0.106611 -0.005947
0.168008 0.098134 0.005007
0.143234 0.116600 -0.011327
0.172990 0.091626 -0.029726
0.151338 0.110030 -0.025703
0.157299 0.107584 0.011159
0.154594 0.106440 -0.007282
0.143969 0.114498 -0.065730
0.138834 0.120673 -0.025931
0.164775 0.098205 -0.027913
0.159181 0.103205 -0.018768
0.151270 0.110825 -0.035911
0.143296 0.116887 -0.042387
0.166410 0.100506 -0.005199
0.172755 0.091685 -0.012760
0.159983 0.104301 -0.033358
0.161931 0.102489 0.004654
0.153621 0.105981 -0.064354
0.164140 0.098739 -0.052981
0.153897 0.107361 -0.053744
0.145584 0.112031 -0.050674
0.153866 0.108928 -0.000366
0.335621 -0.078007 0.004561
0.295373 -0.078386 -0.019496
0.331255 -0.076378 0.037509
0.280125 -0.077594 0.062871
0.304691 -0.077844 -0.067037
0.259896 -0.077494 -0.002526
0.313359 -0.078067 0.042343
0.265565 -0.078008 -0.038429
0.348490 -0.076673 -0.037668
0.305490 -0.080450 -0.001706
0.270623 -0.077329 0.027350
0.301089 -0.077046 0.062394
0.311251 -0.072731 -0.049299
0.281392 -0.077034 -0.008416
0.309600 -0.075025 0.009790
0.312755 -0.077612 0.087963
0.356154 -0.077557 -0.004100
0.283027 -0.077186 -0.028203
0.287397 -0.080537 0.040082
0.323456 -0.078531 -0.037100
0.323371 -0.079871 0.019069
0.282102 -0.078862 -0.061469
0.287773 -0.077801 0.011042
0.329767 -0.078359 0.065030
0.297565 -0.077760 0.024878
0.323268 -0.077291 -0.007591
0.349528 -0.078867 0.034618
0.321526 -0.080783 -0.080047
0.298482 -0.079191 -0.041387
0.336813 -0.078377 -0.059129
0.335313 -0.076949 -0.018626
0.311814 -0.080479 -0.023587
0.259113 -0.003332 0.013890
0.219192 0.056862 -0.016161
0.208376 0.064510 0.041531
0.209020 0.067434 0.062946
0.234222 0.030016 -0.063148
0.199397 0.067700 0.005229
0.232446 0.046918 0.050575
0.215309 0.050613 -0.042978
0.258191 0.015554 -0.039844
0.235561 0.041551 0.023277
0.225307 0.038818 0.030618
0.245925 0.029017 0.074082
0.193875 0.075109 -0.030191
0.240637 0.019216 -0.014624
0.207232 0.069309 0.008212
0.224479 0.053287 0.082339
0.253630 0.042629 0.007860
0.201862 0.066148 -0.019136
0.210606 0.056156 0.037983
0.235634 0.040533 -0.026595
0.230465 0.054820 0.027846
0.210975 0.064307 -0.051207
0.205594 0.061989 0.017528
0.252384 0.025432 0.055300
0.254646 -0.000917 0.043873
0.227176 0.050395 -0.000106
0.242476 0.048402 0.052827
0.225600 0.043351 -0.076381
0.254433 -0.008924 -0.044380
0.233321 0.047166 -0.046544
0.215607 0.060298 -0.013453
0.242862 0.028139 0.004805
0.356259 -0.080334 0.025547
0.337540 -0.079268 0.036155
0.345139 -0.066410 0.073229
0.333371 -0.073943 0.054461
0.336128 -0.081205 -0.002570
0.320559 -0.074844 0.038209
0.337089 -0.080102 0.027315
0.318662 -0.079815 0.022109
0.344769 -0.081736 0.017441
0.328313 -0.079580 0.045078
0.325426 -0.077923 0.062349
0.332442 -0.077898 0.085919
0.338746 -0.066246 0.043825
0.333461 -0.082882 0.031170
0.346064 -0.076789 0.033769
0.340140 -0.075828 0.104025
0.369185 -0.075851 0.055980
0.326919 -0.074216 0.007532
0.332664 -0.060787 0.038433
0.383427 -0.079780 0.031018
0.354424 -0.079251 0.042418
0.326930 -0.079240 0.026754
0.333588 -0.071108 0.017639
0.339264 -0.079692 0.056523
0.346506 -0.080678 0.049226
0.341405 -0.081108 0.027806
0.360441 -0.078241 0.080899
0.350682 -0.079488 0.003191
0.335415 -0.079962 0.022745
0.340894 -0.080329 0.015069
0.363319 -0.072831 0.013799
0.336108 -0.078763 0.068327
0.408068 -0.048727 0.099700
0.409493 -0.032329 0.103307
0.403017 -0.011093 0.113916
0.404390 -0.022373 0.111745
0.410982 -0.043595 0.086032
0.386840 -0.023843 0.108188
0.405431 -0.042548 0.103641
0.379670 -0.039807 0.107118
0.407152 -0.059960 0.097617
0.402101 -0.037350 0.107465
0.386402 -0.041263 0.116734
0.398760 -0.047739 0.115337
0.408323 -0.014701 0.104857
0.401402 -0.064413 0.104959
0.410466 -0.024961 0.099435
0.399595 -0.028974 0.118073
0.408964 -0.023251 0.099022
0.409286 -0.020479 0.094429
0.408452 0.002601 0.104752
0.412933 -0.043023 0.095745
0.406862 -0.031304 0.103062
0.404092 -0.032111 0.103634
0.409498 -0.019539 0.104146
0.404857 -0.044607 0.106707
0.400214 -0.052335 0.107788
0.408466 -0.037860 0.100107
0.403522 -0.036190 0.113133
0.415053 -0.029813 0.083689
0.407087 -0.047487 0.097693
0.411084 -0.037645 0.094517
0.412456 -0.011756 0.093620
0.404990 -0.032301 0.108266
0.422866 -0.087904 0.104256
0.414939 -0.065774 0.087479
0.424762 -0.034234 0.121130
0.404439 -0.054178 0.136872
0.414775 -0.089743 0.049727
0.373238 -0.076411 0.104578
0.419069 -0.081437 0.132976
0.383917 -0.087545 0.075400
0.424574 -0.083268 0.071363
0.409511 -0.089123 0.109616
0.381622 -0.087235 0.122675
0.405329 -0.083697 0.142123
0.421205 -0.027033 0.066092
0.395449 -0.083466 0.096428
0.419378 -0.039633 0.103006
0.418075 -0.068969 0.147637
0.429801 -0.073262 0.094395
0.400368 -0.045813 0.090784
0.402965 -0.086209 0.128134
0.417464 -0.078796 0.072618
0.419770 -0.082193 0.116745
0.402703 -0.073067 0.055715
0.419946 -0.060671 0.117839
0.425011 -0.084272 0.135932
0.410745 -0.086737 0.121533
0.414649 -0.080793 0.101156
0.425954 -0.069002 0.121842
0.424469 -0.084999 0.028685
0.408894 -0.087460 0.080224
0.429125 -0.068387 0.057839
0.426410 -0.050398 0.083579
0.420598 -0.090382 0.087765
0.350375 0.039618 0.070460
0.331780 0.043831 0.083744
0.339231 0.041428 0.092688
0.323268 0.041936 0.090329
0.326624 0.039962 0.032770
0.303807 0.040034 0.085698
0.335426 0.044178 0.075604
0.296099 0.038564 0.066636
0.338286 0.024101 0.064584
0.314668 0.042324 0.086009
0.310279 0.038229 0.095407
0.324150 0.039820 0.097110
0.336648 0.040345 0.086977
0.318446 0.018406 0.079237
0.343753 0.041241 0.081868
0.336092 0.040558 0.101064
0.359756 0.041363 0.089836
0.316231 0.039937 0.053932
0.325197 0.042517 0.084687
0.370640 0.040424 0.073817
0.349603 0.044192 0.085088
0.313791 0.043213 0.077562
0.322949 0.042917 0.069118
0.335248 0.043529 0.087315
0.342142 0.033320 0.088606
0.335145 0.045048 0.075956
0.349998 0.040580 0.095427
0.346873 0.039825 0.040585
0.325754 0.040976 0.065645
0.334827 0.041849 0.058291
0.354829 0.040111 0.062838
0.328687 0.042944 0.092275
0.361548 -0.077605 0.012366
0.319728 -0.078209 -0.011929
0.358565 -0.077336 0.044797
0.304701 -0.078287 0.069022
0.328351 -0.077753 -0.060155
0.285354 -0.077442 0.004596
0.338498 -0.077694 0.049202
0.289844 -0.077794 -0.031983
0.373952 -0.075357 -0.029752
0.329370 -0.079834 0.005977
0.295371 -0.076945 0.033830
0.325489 -0.076494 0.067797
0.336179 -0.075095 -0.041329
0.305101 -0.076087 -0.000702
0.335624 -0.076676 0.017826
0.338517 -0.077886 0.092820
0.382487 -0.076731 0.004966
0.306811 -0.078401 -0.021182
0.312157 -0.080020 0.046903
0.348986 -0.077772 -0.028943
0.349585 -0.078927 0.026611
0.305762 -0.078912 -0.053836
0.311561 -0.078005 0.017699
0.354806 -0.077169 0.071974
0.322537 -0.077461 0.031837
0.348758 -0.076820 -0.000462
0.376883 -0.078208 0.043122
0.345773 -0.080640 -0.072512
0.321823 -0.079507 -0.033548
0.362206 -0.078452 -0.051643
0.361289 -0.077096 -0.010172
0.335853 -0.079477 -0.014979
0.249892 -0.088917 -0.136114
0.168134 -0.020622 -0.155115
0.236961 -0.000856 -0.116100
0.143704 -0.013804 -0.112583
0.164864 -0.077815 -0.186735
0.105411 -0.034645 -0.132852
0.204150 -0.057029 -0.110917
0.113111 -0.070153 -0.161093
0.234387 -0.083836 -0.174222
0.187205 -0.081244 -0.128033
0.122625 -0.083998 -0.117852
0.169665 -0.077276 -0.102154
0.189759 0.001656 -0.178135
0.151024 -0.084885 -0.144739
0.198557 0.001749 -0.133404
0.179113 -0.028936 -0.100597
0.267053 -0.060168 -0.154392
0.132346 0.004788 -0.149477
0.151274 -0.056816 -0.117881
0.207409 -0.047535 -0.169048
0.223888 -0.049830 -0.131143
0.145166 -0.039632 -0.183575
0.188063 -0.023103 -0.130698
0.242395 -0.075369 -0.107516
0.204713 -0.088225 -0.121895
0.185617 -0.058636 -0.148152
0.256654 -0.038155 -0.124031
0.207356 -0.070585 -0.210079
0.188470 -0.094299 -0.163049
0.252226 -0.040250 -0.185890
0.231521 -0.009459 -0.151894
0.218595 -0.080451 -0.143776
0.409323 0.004857 0.116107
0.403371 0.016767 0.116835
0.402710 0.017705 0.124734
0.401160 0.016657 0.120719
0.402610 0.012444 0.103442
0.392438 0.018195 0.117708
0.403121 0.015363 0.116509
0.389173 0.014647 0.115280
0.407199 -0.007629 0.112741
0.400721 0.015550 0.118985
0.395445 0.011122 0.126474
0.401581 0.006953 0.131716
0.401216 0.016945 0.114308
0.403023 -0.015272 0.119800
0.404021 0.016405 0.113595
0.403329 0.013926 0.137965
0.415271 0.015441 0.118161
0.397379 0.018089 0.107659
0.397812 0.023181 0.112491
0.425526 0.008091 0.112002
0.406850 0.016305 0.116649
0.399857 0.016536 0.116572
0.401719 0.017296 0.111509
0.403791 0.009601 0.120017
0.408186 -0.001097 0.123055
0.402827 0.014060 0.115120
0.410851 0.012049 0.128535
0.407603 0.015739 0.105102
0.403204 0.008826 0.113855
0.405541 0.015005 0.111047
0.409613 0.018046 0.108247
0.401770 0.015922 0.122789
0.178217 -0.035783 -0.138640
0.113491 0.076115 -0.146141
0.168864 0.093738 -0.121256
0.091955 0.069478 -0.120248
0.102780 -0.001765 -0.147731
0.057913 0.055530 -0.136832
0.135800 0.026971 -0.120929
0.064798 0.014142 -0.144029
0.151828 -0.018877 -0.149895
0.132504 -0.014445 -0.131355
0.070918 -0.020533 -0.127935
0.114239 -0.009372 -0.113393
0.124982 0.100988 -0.152249
0.100477 -0.032007 -0.144051
0.141265 0.087728 -0.134164
0.118183 0.055473 -0.105067
0.193395 0.014180 -0.140456
0.080838 0.090973 -0.142388
0.090076 0.022241 -0.124810
0.134628 0.042462 -0.147180
0.160256 0.041571 -0.131053
0.100241 0.044696 -0.154950
0.133934 0.063417 -0.132404
0.171155 0.001260 -0.121585
0.144614 -0.047730 -0.129115
0.111996 0.020214 -0.142204
0.189664 0.056677 -0.124951
0.132752 0.005894 -0.160763
0.125997 -0.059861 -0.142647
0.179560 0.038999 -0.150888
0.163778 0.073408 -0.145747
0.156170 0.007884 -0.138195
0.261927 -0.003902 -0.072663
0.190078 0.067755 -0.093783
0.225131 0.072555 -0.039666
0.179045 0.078720 -0.031930
0.191709 0.028882 -0.115082
0.137242 0.071614 -0.076572
0.225329 0.050007 -0.039698
0.144914 0.041442 -0.108919
0.244007 0.007088 -0.107515
0.215320 0.029905 -0.064519
0.160685 0.031362 -0.059403
0.216508 0.030856 -0.025603
0.191821 0.076825 -0.102473
0.188303 0.010168 -0.097980
0.203422 0.077915 -0.064226
0.217698 0.067200 -0.012759
0.252874 0.036640 -0.071896
0.155795 0.081107 -0.087773
0.182983 0.053528 -0.054087
0.220040 0.046480 -0.091594
0.230878 0.053374 -0.059212
0.169220 0.059571 -0.111329
0.196946 0.068898 -0.066334
0.252375 0.028455 -0.032951
0.242905 -0.007812 -0.054106
0.202980 0.050947 -0.087363
0.252473 0.055155 -0.032821
0.212359 0.035754 -0.118024
0.226149 -0.020361 -0.105776
0.238338 0.053473 -0.098456
0.226905 0.067378 -0.075749
0.238608 0.023115 -0.075148
0.119923 0.077249 -0.068174
0.096731 0.129163 -0.046500
0.101185 0.131617 0.000910
0.073952 0.132186 -0.005700
0.081425 0.097798 -0.118099
0.020041 0.133121 -0.032802
0.098838 0.113970 -0.042017
0.004680 0.108013 -0.075323
0.107532 0.043920 -0.083283
0.067491 0.120412 -0.027608
0.036169 0.097395 -0.010893
0.089786 0.095536 0.003966
0.103578 0.128331 -0.029191
0.068875 0.033131 -0.061875
0.111571 0.129359 -0.048390
0.101182 0.130091 0.019474
0.122794 0.130172 -0.029809
0.057703 0.128184 -0.090946
0.072776 0.137241 -0.034892
0.133989 0.094702 -0.060616
0.114886 0.130984 -0.036934
0.050681 0.126847 -0.058415
0.082877 0.129086 -0.069901
0.109108 0.096281 -0.030409
0.109567 0.061582 -0.033316
0.101838 0.110278 -0.067434
0.116810 0.117116 -0.001439
0.111855 0.121024 -0.108815
0.090910 0.074430 -0.086530
0.112442 0.115801 -0.087407
0.117802 0.122409 -0.071809
0.099535 0.128705 -0.014658
0.186402 0.085073 -0.041321
0.175060 0.096547 -0.027045
0.165787 0.101193 -0.008117
0.168807 0.099724 -0.016976
0.179878 0.086901 -0.070536
0.164110 0.105738 -0.025554
0.188765 0.084393 -0.030539
0.174495 0.093664 -0.047339
0.195385 0.074143 -0.046704
0.181225 0.091353 -0.020231
0.177281 0.092557 -0.015180
0.188929 0.082867 -0.008096
0.160056 0.104110 -0.019447
0.195753 0.073869 -0.032156
0.170297 0.096937 -0.029474
0.176594 0.093455 -0.002479
0.175223 0.092537 -0.016314
0.162645 0.102745 -0.061386
0.154900 0.109247 -0.031168
0.188209 0.082188 -0.032751
0.179295 0.090145 -0.025483
0.170467 0.097930 -0.037784
0.161286 0.103645 -0.041805
0.187322 0.085651 -0.016015
0.195914 0.074865 -0.021162
0.180525 0.089424 -0.035285
0.183432 0.087450 -0.007699
0.174624 0.092352 -0.060007
0.185807 0.083519 -0.052463
0.174933 0.093380 -0.050829
0.165744 0.098882 -0.048243
0.173032 0.095081 -0.012015
0.253666 0.020452 -0.023005
0.233340 0.054322 -0.014223
0.220028 0.060832 0.017931
0.224838 0.058768 0.003877
0.243741 0.036655 -0.069064
0.224623 0.061998 -0.007270
0.250183 0.032633 -0.009253
0.234262 0.044667 -0.036118
0.263223 -0.002743 -0.039773
0.243046 0.043902 -0.000643
0.239351 0.037895 0.009378
0.252341 0.020719 0.023743
0.214705 0.064675 -0.000022
0.259485 -0.014436 -0.011096
0.225797 0.057221 -0.017263
0.232361 0.050038 0.028946
0.235825 0.050777 0.001944
0.222368 0.061539 -0.054130
0.210881 0.068315 -0.015738
0.256605 0.026256 -0.023627
0.239855 0.047753 -0.008514
0.229782 0.055076 -0.027624
0.217992 0.064138 -0.028796
0.252480 0.027506 0.005275
0.260404 0.002568 0.003072
0.242465 0.041966 -0.022561
0.245041 0.040189 0.019271
0.234233 0.051436 -0.057863
0.249827 0.024810 -0.046097
0.238987 0.046237 -0.043838
0.221605 0.060361 -0.039319
0.232477 0.053034 0.010768
0.415062 -0.092177 0.039729
0.413406 -0.092071 0.054499
0.414542 -0.078250 0.075492
0.410780 -0.087155 0.069998
0.411933 -0.093619 0.004505
0.397278 -0.090144 0.058525
0.410992 -0.093352 0.051931
0.395333 -0.094482 0.035864
0.413515 -0.092040 0.033758
0.405937 -0.094188 0.062152
0.400145 -0.092637 0.073313
0.407576 -0.093732 0.083830
0.415061 -0.077399 0.060977
0.406304 -0.092728 0.048761
0.415176 -0.086809 0.047676
0.412534 -0.090942 0.090000
0.416915 -0.086204 0.064294
0.408518 -0.087222 0.019992
0.413397 -0.074716 0.054458
0.418048 -0.090858 0.048289
0.414907 -0.091202 0.058016
0.407123 -0.092319 0.040940
0.414403 -0.081154 0.038535
0.413415 -0.092189 0.070931
0.411353 -0.092634 0.065068
0.413050 -0.091320 0.043124
0.414386 -0.091079 0.079712
0.416427 -0.089883 0.011337
0.409071 -0.092645 0.030218
0.415326 -0.091282 0.025268
0.417159 -0.080841 0.027278
0.411973 -0.092135 0.075318
0.371714 0.039450 0.068923
0.355683 0.040618 0.079696
0.361029 0.036678 0.089195
0.347418 0.039288 0.087170
0.352681 0.039511 0.048028
0.332572 0.040229 0.081602
0.360897 0.040165 0.069970
0.330142 0.041096 0.068664
0.364957 0.039013 0.066981
0.340543 0.040721 0.082650
0.338722 0.039508 0.090981
0.347807 0.038329 0.094402
0.362077 0.036763 0.081891
0.349139 0.039569 0.078149
0.367803 0.037971 0.077931
0.359860 0.036344 0.096367
0.377649 0.035610 0.088189
0.341802 0.039966 0.058034
0.349995 0.039166 0.081746
0.385746 0.036652 0.073568
0.373555 0.037970 0.081394
0.341001 0.041955 0.074781
0.348102 0.039959 0.066560
0.357861 0.040336 0.085662
0.370756 0.039003 0.086294
0.360509 0.041295 0.075172
0.370916 0.036612 0.093919
0.368017 0.038225 0.052414
0.354278 0.041605 0.071743
0.355444 0.039369 0.060575
0.376431 0.035700 0.062014
0.352532 0.038987 0.089929
0.424758 -0.085841 0.064333
0.424347 -0.067727 0.069288
0.421939 -0.042269 0.090845
0.422241 -0.055679 0.084146
0.423761 -0.080811 0.039367
0.416464 -0.058575 0.073763
0.422628 -0.081513 0.072007
0.415407 -0.079150 0.061398
0.423482 -0.092535 0.057790
0.422034 -0.075040 0.077036
0.416754 -0.076799 0.085838
0.420880 -0.084829 0.097266
0.424179 -0.045301 0.076107
0.421047 -0.096114 0.069545
0.424980 -0.059790 0.064904
0.420912 -0.063606 0.101305
0.428413 -0.060349 0.075056
0.423291 -0.054812 0.047196
0.423033 -0.030082 0.069975
0.430735 -0.079151 0.065971
0.424517 -0.068100 0.073109
0.422836 -0.065654 0.060056
0.424105 -0.051186 0.064547
0.423395 -0.082069 0.083547
0.420944 -0.090829 0.079275
0.424036 -0.074011 0.064620
0.423984 -0.072428 0.092773
0.425609 -0.066795 0.041250
0.423025 -0.083653 0.054909
0.425997 -0.072762 0.052761
0.427232 -0.047010 0.054423
0.422803 -0.068017 0.085804
0.413501 -0.010360 0.094807
0.413909 0.005023 0.096795
0.410598 0.018598 0.105677
0.411773 0.010991 0.102869
0.413133 -0.005253 0.082864
0.400408 0.010703 0.097930
0.412063 -0.003421 0.097424
0.395481 -0.002284 0.095525
0.412303 -0.018371 0.091713
0.410730 0.000015 0.099526
0.401800 -0.003728 0.105866
0.410661 -0.009421 0.108845
0.412005 0.016605 0.098053
0.409755 -0.024437 0.097120
0.413623 0.008784 0.093554
0.410906 0.006559 0.111789
0.413886 0.010276 0.095437
0.410732 0.013107 0.086568
0.411257 0.027161 0.095027
0.417281 -0.004990 0.092811
0.412798 0.005227 0.097003
0.410384 0.005122 0.094794
0.412424 0.013613 0.094359
0.412343 -0.006476 0.101077
0.410958 -0.014152 0.100503
0.413085 -0.000618 0.094890
0.412416 0.000333 0.107273
0.415085 0.005767 0.082769
0.412244 -0.008049 0.091513
0.414102 0.000480 0.089512
0.414482 0.017553 0.089178
0.411806 0.003846 0.102630
0.354747 -0.089286 -0.021735
0.336573 -0.089166 -0.009137
0.342211 -0.088850 0.017492
0.332121 -0.088742 0.003240
0.335854 -0.090192 -0.058388
0.323168 -0.088133 -0.008506
0.336583 -0.089525 -0.022320
0.321410 -0.089181 -0.026400
0.343645 -0.089619 -0.031361
0.328019 -0.089115 -0.002322
0.326960 -0.088729 0.011784
0.330357 -0.088937 0.026117
0.337600 -0.089356 -0.003757
0.333714 -0.091666 -0.013589
0.346031 -0.090135 -0.011055
0.338667 -0.088777 0.039395
0.367072 -0.089593 0.008626
0.327287 -0.089800 -0.044728
0.331766 -0.086879 -0.007965
0.382025 -0.089364 -0.015681
0.355299 -0.090166 -0.004802
0.327691 -0.089685 -0.017940
0.330903 -0.089434 -0.031684
0.336735 -0.089689 0.004810
0.347138 -0.089577 0.000283
0.340899 -0.090216 -0.016902
0.357877 -0.089083 0.024781
0.351146 -0.090548 -0.049887
0.334350 -0.088566 -0.022665
0.336299 -0.090482 -0.037600
0.363609 -0.090227 -0.037617
0.333924 -0.090092 0.015893
0.419273 -0.032319 0.084243
0.420273 -0.016827 0.087287
0.415825 0.003670 0.097031
0.417300 -0.007831 0.094823
0.420444 -0.027868 0.071596
0.405619 -0.009304 0.089812
0.417703 -0.026732 0.087679
0.401282 -0.025156 0.086828
0.418340 -0.041141 0.080898
0.416108 -0.022334 0.090598
0.405844 -0.025174 0.097399
0.414344 -0.031030 0.099329
0.418779 0.000196 0.089531
0.414801 -0.045739 0.086979
0.420560 -0.010550 0.083892
0.414557 -0.013451 0.102061
0.419403 -0.009555 0.085219
0.418820 -0.005821 0.076971
0.418662 0.015133 0.087514
0.421867 -0.026552 0.082105
0.418628 -0.016337 0.087557
0.416969 -0.016286 0.085132
0.419632 -0.004296 0.086680
0.417612 -0.028417 0.091635
0.414734 -0.035913 0.090496
0.419527 -0.022398 0.084610
0.416555 -0.020539 0.097807
0.422733 -0.015195 0.071234
0.418352 -0.030167 0.080898
0.421212 -0.021958 0.079115
0.421390 0.001295 0.078746
0.417500 -0.017530 0.093384
0.412853 -0.047280 0.065358
0.415814 -0.031903 0.071087
0.413626 -0.011175 0.080906
0.413936 -0.022614 0.078871
0.413289 -0.042275 0.036020
0.390512 -0.024018 0.072736
0.412360 -0.042759 0.072196
0.380299 -0.041288 0.063846
0.412211 -0.056914 0.059848
0.409239 -0.036965 0.073572
0.394441 -0.040024 0.080594
0.410668 -0.046452 0.082287
0.415049 -0.013783 0.073813
0.408558 -0.062900 0.069572
0.414835 -0.026253 0.066451
0.412085 -0.029375 0.084888
0.415799 -0.024727 0.069576
0.411404 -0.020242 0.048455
0.414857 0.002156 0.069801
0.417969 -0.041882 0.066921
0.413333 -0.031876 0.070840
0.409285 -0.031813 0.064374
0.415258 -0.018003 0.065522
0.413828 -0.042258 0.076259
0.409874 -0.052157 0.074548
0.413714 -0.036992 0.065128
0.413573 -0.037191 0.081625
0.414944 -0.030023 0.039051
0.411875 -0.046088 0.055616
0.414807 -0.036931 0.054520
0.415744 -0.012962 0.056622
0.414160 -0.032341 0.077047
0.371270 -0.003490 -0.047903
0.338724 0.036756 -0.003219
0.351727 0.036461 0.047195
0.323174 0.037857 0.037744
0.325052 0.011212 -0.165950
0.280370 0.035308 0.009804
0.342139 0.022581 -0.015717
0.262560 0.020616 -0.072127
0.354271 -0.044960 -0.079039
0.303703 0.030248 0.020687
0.293396 0.015553 0.043973
0.332396 0.008658 0.048107
0.347471 0.033972 0.026142
0.317149 -0.048565 -0.027350
0.359432 0.036642 -0.006526
0.344604 0.035506 0.058859
0.379857 0.034983 0.031859
0.304320 0.028575 -0.108705
0.323719 0.034790 0.008855
0.396037 0.012381 -0.029612
0.370447 0.035575 0.012717
0.299437 0.034024 -0.030106
0.318474 0.033784 -0.057667
0.353336 0.016744 0.025060
0.361259 -0.017791 0.014334
0.348047 0.029056 -0.038400
0.369054 0.029328 0.049445
0.365370 0.024718 -0.141679
0.332730 -0.006669 -0.086615
0.350705 0.024219 -0.096675
0.374332 0.028158 -0.072446
0.334247 0.037293 0.044794
0.204576 0.065961 -0.060029
0.190291 0.087651 -0.045269
0.178742 0.095979 -0.021923
0.181804 0.093677 -0.031826
0.186890 0.069476 -0.097012
0.161878 0.101474 -0.047795
0.208314 0.068498 -0.045969
0.165822 0.078781 -0.073114
0.214690 0.050141 -0.064779
0.194758 0.078541 -0.039381
0.183011 0.075201 -0.035346
0.212728 0.063646 -0.024283
0.170534 0.101998 -0.035818
0.210033 0.047661 -0.055745
0.182331 0.087013 -0.045191
0.195099 0.081952 -0.013761
0.189707 0.081341 -0.032038
0.161239 0.099507 -0.085576
0.159443 0.109888 -0.049361
0.208040 0.063099 -0.046885
0.196018 0.079677 -0.042065
0.175835 0.087733 -0.058688
0.168432 0.097604 -0.062538
0.209829 0.069030 -0.032288
0.220115 0.051371 -0.037915
0.196927 0.073078 -0.056440
0.205446 0.071371 -0.020580
0.180619 0.081618 -0.081675
0.200413 0.059299 -0.075842
0.188198 0.080528 -0.068199
0.175269 0.090554 -0.060826
0.191873 0.083237 -0.027883
0.298824 -0.074878 -0.084349
0.247562 -0.009934 -0.109142
0.285892 0.015185 -0.060942
0.236472 0.001789 -0.060826
0.243042 -0.062031 -0.129466
0.210639 -0.014946 -0.091722
0.266776 -0.038728 -0.060347
0.213270 -0.047704 -0.116578
0.285574 -0.067216 -0.119089
0.255544 -0.061324 -0.079611
0.220384 -0.069590 -0.075664
0.249454 -0.062398 -0.049530
0.259552 0.021115 -0.124193
0.237757 -0.070532 -0.102217
0.263214 0.012702 -0.085422
0.257194 -0.014383 -0.042882
0.312080 -0.036830 -0.095628
0.226398 0.011851 -0.108757
0.236398 -0.034337 -0.069889
0.270809 -0.031398 -0.111933
0.281720 -0.030689 -0.079253
0.231286 -0.019771 -0.134922
0.259755 -0.006621 -0.083010
0.292194 -0.057889 -0.055308
0.267651 -0.080300 -0.071283
0.250305 -0.040786 -0.098961
0.304825 -0.018296 -0.065259
0.263068 -0.046614 -0.144215
0.258694 -0.084615 -0.107235
0.294282 -0.021705 -0.125257
0.291143 0.003870 -0.099254
0.276253 -0.063062 -0.092963
0.164113 0.057105 -0.073960
0.134011 0.110968 -0.065101
0.136606 0.123778 -0.046461
0.118976 0.116083 -0.051747
0.114790 0.080842 -0.122643
0.075321 0.124218 -0.066483
0.149334 0.088475 -0.061379
0.062281 0.093314 -0.093199
0.162258 0.020407 -0.084544
0.122220 0.095351 -0.061386
0.095125 0.069201 -0.063613
0.150016 0.064055 -0.054989
0.125511 0.126917 -0.055079
0.128646 0.013754 -0.078900
0.139470 0.110131 -0.059263
0.144857 0.106293 -0.042289
0.152243 0.101483 -0.052688
0.087130 0.128935 -0.100417
0.099344 0.139238 -0.059740
0.171005 0.067944 -0.064724
0.151829 0.102531 -0.057310
0.097253 0.108166 -0.077317
0.117908 0.120465 -0.076314
0.163095 0.071336 -0.057951
0.173747 0.036651 -0.060529
0.145275 0.079475 -0.077428
0.162698 0.083880 -0.047863
0.135429 0.102981 -0.106953
0.139398 0.048202 -0.098446
0.149872 0.090791 -0.085498
0.139654 0.111920 -0.069357
0.147150 0.099278 -0.055247
0.401715 0.027773 0.076393
0.386654 0.032488 0.085070
0.392637 0.027953 0.095488
0.380099 0.031772 0.093035
0.383206 0.031231 0.054885
0.365695 0.034133 0.086065
0.393329 0.031554 0.078553
0.362076 0.033864 0.074775
0.399854 0.024268 0.074175
0.375736 0.033542 0.088237
0.371770 0.032323 0.095765
0.383654 0.031138 0.100414
0.390038 0.028040 0.086925
0.384704 0.025901 0.082887
0.396125 0.028231 0.083968
0.391894 0.028301 0.104742
0.405722 0.025096 0.093137
0.372951 0.033238 0.065690
0.379238 0.032004 0.085546
0.413984 0.023658 0.079636
0.401429 0.028884 0.086214
0.375670 0.034351 0.081486
0.380059 0.032379 0.073887
0.391793 0.031543 0.091346
0.403314 0.026301 0.091584
0.391134 0.032275 0.080316
0.401685 0.026546 0.099963
0.396751 0.028402 0.060349
0.389103 0.032001 0.075005
0.389052 0.030831 0.069613
0.402412 0.025530 0.071011
0.385758 0.031097 0.094217
0.358386 -0.056333 -0.040529
0.299937 -0.003165 -0.083296
0.351210 0.021391 -0.001910
0.278598 0.014717 0.011654
0.299994 -0.043119 -0.117599
0.232958 -0.007939 -0.040878
0.326445 -0.022077 0.004129
0.244497 -0.036060 -0.092708
0.348172 -0.051023 -0.099313
0.305113 -0.049383 -0.032535
0.246892 -0.052277 -0.012172
0.298825 -0.042227 0.026818
0.323719 0.022061 -0.114689
0.279795 -0.052806 -0.062666
0.324312 0.019239 -0.043762
0.316899 0.003355 0.038253
0.381464 -0.016955 -0.062642
0.266749 0.016648 -0.069666
0.284939 -0.029632 -0.005970
0.333411 -0.017221 -0.096920
0.340834 -0.024937 -0.030793
0.275699 -0.010496 -0.125834
0.305315 0.003313 -0.027164
0.353123 -0.042433 0.015097
0.320944 -0.062936 -0.013355
0.311904 -0.021778 -0.064674
0.373100 -0.007406 -0.005324
0.329337 -0.034697 -0.143716
0.307648 -0.065304 -0.080855
0.364770 -0.001416 -0.120023
0.355661 0.014873 -0.069615
0.336258 -0.056180 -0.063189
0.417726 -0.088223 0.028561
0.418799 -0.074866 0.037604
0.418095 -0.056700 0.057132
0.417893 -0.065829 0.052058
0.416762 -0.086518 -0.001191
0.407903 -0.067029 0.040466
0.417699 -0.087328 0.040638
0.405334 -0.085784 0.022792
0.416313 -0.093445 0.023364
0.416751 -0.082207 0.044636
0.410654 -0.083318 0.052416
0.418269 -0.089958 0.062072
0.417928 -0.056691 0.045172
0.413801 -0.096751 0.035744
0.418594 -0.068822 0.032479
0.419224 -0.072585 0.064917
0.419933 -0.069513 0.044488
0.414771 -0.063804 0.007773
0.416338 -0.047372 0.036877
0.419454 -0.083858 0.035387
0.418877 -0.076726 0.041126
0.415398 -0.073083 0.024069
0.416762 -0.060593 0.027904
0.419500 -0.087274 0.052794
0.416616 -0.094219 0.047197
0.418439 -0.080037 0.030211
0.419699 -0.080324 0.059924
0.417664 -0.074366 0.002763
0.415547 -0.088996 0.017114
0.418802 -0.078899 0.015763
0.418201 -0.059391 0.019323
0.419360 -0.076280 0.053921
0.430345 -0.066335 0.060580
0.431000 -0.042257 0.065852
0.429653 -0.013713 0.082096
0.428137 -0.029561 0.078385
0.427403 -0.058848 0.029147
0.414355 -0.032393 0.069776
0.428329 -0.058754 0.069488
0.408680 -0.056162 0.057260
0.428900 -0.078240 0.052653
0.425680 -0.051449 0.072009
0.415181 -0.056132 0.080604
0.425830 -0.064349 0.088498
0.431561 -0.018024 0.070896
0.422935 -0.084217 0.066217
0.431637 -0.033616 0.061528
0.427502 -0.037738 0.090671
0.432469 -0.033671 0.069265
0.426446 -0.026593 0.040703
0.429447 -0.000246 0.066335
0.434277 -0.056503 0.061935
0.430561 -0.043221 0.068783
0.424939 -0.041463 0.056240
0.430520 -0.024553 0.060048
0.430225 -0.060357 0.076995
0.426683 -0.073425 0.073980
0.430444 -0.051005 0.061052
0.430344 -0.049329 0.085240
0.431295 -0.041649 0.031126
0.426860 -0.064135 0.048869
0.432336 -0.049355 0.046215
0.432915 -0.019448 0.049435
0.429469 -0.043502 0.078728
0.289689 -0.077497 -0.070211
0.275005 -0.071326 -0.061223
0.283794 -0.008288 -0.047553
0.273669 -0.047963 -0.052761
0.271399 -0.080251 -0.119054
0.255596 -0.053886 -0.058473
0.274178 -0.078002 -0.061473
0.251230 -0.075783 -0.078150
0.285859 -0.080058 -0.081155
0.267776 -0.074791 -0.057232
0.261331 -0.077851 -0.052637
0.274756 -0.079021 -0.045103
0.273617 -0.022498 -0.057635
0.272145 -0.078036 -0.068015
0.280155 -0.059805 -0.063681
0.278430 -0.061394 -0.038532
0.306041 -0.060164 -0.054862
0.261718 -0.034791 -0.099320
0.266342 0.014037 -0.062399
0.320173 -0.080689 -0.067482
0.285954 -0.071610 -0.057600
0.264716 -0.066491 -0.075568
0.272808 -0.036030 -0.071863
0.281769 -0.076173 -0.052296
0.283861 -0.080580 -0.057211
0.278248 -0.079799 -0.070541
0.296121 -0.074948 -0.049623
0.281009 -0.070835 -0.113566
0.273484 -0.079981 -0.088019
0.282742 -0.076068 -0.086143
0.295594 -0.036552 -0.080334
0.276554 -0.073167 -0.052162
0.255400 0.008764 -0.052227
0.229843 0.054008 -0.046847
0.220515 0.063738 -0.019675
0.222704 0.060893 -0.029185
0.238678 0.030222 -0.095361
0.213432 0.065933 -0.042748
0.248930 0.031142 -0.040190
0.220555 0.043734 -0.067024
0.262742 -0.018096 -0.067585
0.239122 0.042555 -0.036713
0.233035 0.030743 -0.030436
0.255087 0.013530 -0.018265
0.211144 0.067439 -0.034657
0.255088 -0.029240 -0.048017
0.223299 0.056958 -0.045768
0.233658 0.051419 -0.010143
0.240855 0.051056 -0.031950
0.212645 0.064672 -0.079826
0.204501 0.072009 -0.045321
0.261687 0.018082 -0.052524
0.239436 0.048398 -0.039938
0.223373 0.055741 -0.056446
0.213540 0.064282 -0.056935
0.253883 0.021145 -0.031399
0.263106 -0.008090 -0.034995
0.240814 0.035205 -0.052973
0.250075 0.035512 -0.018725
0.230103 0.049765 -0.084042
0.247318 0.011516 -0.074918
0.238274 0.041415 -0.068594
0.223142 0.059969 -0.060679
0.233638 0.050076 -0.027366
0.336099 -0.078891 -0.045534
0.328401 -0.060053 -0.031970
0.337672 0.015586 0.001645
0.332610 -0.025997 -0.010367
0.328860 -0.078164 -0.115818
0.324785 -0.037799 -0.025334
0.325095 -0.078946 -0.028950
0.320728 -0.074549 -0.056916
0.328240 -0.086183 -0.058168
0.325051 -0.070043 -0.019273
0.325655 -0.074626 -0.009720
0.328155 -0.082547 0.010267
0.330649 0.002696 -0.022071
0.324771 -0.086981 -0.035102
0.332319 -0.040907 -0.040209
0.331841 -0.046442 0.017360
0.362401 -0.043716 -0.018918
0.328673 -0.017459 -0.093478
0.329396 0.042455 -0.037080
0.370060 -0.077082 -0.035234
0.333860 -0.060371 -0.022660
0.327335 -0.050393 -0.058040
0.331397 -0.012736 -0.049976
0.330597 -0.077450 -0.006643
0.326213 -0.083899 -0.016777
0.329338 -0.073289 -0.044659
0.344762 -0.068067 0.001081
0.333209 -0.056648 -0.108988
0.324840 -0.080925 -0.073651
0.334564 -0.066349 -0.074964
0.350344 -0.007727 -0.064971
0.328181 -0.061563 -0.005025
0.364622 -0.096040 -0.074234
0.329330 -0.097186 -0.052044
0.346334 -0.086498 -0.028446
0.324115 -0.090630 -0.037728
0.329281 -0.097614 -0.136829
0.311915 -0.093893 -0.049130
0.330971 -0.097576 -0.063791
0.310705 -0.097377 -0.082466
0.348843 -0.096674 -0.086047
0.319390 -0.096888 -0.042931
0.318037 -0.097252 -0.031269
0.323763 -0.098004 -0.022669
0.332960 -0.085008 -0.044763
0.323314 -0.097887 -0.060542
0.346437 -0.096570 -0.054996
0.333549 -0.095405 -0.016068
0.386649 -0.094518 -0.037299
0.318864 -0.092662 -0.110611
0.322574 -0.082300 -0.051688
0.409587 -0.097099 -0.065758
0.361740 -0.097367 -0.046467
0.318423 -0.096321 -0.068602
0.323065 -0.089660 -0.081062
0.333803 -0.096438 -0.035893
0.345683 -0.098128 -0.041213
0.339316 -0.097730 -0.068034
0.368831 -0.096455 -0.027556
0.357690 -0.096628 -0.124789
0.327700 -0.097680 -0.087431
0.338753 -0.097470 -0.101504
0.380845 -0.092714 -0.096486
0.327064 -0.097176 -0.029713
0.412297 -0.022660 0.063389
0.415384 -0.008968 0.069623
0.414794 0.011731 0.075243
0.411291 -0.000531 0.074268
0.408663 -0.018711 0.033136
0.379784 -0.001627 0.069093
0.411670 -0.017249 0.069655
0.364140 -0.017796 0.060896
0.411554 -0.032365 0.059859
0.404407 -0.013320 0.069331
0.385989 -0.018235 0.075914
0.409439 -0.021676 0.076268
0.415117 0.008611 0.070244
0.403521 -0.039417 0.066843
0.414801 -0.004127 0.065585
0.412294 -0.007238 0.080279
0.413134 -0.001649 0.065814
0.404676 0.003871 0.047820
0.412715 0.024230 0.067020
0.414405 -0.017910 0.065849
0.412564 -0.008408 0.067797
0.402135 -0.009910 0.063846
0.413499 0.004595 0.062874
0.414744 -0.016697 0.070299
0.409678 -0.026946 0.070952
0.413317 -0.014610 0.064187
0.414046 -0.014893 0.076345
0.413038 -0.007484 0.035933
0.408955 -0.022983 0.054570
0.414131 -0.013419 0.053910
0.413782 0.008675 0.056603
0.414398 -0.009587 0.071787
0.420156 0.007221 0.075210
0.416678 0.017259 0.077358
0.415007 0.019501 0.086711
0.413951 0.018113 0.083198
0.415661 0.012752 0.060898
0.403669 0.019704 0.078986
0.417552 0.014173 0.077202
0.400690 0.014370 0.074036
0.419675 -0.003217 0.072063
0.413667 0.015554 0.080472
0.407076 0.012687 0.087170
0.415429 0.008480 0.091529
0.414171 0.019267 0.077846
0.415959 -0.009384 0.078894
0.417134 0.017160 0.075278
0.415978 0.015336 0.096424
0.420544 0.016122 0.079690
0.410073 0.019405 0.066001
0.410839 0.024363 0.075069
0.425672 0.009058 0.073537
0.418692 0.016265 0.077680
0.412578 0.017399 0.075472
0.413773 0.019241 0.072027
0.418010 0.010252 0.081714
0.419856 0.001310 0.082625
0.416756 0.014914 0.075295
0.419736 0.012698 0.088927
0.418559 0.016123 0.063471
0.416826 0.010107 0.071639
0.418476 0.015342 0.069699
0.417753 0.019298 0.069135
0.415755 0.016392 0.083982
0.310646 -0.085291 -0.129733
0.257159 -0.024536 -0.151491
0.298796 -0.002362 -0.105217
0.245015 -0.013383 -0.104494
0.252994 -0.074919 -0.180471
0.220491 -0.031464 -0.131769
0.277995 -0.052762 -0.102768
0.223899 -0.061597 -0.161894
0.298878 -0.078924 -0.168700
0.266144 -0.074367 -0.121824
0.230132 -0.081685 -0.117878
0.258019 -0.073552 -0.094666
0.270797 0.001984 -0.170602
0.246617 -0.080854 -0.145194
0.273297 -0.002683 -0.127678
0.264552 -0.028299 -0.089614
0.322876 -0.051332 -0.140548
0.235854 -0.003100 -0.151693
0.245907 -0.049014 -0.110928
0.280768 -0.045255 -0.159362
0.292669 -0.045512 -0.121511
0.240491 -0.033146 -0.182480
0.270848 -0.022216 -0.125040
0.304022 -0.070079 -0.098364
0.278146 -0.088840 -0.113977
0.262065 -0.054391 -0.142700
0.315102 -0.032784 -0.109645
0.276623 -0.062541 -0.197451
0.269128 -0.094787 -0.157438
0.308354 -0.034838 -0.176072
0.302053 -0.010906 -0.145772
0.287190 -0.075619 -0.137095
0.419095 -0.068777 0.032215
0.421660 -0.048876 0.036602
0.422485 -0.023507 0.051592
0.420954 -0.037239 0.047500
0.417706 -0.062744 0.003533
0.405502 -0.039133 0.038537
0.418743 -0.063081 0.039555
0.398886 -0.060704 0.027657
0.417586 -0.079039 0.026642
0.417483 -0.055835 0.040646
0.408061 -0.058885 0.048196
0.418939 -0.066898 0.055633
0.422518 -0.026460 0.041812
0.414125 -0.084807 0.036606
0.421654 -0.041764 0.033074
0.421301 -0.044452 0.058429
0.424428 -0.040584 0.039605
0.417325 -0.034068 0.013141
0.421071 -0.010236 0.036371
0.425091 -0.060843 0.035105
0.421023 -0.048920 0.038459
0.416600 -0.047561 0.027549
0.421326 -0.032203 0.030955
0.421109 -0.063786 0.046256
0.417508 -0.075407 0.043129
0.420057 -0.056408 0.031818
0.422439 -0.054553 0.053733
0.420399 -0.047628 0.006295
0.417054 -0.067196 0.021821
0.421348 -0.054608 0.020458
0.423167 -0.028180 0.023724
0.421759 -0.049874 0.047352
0.439455 -0.075032 -0.009936
0.438095 -0.021972 -0.032848
0.442016 0.011263 0.014062
0.431178 -0.004035 0.029914
0.434804 -0.063097 -0.076524
0.408398 -0.020519 -0.014682
0.439156 -0.042734 0.024233
0.418223 -0.048115 -0.053197
0.440212 -0.058146 -0.051026
0.435645 -0.055533 -0.001122
0.416581 -0.066430 0.003204
0.433522 -0.058848 0.040453
0.440523 0.017492 -0.053439
0.428539 -0.065287 -0.028685
0.438709 0.004759 -0.017501
0.436877 -0.030000 0.044966
0.446155 -0.029903 -0.012459
0.428581 -0.003868 -0.040279
0.429478 -0.033801 0.013173
0.439018 -0.040132 -0.043140
0.440885 -0.037886 0.004605
0.428910 -0.017050 -0.076902
0.441925 -0.011151 -0.003460
0.444160 -0.059215 0.022861
0.435822 -0.079746 0.013317
0.433762 -0.042493 -0.019372
0.442347 -0.021658 0.019169
0.438481 -0.045274 -0.091223
0.436705 -0.082856 -0.047417
0.441823 -0.024302 -0.062603
0.444450 -0.001955 -0.044033
0.440779 -0.061484 -0.024899
0.407691 -0.027946 0.027696
0.404119 -0.023410 0.042757
0.408629 -0.007365 0.056143
0.389156 -0.019209 0.054716
0.387277 -0.026212 -0.031016
0.323160 -0.018325 0.041610
0.404623 -0.026931 0.039943
0.294599 -0.027400 0.017396
0.409071 -0.038800 0.020464
0.372449 -0.024918 0.043619
0.343381 -0.027507 0.058869
0.396362 -0.028263 0.062762
0.409798 -0.008153 0.044083
0.388074 -0.044202 0.035516
0.410123 -0.020960 0.035535
0.405471 -0.024263 0.070040
0.405238 -0.018968 0.043802
0.369547 -0.011548 -0.002595
0.392599 0.006808 0.039803
0.408449 -0.028376 0.034966
0.406876 -0.023300 0.040433
0.360658 -0.025968 0.029695
0.397363 -0.011799 0.019691
0.410042 -0.024305 0.047025
0.408093 -0.036095 0.047891
0.406222 -0.025556 0.029062
0.409360 -0.028440 0.059627
0.407036 -0.022155 -0.020961
0.400275 -0.030685 0.014428
0.406536 -0.025403 0.006569
0.406850 -0.009434 0.011923
0.405599 -0.024303 0.052838
0.416487 -0.088464 -0.034832
0.416298 -0.086084 -0.011649
0.419822 -0.066777 0.016168
0.414038 -0.079047 0.009154
0.408919 -0.091635 -0.088826
0.394975 -0.083329 -0.006981
0.414277 -0.091351 -0.010277
0.390325 -0.091803 -0.046984
0.414677 -0.088889 -0.043936
0.408059 -0.091748 -0.001314
0.399624 -0.090700 0.010450
0.412557 -0.091849 0.025673
0.417955 -0.065154 -0.002543
0.402959 -0.089660 -0.022224
0.417880 -0.079269 -0.020538
0.419479 -0.084740 0.030533
0.419991 -0.079021 0.003832
0.405145 -0.076602 -0.066780
0.413895 -0.064034 -0.012584
0.418173 -0.087365 -0.018682
0.418955 -0.087260 -0.004901
0.404446 -0.086563 -0.037255
0.414938 -0.070029 -0.037807
0.419394 -0.089501 0.013966
0.415015 -0.090957 0.002590
0.415359 -0.087417 -0.029285
0.419652 -0.087284 0.020875
0.415717 -0.085957 -0.078892
0.407123 -0.091337 -0.053845
0.417091 -0.085788 -0.058582
0.418672 -0.071505 -0.049385
0.416194 -0.087889 0.015500
0.393067 -0.085322 -0.090465
0.342649 -0.052139 -0.120212
0.389696 -0.019227 -0.059033
0.326262 -0.028589 -0.052301
0.343051 -0.087082 -0.171148
0.300676 -0.063292 -0.089677
0.365779 -0.075004 -0.048328
0.307258 -0.080829 -0.133159
0.391372 -0.084089 -0.143800
0.343440 -0.087657 -0.083129
0.309266 -0.087181 -0.068310
0.340480 -0.081787 -0.036801
0.362157 -0.014651 -0.153194
0.324704 -0.082463 -0.107206
0.357137 -0.015777 -0.089585
0.353771 -0.045167 -0.031078
0.410647 -0.070735 -0.108418
0.319954 -0.019060 -0.115724
0.330294 -0.076313 -0.056290
0.368295 -0.071118 -0.140657
0.377016 -0.072785 -0.077097
0.324361 -0.061472 -0.165225
0.351202 -0.047298 -0.078105
0.389982 -0.081790 -0.043228
0.355752 -0.085850 -0.067687
0.354858 -0.074886 -0.103140
0.403893 -0.060959 -0.064640
0.372111 -0.084133 -0.198067
0.347037 -0.089865 -0.131781
0.401364 -0.056893 -0.165722
0.389999 -0.032367 -0.115001
0.370870 -0.091183 -0.108291
0.430803 -0.017713 0.050446
0.431026 0.001636 0.059216
0.430003 0.014352 0.066591
0.428194 0.007569 0.065779
0.426979 -0.011605 0.013960
0.413925 0.006963 0.060688
0.429225 -0.009988 0.060295
0.407899 -0.009455 0.045077
0.429229 -0.029044 0.043348
0.425871 -0.005222 0.062133
0.417252 -0.010309 0.067547
0.428736 -0.017754 0.069260
0.429703 0.013089 0.062457
0.423790 -0.036192 0.057084
0.430593 0.005107 0.054840
0.429688 0.002157 0.070423
0.431103 0.005524 0.060434
0.423950 0.009490 0.028121
0.427391 0.022586 0.056085
0.433026 -0.009911 0.054373
0.431104 0.000889 0.059869
0.424402 0.001343 0.048804
0.427176 0.010680 0.047862
0.431593 -0.012880 0.065306
0.429940 -0.024213 0.062170
0.430339 -0.004669 0.052923
0.431393 -0.005477 0.068569
0.429954 0.001367 0.019173
0.426892 -0.016115 0.037202
0.431350 -0.004163 0.035367
0.429840 0.012640 0.039956
0.430300 0.000409 0.066230
0.313966 -0.140843 -0.134672
0.286038 -0.121683 -0.118178
0.302577 -0.061107 -0.112725
0.279486 -0.094275 -0.110596
0.284373 -0.136820 -0.168486
0.254604 -0.101482 -0.112043
0.290322 -0.133894 -0.116191
0.255100 -0.129031 -0.132548
0.312319 -0.142075 -0.138224
0.280252 -0.129704 -0.114579
0.266945 -0.135797 -0.117256
0.292992 -0.139214 -0.122053
0.285388 -0.067990 -0.115727
0.291357 -0.134438 -0.129074
0.295053 -0.106571 -0.118071
0.290736 -0.110577 -0.117965
0.325759 -0.113522 -0.120432
0.267570 -0.080640 -0.147458
0.274337 -0.048346 -0.113699
0.335363 -0.140018 -0.129343
0.301463 -0.125598 -0.116228
0.274031 -0.118927 -0.131642
0.286690 -0.088680 -0.127176
0.302953 -0.134955 -0.115700
0.309867 -0.141422 -0.123113
0.295423 -0.138526 -0.128963
0.315701 -0.130610 -0.119933
0.299174 -0.123268 -0.166638
0.295938 -0.142705 -0.148655
0.308172 -0.130042 -0.143320
0.315452 -0.092687 -0.132500
0.297216 -0.130317 -0.117362
0.423385 0.016604 0.034739
0.413775 0.027240 0.046587
0.416434 0.024204 0.060996
0.409410 0.026438 0.058740
0.411843 0.023012 -0.005421
0.394969 0.028017 0.049813
0.420672 0.023128 0.042834
0.391272 0.025489 0.028584
