-0.156658 0.232632 0.062650
-0.155813 0.222960 0.059371
-0.158157 0.241982 0.044153
-0.159712 0.241274 0.070136
-0.160360 0.246420 0.028909
-0.155176 0.231177 0.035365
-0.159220 0.243838 0.035492
-0.165149 0.262219 0.037605
-0.160605 0.247120 0.064804
-0.139781 -0.027070 -0.085329
-0.150836 -0.018859 -0.074462
-0.148990 -0.018290 -0.045073
-0.151003 -0.017178 -0.059986
-0.151013 -0.020456 -0.133251
-0.157626 -0.018493 -0.069926
-0.150942 -0.022080 -0.078304
-0.156869 -0.020900 -0.095672
-0.146498 -0.048165 -0.099380
-0.151332 -0.019126 -0.062151
-0.153217 -0.020047 -0.050357
-0.152355 -0.025589 -0.033718
-0.154696 -0.017893 -0.065685
-0.147824 -0.058245 -0.076938
-0.145777 -0.019217 -0.077644
-0.150091 -0.019204 -0.023472
-0.112274 -0.018241 -0.058214
-0.154716 -0.017228 -0.113942
-0.155276 -0.014330 -0.077258
-0.103303 -0.022499 -0.083524
-0.138608 -0.018163 -0.067427
-0.151614 -0.018012 -0.085512
-0.154065 -0.016320 -0.096332
-0.148964 -0.024762 -0.058037
-0.147604 -0.045427 -0.060711
-0.148161 -0.019891 -0.084451
-0.133341 -0.019861 -0.040947
-0.141512 -0.020220 -0.124278
-0.150076 -0.025084 -0.103180
-0.147434 -0.017838 -0.107124
-0.131136 -0.017804 -0.099514
-0.151104 -0.018241 -0.048826
-0.144575 0.097889 -0.001355
-0.145807 0.118524 0.000088
-0.148325 0.131000 0.019008
-0.146021 0.124401 0.012299
-0.144324 0.105860 -0.018308
-0.145902 0.125710 0.003139
-0.144404 0.100558 0.004797
-0.144455 0.106709 -0.007002
-0.143799 0.090191 -0.007295
-0.145267 0.108319 0.008328
-0.143920 0.108549 0.013510
-0.143234 0.099138 0.022498
-0.147487 0.133248 0.009371
-0.142434 0.087854 0.001211
-0.146203 0.123745 -0.004875
-0.146130 0.120345 0.024468
-0.147397 0.118910 0.006677
-0.145853 0.125189 -0.014306
-0.148255 0.139497 0.001256
-0.145490 0.106184 -0.000823
-0.145904 0.113454 0.003091
-0.145729 0.119402 -0.008671
-0.147672 0.132111 -0.002902
-0.144219 0.101651 0.013530
-0.144169 0.092085 0.011103
-0.144805 0.112108 -0.004130
-0.145907 0.111119 0.021731
-0.145972 0.116702 -0.018359
-0.143309 0.100896 -0.011576
-0.145188 0.112535 -0.012196
-0.148783 0.133555 -0.009665
-0.146244 0.116645 0.015868
-0.036973 -0.009655 -0.046650
-0.059831 -0.010985 -0.029601
-0.052337 -0.010508 0.004532
-0.074411 -0.010886 -0.005568
-0.063949 -0.010722 -0.080016
-0.094132 -0.012420 -0.025926
-0.056899 -0.011188 -0.047708
-0.092208 -0.012181 -0.053672
-0.050058 -0.010197 -0.056464
-0.083001 -0.012199 -0.016647
-0.087019 -0.012139 0.000672
-0.075983 -0.011083 0.016856
-0.053340 -0.010627 -0.016640
-0.073386 -0.012137 -0.028741
-0.040741 -0.009656 -0.027751
-0.056404 -0.010477 0.018819
-0.026769 -0.009212 -0.000027
-0.080310 -0.012582 -0.070675
-0.068047 -0.010665 -0.016328
-0.024540 -0.009125 -0.032846
-0.032890 -0.010225 -0.015886
-0.083450 -0.011950 -0.039270
-0.076170 -0.011844 -0.056130
-0.060235 -0.010805 -0.006734
-0.044764 -0.010410 -0.008531
-0.047059 -0.010818 -0.036272
-0.039084 -0.009451 0.014522
-0.043437 -0.010709 -0.074145
-0.065614 -0.010068 -0.041510
-0.062001 -0.011570 -0.064300
-0.029342 -0.010522 -0.063699
-0.067265 -0.011090 0.007481
0.231327 -0.061042 0.187368
0.183656 -0.045508 0.188907
0.230714 -0.024429 0.186542
0.154710 -0.041050 0.188317
0.152744 -0.059256 0.190856
0.089534 -0.040162 0.187654
0.195523 -0.050322 0.189334
0.057878 -0.053218 0.189086
0.216861 -0.075156 0.188737
0.162000 -0.051004 0.187680
0.108817 -0.063152 0.188316
0.185333 -0.059569 0.186688
0.216724 -0.030770 0.188329
0.159405 -0.072035 0.187664
0.222029 -0.040544 0.189740
0.208753 -0.042440 0.187046
0.232379 -0.040375 0.185752
0.133898 -0.030973 0.193111
0.170321 -0.020352 0.188637
0.235237 -0.058666 0.186765
0.229082 -0.043329 0.186576
0.123470 -0.051314 0.189777
0.194075 -0.034902 0.189770
0.222514 -0.059415 0.186965
0.230806 -0.065540 0.186101
0.208453 -0.060576 0.188265
0.233949 -0.049842 0.187172
0.227461 -0.049079 0.188310
0.197782 -0.068064 0.190342
0.228812 -0.054795 0.188633
0.233349 -0.033642 0.188950
0.215621 -0.052013 0.187808
-0.145938 0.062648 -0.020879
-0.146410 0.084535 -0.019598
-0.148318 0.096447 -0.000521
-0.146120 0.090089 -0.007994
-0.145239 0.070974 -0.036436
-0.150285 0.091467 -0.016748
-0.146128 0.067429 -0.015198
-0.150136 0.072891 -0.025421
-0.145401 0.054136 -0.027313
-0.146543 0.074627 -0.011622
-0.148185 0.073272 -0.006111
-0.144504 0.064094 0.003012
-0.147342 0.098962 -0.010967
-0.144603 0.051144 -0.018737
-0.146533 0.089046 -0.024352
-0.146575 0.085667 0.005413
-0.148003 0.085417 -0.013497
-0.146019 0.090862 -0.032493
-0.147484 0.105313 -0.018192
-0.146220 0.071584 -0.021041
-0.146858 0.080037 -0.017079
-0.146510 0.084689 -0.027707
-0.147430 0.096622 -0.022614
-0.145629 0.066805 -0.006881
-0.145437 0.056200 -0.009194
-0.145888 0.077782 -0.024143
-0.146619 0.076819 0.002337
-0.146727 0.082547 -0.036381
-0.144441 0.066218 -0.029957
-0.145823 0.077300 -0.030876
-0.148365 0.098829 -0.028874
-0.146916 0.081865 -0.004401
-0.183024 0.331567 0.049873
-0.187163 0.345090 0.055695
-0.193076 0.355107 0.075956
-0.189342 0.350395 0.067541
-0.183330 0.336111 0.028227
-0.188166 0.351604 0.058730
-0.181687 0.331190 0.058126
-0.183138 0.338047 0.043475
-0.179927 0.324808 0.043791
-0.184267 0.337260 0.062677
-0.183156 0.340099 0.068956
-0.181036 0.331133 0.078457
-0.193257 0.356228 0.064349
-0.177147 0.321904 0.053408
-0.189225 0.348758 0.050365
-0.188277 0.346730 0.080934
-0.190135 0.345322 0.062277
-0.189710 0.351106 0.032947
-0.195573 0.362663 0.052516
-0.184941 0.335648 0.053383
-0.186433 0.340065 0.058252
-0.187623 0.346659 0.045581
-0.192503 0.355716 0.047660
-0.182334 0.332888 0.069657
-0.180727 0.325368 0.063556
-0.184940 0.340562 0.049941
-0.186106 0.339449 0.076167
-0.187798 0.343831 0.031461
-0.181107 0.333300 0.038272
-0.186952 0.343287 0.038600
-0.193688 0.355649 0.040137
-0.188540 0.345195 0.072440
0.225754 0.007749 0.184202
0.193499 0.006814 0.183251
0.214188 0.005958 0.183315
0.182906 0.005751 0.183210
0.186182 0.005684 0.174717
0.162409 0.004569 0.184479
0.200168 0.008038 0.182053
0.154667 0.004570 0.181191
0.206414 -0.007557 0.184370
0.177611 0.005594 0.184216
0.169649 -0.000531 0.185089
0.188581 0.002455 0.183782
0.207918 0.005717 0.181282
0.181972 -0.007702 0.185068
0.216290 0.007564 0.182685
0.208933 0.004812 0.181465
0.238068 0.006112 0.183167
0.176088 0.005810 0.176708
0.187984 0.006854 0.181200
0.249473 0.006903 0.181843
0.224230 0.007918 0.183245
0.170920 0.006256 0.180562
0.191995 0.007710 0.181107
0.204338 0.004037 0.184870
0.219361 -0.001041 0.184048
0.201611 0.006601 0.182604
0.232763 0.003512 0.184114
0.220481 0.007236 0.175176
0.192873 0.003543 0.185761
0.207979 0.006965 0.177993
0.231781 0.007016 0.177889
0.199422 0.005587 0.183144
-0.145967 0.142550 0.000596
-0.147378 0.159930 0.002409
-0.150279 0.171006 0.018311
-0.147858 0.164846 0.012906
-0.145891 0.149164 -0.014910
-0.147006 0.166065 0.004837
-0.145522 0.144040 0.006282
-0.145326 0.149460 -0.004499
-0.144973 0.135488 -0.004246
-0.146769 0.150744 0.009445
-0.145022 0.151547 0.013861
-0.144496 0.143199 0.021633
-0.149413 0.172698 0.010081
-0.143519 0.133636 0.002851
-0.147867 0.164391 -0.002265
-0.148013 0.161486 0.023224
-0.149160 0.160191 0.007553
-0.147864 0.165738 -0.011218
-0.150471 0.178562 0.002844
-0.147169 0.149494 0.001471
-0.147393 0.155311 0.004962
-0.147378 0.160797 -0.005619
-0.149637 0.171971 -0.000538
-0.145580 0.145606 0.014251
-0.145561 0.137131 0.011765
-0.146267 0.154436 -0.001519
-0.147483 0.153650 0.020879
-0.147803 0.158387 -0.014787
-0.144542 0.144730 -0.008737
-0.146981 0.155325 -0.008820
-0.150884 0.173245 -0.006749
-0.147947 0.158418 0.016070
-0.205251 -0.207154 -0.201488
-0.197312 -0.175698 -0.203490
-0.190408 -0.135611 -0.200753
-0.195599 -0.159252 -0.200404
-0.203917 -0.196103 -0.204675
-0.201159 -0.163191 -0.202431
-0.203266 -0.191576 -0.202497
-0.209522 -0.188505 -0.202022
-0.206622 -0.223673 -0.202868
-0.201218 -0.183144 -0.202110
-0.206428 -0.197693 -0.200433
-0.204476 -0.203426 -0.201647
-0.191609 -0.139677 -0.201414
-0.210520 -0.226540 -0.201877
-0.196618 -0.164478 -0.202388
-0.196614 -0.167604 -0.201391
-0.197486 -0.166523 -0.202546
-0.194412 -0.152856 -0.204528
-0.188348 -0.123271 -0.201570
-0.201879 -0.194903 -0.202021
-0.197695 -0.173971 -0.201428
-0.197912 -0.173424 -0.201352
-0.193201 -0.153144 -0.202249
-0.203478 -0.200832 -0.201141
-0.206259 -0.213557 -0.203743
-0.201182 -0.188604 -0.201844
-0.198881 -0.182114 -0.200717
-0.198132 -0.177470 -0.204473
-0.207072 -0.207788 -0.202688
-0.201429 -0.186492 -0.203115
-0.192567 -0.144771 -0.203262
-0.198873 -0.180919 -0.202007
-0.194210 0.356727 0.033494
-0.199978 0.365681 0.048352
-0.205509 0.368662 0.081313
-0.204384 0.369015 0.067688
-0.196428 0.363115 -0.012028
-0.215877 0.370624 0.054029
-0.192263 0.357900 0.047335
-0.212680 0.367010 0.024728
-0.188411 0.348931 0.023290
-0.199451 0.363504 0.060810
-0.206651 0.365882 0.071039
-0.194141 0.357917 0.083940
-0.210088 0.370566 0.061662
-0.185987 0.344224 0.043314
-0.202302 0.365100 0.043486
-0.199221 0.364143 0.093385
-0.201029 0.360816 0.063628
-0.208945 0.371300 0.001735
-0.214931 0.376512 0.043176
-0.193275 0.353285 0.041314
-0.197464 0.359557 0.052404
-0.203934 0.367210 0.034574
-0.208680 0.370531 0.023807
-0.191929 0.355964 0.067271
-0.188858 0.346941 0.059716
-0.196800 0.361992 0.035207
-0.195897 0.358363 0.079437
-0.199407 0.363110 0.000354
-0.191270 0.359411 0.017236
-0.200737 0.365759 0.012708
-0.205807 0.366275 0.015790
-0.201261 0.364288 0.072649
0.024237 -0.075051 0.025227
-0.053707 -0.047833 -0.021955
0.008982 -0.043576 0.054661
-0.076874 -0.044542 0.074069
-0.048491 -0.058075 -0.061854
-0.097608 -0.048016 0.010469
-0.025814 -0.051270 0.059600
-0.093306 -0.057319 -0.033710
0.026990 -0.068433 -0.032402
-0.043798 -0.061335 0.017107
-0.090247 -0.066671 0.045396
-0.053534 -0.062070 0.082562
-0.034835 -0.040881 -0.048928
-0.073892 -0.067452 0.003404
-0.029264 -0.042440 0.019249
-0.031226 -0.048896 0.095184
0.056836 -0.051055 -0.002406
-0.074884 -0.043463 -0.015446
-0.061754 -0.053409 0.051068
-0.011346 -0.051232 -0.036219
-0.004070 -0.054617 0.027757
-0.073560 -0.048013 -0.062578
-0.063979 -0.044946 0.021938
0.002255 -0.061776 0.083590
-0.040771 -0.082816 0.046309
-0.018972 -0.046520 -0.004667
0.046492 -0.051793 0.046864
-0.017096 -0.057502 -0.075253
-0.050444 -0.082452 -0.030845
0.023550 -0.047130 -0.061378
0.011705 -0.045507 -0.008074
-0.023475 -0.070316 -0.006662
-0.156797 0.001668 -0.070093
-0.151948 0.026449 -0.065774
-0.151623 0.035794 -0.040393
-0.150767 0.030722 -0.049006
-0.153855 0.010617 -0.096683
-0.179536 0.030595 -0.061839
-0.155207 0.007635 -0.059923
-0.190681 0.012116 -0.073461
-0.156214 -0.012275 -0.080538
-0.158571 0.016251 -0.054683
-0.176445 0.010632 -0.045609
-0.155239 0.003405 -0.034609
-0.150653 0.038159 -0.055165
-0.159871 -0.018114 -0.065926
-0.152214 0.029899 -0.071417
-0.152065 0.026713 -0.032189
-0.154332 0.028875 -0.058396
-0.153102 0.031606 -0.085601
-0.150655 0.043485 -0.062831
-0.155965 0.011791 -0.068206
-0.154985 0.021792 -0.062503
-0.159067 0.023561 -0.075753
-0.150904 0.036784 -0.071349
-0.154270 0.006921 -0.049667
-0.158262 -0.008991 -0.052223
-0.153708 0.019532 -0.073885
-0.154140 0.017407 -0.034540
-0.154017 0.023302 -0.094441
-0.155422 0.004274 -0.083824
-0.152697 0.016833 -0.084262
-0.152920 0.039149 -0.080930
-0.152642 0.022002 -0.045582
0.239576 -0.034932 0.189193
0.203566 0.005139 0.192552
0.234244 0.009642 0.188374
0.184719 -0.001300 0.191812
0.205810 -0.018784 0.191265
0.165319 -0.002515 0.192174
0.219169 -0.011455 0.194347
0.169701 -0.013275 0.193021
0.232856 -0.027648 0.190021
0.219505 -0.025367 0.194085
0.178489 -0.023930 0.192982
0.207117 -0.022832 0.190534
0.208462 0.012553 0.188018
0.196501 -0.029878 0.193274
0.221399 0.005772 0.192697
0.208883 -0.005468 0.191958
0.238555 -0.019511 0.187383
0.181045 0.010966 0.196234
0.192053 -0.015040 0.194623
0.223753 -0.008264 0.188313
0.230954 -0.008807 0.193244
0.193611 -0.007259 0.189680
0.218388 0.000013 0.194216
0.240145 -0.022606 0.192762
0.230508 -0.036482 0.189889
0.214547 -0.014955 0.191487
0.235575 -0.005439 0.189681
0.226763 -0.020097 0.180812
0.221214 -0.039952 0.195930
0.237760 -0.009155 0.184658
0.228751 0.000569 0.189610
0.231940 -0.019671 0.193018
-0.161699 0.253639 0.030893
-0.164971 0.271786 0.034178
-0.169951 0.283957 0.053210
-0.166627 0.277735 0.046293
-0.161991 0.259846 0.014197
-0.165407 0.278600 0.037053
-0.161023 0.254292 0.038481
-0.161914 0.261128 0.025327
-0.159553 0.245578 0.026065
-0.163241 0.261679 0.041801
-0.161834 0.263526 0.047546
-0.160046 0.253916 0.056563
-0.169632 0.285898 0.043140
-0.157834 0.243656 0.034229
-0.166602 0.277099 0.029174
-0.166190 0.273547 0.058230
-0.167656 0.272502 0.040439
-0.166487 0.278260 0.017795
-0.171122 0.292239 0.034069
-0.163993 0.260146 0.033306
-0.164728 0.266560 0.037404
-0.165427 0.273162 0.025077
-0.169206 0.284975 0.030227
-0.161463 0.256507 0.048025
-0.160500 0.246971 0.044358
-0.163192 0.265496 0.029633
-0.164748 0.264842 0.055211
-0.165458 0.269887 0.014384
-0.159826 0.255021 0.020676
-0.164367 0.267662 0.021134
-0.170602 0.285715 0.023047
-0.165815 0.270731 0.050113
-0.051864 -0.378639 -0.203804
-0.102496 -0.373754 -0.203015
-0.068677 -0.374897 -0.200166
-0.120957 -0.374575 -0.201313
-0.117914 -0.378564 -0.201857
-0.150396 -0.374882 -0.203556
-0.094742 -0.374524 -0.202966
-0.168327 -0.377902 -0.204152
-0.081667 -0.389224 -0.201686
-0.118686 -0.375440 -0.204352
-0.142508 -0.380135 -0.202407
-0.106237 -0.378914 -0.201091
-0.078805 -0.373704 -0.202298
-0.119341 -0.386831 -0.204333
-0.071367 -0.373512 -0.203056
-0.084541 -0.375232 -0.200593
-0.033157 -0.374951 -0.203933
-0.130099 -0.375989 -0.203754
-0.109046 -0.373961 -0.202475
-0.019135 -0.376738 -0.203518
-0.056856 -0.372878 -0.203711
-0.136221 -0.375769 -0.204563
-0.100545 -0.373973 -0.204225
-0.080859 -0.376317 -0.203851
-0.062340 -0.382453 -0.204027
-0.088932 -0.377203 -0.204213
-0.045118 -0.376899 -0.201175
-0.064695 -0.376606 -0.201423
-0.096715 -0.383395 -0.202411
-0.074975 -0.377622 -0.203316
-0.045888 -0.374135 -0.203258
-0.088010 -0.375535 -0.202129
-0.079282 -0.077244 -0.048501
-0.131249 -0.042119 -0.091683
-0.102123 -0.037497 -0.023359
-0.145446 -0.037013 -0.003473
-0.128016 -0.055936 -0.135421
-0.160275 -0.043617 -0.060348
-0.118943 -0.047875 -0.016727
-0.158609 -0.051773 -0.105869
-0.083157 -0.062179 -0.102695
-0.127810 -0.058169 -0.049623
-0.155750 -0.065208 -0.028867
-0.132650 -0.059444 0.009658
-0.123612 -0.034669 -0.120074
-0.141612 -0.062115 -0.072114
-0.118254 -0.033340 -0.056636
-0.122519 -0.044302 0.020143
-0.060020 -0.049662 -0.069403
-0.145590 -0.035230 -0.083575
-0.138044 -0.048313 -0.023811
-0.104383 -0.047585 -0.102929
-0.100581 -0.049663 -0.045823
-0.147597 -0.039146 -0.134951
-0.138574 -0.038719 -0.049821
-0.094786 -0.057258 -0.000138
-0.119570 -0.085551 -0.024632
-0.116417 -0.043456 -0.074309
-0.072228 -0.048505 -0.024192
-0.110212 -0.050352 -0.153858
-0.127850 -0.085812 -0.099434
-0.084180 -0.040869 -0.129937
-0.091341 -0.039256 -0.077209
-0.110100 -0.065839 -0.072298
0.228044 -0.088393 0.168760
0.234910 -0.079499 0.174593
0.240809 -0.056922 0.182936
0.236463 -0.065663 0.181811
0.232155 -0.083403 0.127399
0.227559 -0.072573 0.178740
0.228717 -0.089889 0.173757
0.221785 -0.086322 0.165233
0.227499 -0.096623 0.163357
0.230619 -0.082633 0.177907
0.226122 -0.082577 0.182481
0.227434 -0.091139 0.183201
0.240376 -0.061513 0.179739
0.224531 -0.103726 0.176371
0.235442 -0.074293 0.167781
0.235462 -0.074376 0.186988
0.231747 -0.071529 0.178142
0.239260 -0.069396 0.144253
0.242531 -0.043102 0.170606
0.230025 -0.083735 0.177170
0.232247 -0.080804 0.176061
0.236893 -0.076074 0.165340
0.238374 -0.064051 0.167238
0.230789 -0.084756 0.178656
0.226330 -0.093883 0.179603
0.231200 -0.080924 0.167589
0.231972 -0.083146 0.184583
0.233035 -0.073773 0.130459
0.229375 -0.086819 0.152538
0.232363 -0.080649 0.152988
0.237666 -0.058202 0.157893
0.233935 -0.077356 0.181047
0.232620 -0.034084 0.184525
0.211628 -0.018721 0.188717
0.231530 -0.000555 0.185563
0.193630 -0.012831 0.188331
0.196580 -0.030947 0.189912
0.141935 -0.012823 0.189460
0.216140 -0.024206 0.188787
0.121315 -0.024394 0.193058
0.227905 -0.048944 0.188119
0.196255 -0.023661 0.188682
0.158374 -0.036096 0.191316
0.209384 -0.034339 0.186557
0.225947 -0.004881 0.187871
0.197364 -0.048085 0.190075
0.228548 -0.013922 0.187272
0.220893 -0.015920 0.186544
0.230863 -0.013737 0.183131
0.182358 -0.004902 0.192467
0.202970 0.004252 0.188493
0.235052 -0.033943 0.184957
0.231498 -0.017698 0.185864
0.175070 -0.023043 0.191599
0.217415 -0.009385 0.188899
0.230036 -0.033195 0.186372
0.232012 -0.038241 0.186216
0.224894 -0.031937 0.187407
0.233646 -0.023374 0.185541
0.234039 -0.019860 0.183799
0.218979 -0.041254 0.190199
0.231874 -0.026999 0.185678
0.233687 -0.006834 0.185547
0.226584 -0.023696 0.186675
-0.148618 0.173364 0.006572
-0.150739 0.192435 0.008999
-0.154589 0.204901 0.027672
-0.151641 0.198347 0.021018
-0.148634 0.180432 -0.009433
-0.150761 0.199345 0.011669
-0.148109 0.174735 0.013374
-0.148389 0.181235 0.001172
-0.147293 0.165509 0.001644
-0.149730 0.182352 0.016755
-0.148097 0.183579 0.022058
-0.147085 0.174232 0.031359
-0.153928 0.206770 0.017751
-0.145768 0.163554 0.009566
-0.151779 0.197737 0.003925
-0.151667 0.194313 0.033137
-0.153057 0.193161 0.015061
-0.151590 0.199041 -0.005873
-0.155100 0.213413 0.009369
-0.150505 0.180803 0.008177
-0.150735 0.187447 0.012067
-0.150869 0.193539 0.000333
-0.153786 0.205777 0.005747
-0.148403 0.176774 0.022699
-0.148092 0.167230 0.019410
-0.149411 0.186104 0.004708
-0.150882 0.185403 0.030098
-0.151178 0.190733 -0.009625
-0.147008 0.175322 -0.003182
-0.150190 0.187706 -0.003318
-0.155146 0.207013 -0.001066
-0.151394 0.191131 0.024715
-0.150044 0.038657 -0.050009
-0.148944 0.062355 -0.049326
-0.148935 0.075594 -0.028551
-0.148031 0.068596 -0.035798
-0.148927 0.047892 -0.067580
-0.148886 0.070231 -0.045446
-0.149934 0.042900 -0.043927
-0.149809 0.049518 -0.055787
-0.149945 0.030831 -0.057165
-0.149439 0.051974 -0.040096
-0.148777 0.051222 -0.034282
-0.148543 0.041408 -0.025748
-0.147953 0.077810 -0.038459
-0.149048 0.028377 -0.047447
-0.148248 0.067977 -0.053980
-0.148686 0.064677 -0.023850
-0.149619 0.062550 -0.041693
-0.147745 0.069871 -0.063227
-0.148160 0.084050 -0.046447
-0.149427 0.048279 -0.049960
-0.149551 0.057255 -0.045922
-0.148647 0.062677 -0.058132
-0.148568 0.076770 -0.051475
-0.149493 0.043136 -0.035209
-0.149927 0.033325 -0.037318
-0.148798 0.055140 -0.053397
-0.149192 0.054270 -0.025425
-0.148853 0.060311 -0.067586
-0.148882 0.042903 -0.060744
-0.148810 0.054095 -0.061809
-0.148943 0.078508 -0.058683
-0.149109 0.060247 -0.031998
-0.175469 0.307136 0.033216
-0.179546 0.323360 0.037272
-0.185117 0.334945 0.054992
-0.181393 0.329232 0.048172
-0.176005 0.312572 0.015154
-0.180377 0.330295 0.039883
-0.174729 0.307542 0.040244
-0.176063 0.314564 0.027369
-0.172790 0.299364 0.027994
-0.177052 0.314533 0.043857
-0.175775 0.316488 0.049558
-0.173686 0.306967 0.057765
-0.185232 0.336392 0.045414
-0.170603 0.296783 0.036337
-0.181371 0.327854 0.032533
-0.180646 0.325071 0.059512
-0.182216 0.323888 0.042928
-0.181737 0.330004 0.018946
-0.187181 0.343372 0.035642
-0.177614 0.312504 0.035745
-0.178923 0.318318 0.039828
-0.180032 0.324996 0.028399
-0.184429 0.335461 0.032124
-0.175125 0.309321 0.049636
-0.173635 0.300541 0.045580
-0.177398 0.317789 0.032515
-0.178699 0.316969 0.056294
-0.180014 0.321822 0.016702
-0.173644 0.308771 0.022814
-0.179107 0.320272 0.023457
-0.185669 0.335815 0.025109
-0.180528 0.322783 0.052186
-0.144991 0.109936 -0.019657
-0.146325 0.130166 -0.017959
-0.148818 0.142436 0.001583
-0.146491 0.135997 -0.005461
-0.144720 0.117734 -0.036006
-0.146343 0.137308 -0.014978
-0.144869 0.112382 -0.013247
-0.144780 0.118560 -0.025150
-0.144270 0.102401 -0.025401
-0.145762 0.120029 -0.009645
-0.144327 0.120507 -0.004417
-0.143696 0.111197 0.005215
-0.148049 0.144689 -0.008598
-0.142913 0.100293 -0.016960
-0.146726 0.135338 -0.023019
-0.146583 0.131955 0.007233
-0.147946 0.130555 -0.011283
-0.146297 0.136777 -0.032233
-0.148824 0.150930 -0.016952
-0.146069 0.118032 -0.018870
-0.146377 0.125144 -0.014929
-0.146185 0.130964 -0.026704
-0.148170 0.143545 -0.021102
-0.144700 0.113612 -0.004011
-0.144693 0.104238 -0.006843
-0.145322 0.123773 -0.022245
-0.146394 0.122782 0.004171
-0.146345 0.128398 -0.036242
-0.143745 0.112808 -0.029587
-0.145638 0.124407 -0.030258
-0.149249 0.144912 -0.027752
-0.146738 0.128376 -0.001758
-0.214490 0.128532 -0.055040
-0.221373 0.224198 -0.072548
-0.230469 0.274175 -0.025031
-0.225518 0.256132 -0.001911
-0.213911 0.168627 -0.116541
-0.225044 0.245310 -0.059329
-0.220224 0.197204 -0.005986
-0.217766 0.193597 -0.105009
-0.216211 0.168455 -0.086526
-0.216901 0.190876 -0.034985
-0.217360 0.161749 -0.041211
-0.216009 0.173728 0.006350
-0.230554 0.286803 -0.079181
-0.214369 0.157117 -0.076126
-0.227981 0.265104 -0.065972
-0.223222 0.217880 0.012582
-0.226988 0.223984 -0.049493
-0.224163 0.242250 -0.086026
-0.225071 0.239923 -0.026427
-0.218842 0.200150 -0.079662
-0.221223 0.211088 -0.028427
-0.226243 0.243220 -0.119641
-0.225060 0.260147 -0.042790
-0.215430 0.168978 -0.021421
-0.211726 0.131185 -0.022427
-0.220369 0.204281 -0.055573
-0.226144 0.227856 -0.010871
-0.218808 0.206088 -0.125454
-0.210059 0.125805 -0.096196
-0.222124 0.220975 -0.098508
-0.226765 0.265875 -0.094423
-0.215075 0.176188 -0.058243
-0.215846 0.228576 -0.063750
-0.229561 0.316064 -0.078864
-0.239227 0.355810 -0.037390
-0.234331 0.343350 -0.020467
-0.220598 0.264760 -0.113808
-0.234276 0.332469 -0.069899
-0.226483 0.292170 -0.023909
-0.225838 0.285170 -0.104641
-0.215429 0.259274 -0.090321
-0.225043 0.282507 -0.048455
-0.221158 0.255727 -0.050709
-0.221136 0.262252 -0.006782
-0.238539 0.360259 -0.085282
-0.217201 0.247010 -0.081633
-0.237203 0.348355 -0.073885
-0.233374 0.313954 -0.006031
-0.227909 0.313425 -0.062681
-0.233358 0.332014 -0.090097
-0.230637 0.327982 -0.038488
-0.225419 0.292513 -0.083607
-0.231059 0.306230 -0.043445
-0.233638 0.332583 -0.117064
-0.232290 0.344565 -0.056413
-0.218136 0.265329 -0.036241
-0.215766 0.227592 -0.037793
-0.228592 0.296098 -0.064547
-0.230495 0.318220 -0.025948
-0.228333 0.299726 -0.121955
-0.214219 0.218754 -0.097372
-0.228016 0.313912 -0.099841
-0.233465 0.350464 -0.092306
-0.222876 0.268155 -0.065897
-0.032019 -0.383962 -0.200977
-0.078581 -0.381119 -0.199960
-0.048686 -0.382451 -0.198072
-0.096470 -0.382049 -0.198347
-0.091544 -0.384128 -0.201209
-0.125490 -0.382031 -0.200581
-0.071673 -0.382069 -0.199834
-0.143648 -0.383900 -0.200778
-0.059047 -0.389732 -0.199338
-0.094755 -0.383070 -0.201360
-0.116867 -0.385193 -0.198638
-0.082716 -0.385781 -0.198264
-0.057201 -0.380950 -0.200309
-0.094136 -0.387784 -0.201305
-0.050225 -0.380990 -0.200541
-0.060949 -0.383044 -0.197842
-0.013990 -0.382932 -0.200723
-0.104873 -0.382307 -0.201917
-0.085197 -0.380482 -0.200576
0.003054 -0.383480 -0.200307
-0.036090 -0.380778 -0.200668
-0.111259 -0.382526 -0.201500
-0.077779 -0.381302 -0.201783
-0.060337 -0.383136 -0.200539
-0.039141 -0.386305 -0.200638
-0.066120 -0.383005 -0.201025
-0.024877 -0.384596 -0.197834
-0.042106 -0.383430 -0.200762
-0.072865 -0.386763 -0.200330
-0.056543 -0.383671 -0.201836
-0.025180 -0.381523 -0.201337
-0.067011 -0.383233 -0.199076
-0.154095 0.215805 0.014824
-0.156740 0.233739 0.017368
-0.160991 0.245471 0.035206
-0.157869 0.239262 0.028691
-0.154304 0.222275 -0.001085
-0.156809 0.240163 0.020053
-0.153535 0.216732 0.021603
-0.154101 0.223119 0.009409
-0.152423 0.207974 0.009973
-0.155381 0.224080 0.024807
-0.153932 0.225406 0.030164
-0.152556 0.216235 0.038562
-0.160444 0.247464 0.025977
-0.150839 0.206054 0.017870
-0.157969 0.238863 0.012506
-0.157792 0.235468 0.040119
-0.159131 0.234346 0.023299
-0.157809 0.239998 0.002415
-0.161655 0.253449 0.017606
-0.156080 0.222462 0.016591
-0.156610 0.228883 0.020314
-0.156941 0.234871 0.008913
-0.160204 0.246616 0.014031
-0.153935 0.218811 0.030451
-0.153345 0.209582 0.027421
-0.155165 0.227659 0.013158
-0.156736 0.227031 0.037538
-0.157223 0.231980 -0.001041
-0.152493 0.217380 0.005075
-0.156171 0.229433 0.005237
-0.161619 0.247480 0.007239
-0.157457 0.232624 0.032485
-0.214845 0.301210 -0.010951
-0.226065 0.348111 -0.032505
-0.222605 0.365094 0.014155
-0.228356 0.358489 0.030287
-0.221899 0.319835 -0.075924
-0.235164 0.348953 -0.013087
-0.225128 0.338181 0.017429
-0.230849 0.330523 -0.055151
-0.213176 0.317273 -0.048337
-0.227263 0.327597 -0.002806
-0.224087 0.307667 0.001992
-0.225405 0.318497 0.035671
-0.218877 0.361709 -0.049797
-0.219267 0.312005 -0.031186
-0.221995 0.357291 -0.024775
-0.229353 0.347221 0.045924
-0.212890 0.349869 -0.011856
-0.228060 0.352249 -0.040989
-0.226303 0.346146 0.008410
-0.220136 0.337030 -0.042268
-0.220369 0.342964 -0.000436
-0.231044 0.359154 -0.080633
-0.226496 0.358359 -0.009916
-0.219054 0.321383 0.017316
-0.218353 0.299387 0.007574
-0.223636 0.341165 -0.021700
-0.220064 0.352348 0.020748
-0.225692 0.341715 -0.092137
-0.219825 0.299420 -0.051878
-0.220157 0.355002 -0.063868
-0.214740 0.364400 -0.042272
-0.223404 0.318580 -0.020305
-0.199218 -0.186950 -0.201510
-0.191394 -0.153932 -0.203395
-0.184032 -0.113539 -0.200940
-0.189731 -0.136851 -0.200912
-0.198872 -0.174769 -0.204489
-0.196421 -0.140983 -0.202505
-0.197431 -0.170372 -0.202257
-0.205428 -0.166536 -0.201673
-0.201166 -0.204578 -0.202592
-0.195416 -0.161161 -0.202141
-0.201912 -0.176841 -0.200821
-0.199470 -0.182678 -0.201358
-0.185174 -0.118104 -0.201595
-0.205454 -0.208323 -0.201706
-0.190654 -0.142598 -0.202260
-0.190904 -0.145563 -0.201401
-0.191492 -0.144323 -0.202800
-0.188439 -0.130651 -0.204640
-0.182040 -0.101423 -0.201615
-0.196505 -0.173836 -0.201770
-0.191566 -0.152201 -0.201439
-0.192505 -0.151553 -0.201120
-0.186746 -0.131242 -0.202182
-0.197711 -0.179925 -0.201061
-0.200610 -0.193699 -0.203548
-0.195617 -0.167515 -0.201767
-0.193293 -0.160856 -0.200556
-0.192475 -0.155265 -0.204789
-0.201518 -0.188238 -0.202601
-0.195500 -0.164838 -0.203267
-0.186495 -0.122998 -0.203113
-0.192673 -0.159059 -0.201884
-0.147131 0.158915 -0.007112
-0.149111 0.176851 -0.005059
-0.152452 0.187992 0.012845
-0.149741 0.181950 0.006429
-0.146996 0.165624 -0.022802
-0.148918 0.183129 -0.002271
-0.146700 0.160163 -0.000572
-0.146623 0.166190 -0.012387
-0.145939 0.151411 -0.012126
-0.148117 0.167249 0.002705
-0.146484 0.168248 0.007610
-0.145663 0.159420 0.016214
-0.151663 0.190035 0.003373
-0.144290 0.149444 -0.004412
-0.149817 0.181592 -0.009993
-0.149796 0.178341 0.017835
-0.151053 0.177272 0.000746
-0.149557 0.182734 -0.019167
-0.152741 0.195702 -0.004454
-0.148692 0.165775 -0.005974
-0.149002 0.172035 -0.002198
-0.149030 0.177764 -0.013514
-0.151725 0.189290 -0.008168
-0.146851 0.161925 0.008135
-0.146627 0.153065 0.005283
-0.147756 0.171073 -0.009162
-0.149176 0.170295 0.015175
-0.149423 0.175252 -0.022859
-0.145566 0.160856 -0.016732
-0.148543 0.172174 -0.016971
-0.153040 0.190319 -0.014805
-0.149677 0.175494 0.010041
0.230971 0.006848 0.170253
0.219018 0.009699 0.179257
0.225730 0.005272 0.180702
0.212505 0.006860 0.180749
0.218946 0.011083 0.149626
0.196273 0.009551 0.181077
0.225601 0.008064 0.175253
0.192555 0.011425 0.171037
0.232062 -0.000039 0.173312
0.208134 0.009046 0.181954
0.202644 0.005250 0.185334
0.216154 0.002986 0.185208
0.224153 0.005455 0.176010
0.221885 0.000920 0.182152
0.227234 0.006484 0.175415
0.224090 0.002514 0.184740
0.229197 0.001145 0.180748
0.207674 0.011982 0.161862
0.212518 0.010453 0.176271
0.234833 -0.000646 0.172436
0.228851 0.005179 0.177953
0.207478 0.010141 0.173852
0.216521 0.009251 0.169894
0.226583 0.006000 0.182238
0.234378 -0.001009 0.182510
0.227066 0.009469 0.174311
0.231165 0.000960 0.182563
0.231513 0.008210 0.154178
0.225884 0.010382 0.169846
0.223822 0.008297 0.161312
0.228603 0.004724 0.163055
0.219725 0.007050 0.181005
-0.147636 -0.024095 -0.114144
-0.154746 -0.017737 -0.104305
-0.154213 -0.015913 -0.071941
-0.154668 -0.015794 -0.088108
-0.154142 -0.018411 -0.157600
-0.162998 -0.016547 -0.099893
-0.154842 -0.019911 -0.108135
-0.163327 -0.018499 -0.123320
-0.151387 -0.041185 -0.127919
-0.156138 -0.017371 -0.092493
-0.158610 -0.017070 -0.078903
-0.156044 -0.021580 -0.059709
-0.158532 -0.015845 -0.095374
-0.151282 -0.050913 -0.107454
-0.151510 -0.017535 -0.107532
-0.154202 -0.017587 -0.046863
-0.127813 -0.017435 -0.087215
-0.158525 -0.015711 -0.140140
-0.158333 -0.012321 -0.106143
-0.120227 -0.020236 -0.112186
-0.147372 -0.017177 -0.097877
-0.155815 -0.016907 -0.114951
-0.156850 -0.014835 -0.124998
-0.153330 -0.021589 -0.086261
-0.152087 -0.038934 -0.090758
-0.152955 -0.017781 -0.114044
-0.142869 -0.018333 -0.066797
-0.148150 -0.018761 -0.148237
-0.153464 -0.021133 -0.129482
-0.152406 -0.016628 -0.133788
-0.141962 -0.016120 -0.128211
-0.154836 -0.017051 -0.076666
-0.145105 0.085731 -0.040522
-0.146125 0.106618 -0.039330
-0.148282 0.119024 -0.020326
-0.146134 0.112456 -0.027212
-0.144745 0.093851 -0.056932
-0.146261 0.113841 -0.036243
-0.145024 0.088605 -0.034577
-0.145034 0.094773 -0.046032
-0.144501 0.078193 -0.046508
-0.145669 0.096483 -0.031029
-0.144420 0.096555 -0.025896
-0.143775 0.087159 -0.017131
-0.147416 0.121318 -0.030024
-0.143103 0.075759 -0.038085
-0.146368 0.111789 -0.044213
-0.146345 0.108429 -0.015153
-0.147545 0.106906 -0.032784
-0.145987 0.113284 -0.053160
-0.148097 0.127444 -0.037943
-0.145870 0.094125 -0.040167
-0.146260 0.101518 -0.036389
-0.146007 0.107369 -0.047885
-0.147663 0.120208 -0.042098
-0.144752 0.089563 -0.026005
-0.144737 0.080103 -0.028312
-0.145215 0.100111 -0.043463
-0.146187 0.099139 -0.017625
-0.146229 0.104805 -0.057054
-0.143891 0.088912 -0.050474
-0.145555 0.100285 -0.051230
-0.148674 0.121707 -0.048689
-0.146542 0.104748 -0.023529
-0.166037 0.273787 0.022017
-0.170213 0.292532 0.025364
-0.175509 0.304462 0.046028
-0.171942 0.298565 0.037959
-0.166451 0.280409 0.004841
-0.171041 0.299453 0.028643
-0.165635 0.274866 0.029917
-0.166895 0.282130 0.016374
-0.163619 0.265328 0.016806
-0.168019 0.282617 0.033567
-0.166852 0.284026 0.039975
-0.164591 0.273892 0.049314
-0.175411 0.306814 0.035027
-0.161753 0.262926 0.025879
-0.171992 0.297770 0.020306
-0.171236 0.293996 0.051019
-0.172908 0.293101 0.032361
-0.171695 0.299158 0.008474
-0.176897 0.312838 0.025079
-0.168346 0.280058 0.024486
-0.169673 0.287140 0.028633
-0.170500 0.294003 0.016247
-0.174862 0.305788 0.020860
-0.165952 0.276565 0.039953
-0.164564 0.266832 0.036432
-0.168065 0.285918 0.020651
-0.169548 0.285088 0.047785
-0.170384 0.290526 0.005296
-0.164284 0.275405 0.011523
-0.169261 0.288276 0.011714
-0.176081 0.306134 0.013632
-0.171037 0.291514 0.042414
0.210360 0.006051 -0.006847
0.186190 0.004255 0.030493
0.195288 0.004694 0.111041
0.171972 0.004516 0.080989
0.182723 0.004702 -0.080456
0.149016 0.003313 0.039856
0.188543 0.003767 0.008181
0.151654 0.003381 -0.031098
0.199427 0.006602 -0.025510
0.161635 0.003315 0.063941
0.155570 0.003621 0.096391
0.167689 0.004106 0.133003
0.190982 0.005317 0.058973
0.171168 0.005009 0.022492
0.206904 0.005397 0.033009
0.189500 0.003936 0.140172
0.221759 0.006039 0.091385
0.163805 0.002816 -0.060640
0.177203 0.004491 0.051821
0.222813 0.004831 0.018795
0.218331 0.004394 0.058975
0.160752 0.002486 0.004797
0.164823 0.004756 -0.020823
0.187080 0.003917 0.092023
0.202388 0.005349 0.075237
0.202909 0.004730 0.011683
0.210043 0.006282 0.124101
0.203532 0.004154 -0.069031
0.179933 0.004642 -0.014025
0.183948 0.002882 -0.043492
0.217156 0.003241 -0.041644
0.175812 0.004034 0.110323
-0.039149 -0.009924 -0.086632
-0.064175 -0.011034 -0.069404
-0.055950 -0.010553 -0.033161
-0.079946 -0.010887 -0.044259
-0.068648 -0.010887 -0.123424
-0.100498 -0.012483 -0.065437
-0.061492 -0.011383 -0.087760
-0.098775 -0.012375 -0.094968
-0.053468 -0.009310 -0.098497
-0.089187 -0.012375 -0.055838
-0.093207 -0.012321 -0.037713
-0.081428 -0.011195 -0.020446
-0.057543 -0.010564 -0.055386
-0.078469 -0.010904 -0.069279
-0.043791 -0.009751 -0.067079
-0.060776 -0.010367 -0.018458
-0.028126 -0.009231 -0.038282
-0.085741 -0.012710 -0.113246
-0.072778 -0.010643 -0.055283
-0.025047 -0.009201 -0.073211
-0.034840 -0.010431 -0.055131
-0.089618 -0.012051 -0.079707
-0.081237 -0.011986 -0.097557
-0.064708 -0.010959 -0.045099
-0.047696 -0.009348 -0.047457
-0.050306 -0.010999 -0.076435
-0.041603 -0.009452 -0.022963
-0.045574 -0.010939 -0.117017
-0.070215 -0.010330 -0.082282
-0.065991 -0.011622 -0.106455
-0.031035 -0.010687 -0.106268
-0.072376 -0.011200 -0.030258
0.224279 -0.015624 0.179422
0.198990 -0.016133 0.169887
0.217061 -0.017448 0.179924
0.176853 -0.023040 0.179063
0.196262 -0.021286 0.164437
0.145103 -0.018609 0.187626
0.203499 -0.013308 0.192873
0.154661 -0.011789 0.184679
0.222012 -0.021187 0.171405
0.192254 -0.016164 0.179897
0.172215 -0.020680 0.183532
0.196454 -0.021037 0.179088
0.201618 -0.017282 0.172360
0.181384 -0.017497 0.182149
0.213861 -0.023815 0.175577
0.199366 -0.015852 0.173300
0.221612 -0.015602 0.174247
0.173507 -0.014425 0.187227
0.190251 -0.014094 0.184183
0.217757 -0.018356 0.164926
0.218882 -0.009962 0.172675
0.173091 -0.015846 0.167435
0.187463 -0.017504 0.188350
0.213009 -0.019843 0.187766
0.215186 -0.024044 0.186546
0.217708 -0.008010 0.178585
0.225926 -0.017691 0.177360
0.212059 -0.010278 0.163406
0.202152 -0.013108 0.172492
0.212767 -0.019402 0.167110
0.215723 -0.025824 0.177428
0.202749 -0.012154 0.169272
0.232560 -0.060558 0.157118
0.238153 -0.049540 0.163374
0.239317 -0.037440 0.185278
0.240111 -0.043484 0.179507
0.234602 -0.057886 0.126915
0.238594 -0.045966 0.169195
0.232894 -0.061791 0.166104
0.233381 -0.060143 0.151501
0.230276 -0.065984 0.149102
0.235329 -0.055651 0.174006
0.234516 -0.055735 0.181580
0.232566 -0.061082 0.189064
0.241361 -0.038265 0.175525
0.229076 -0.068203 0.162285
0.239463 -0.045543 0.156444
0.237171 -0.046507 0.191321
0.236444 -0.047483 0.173054
0.241059 -0.044026 0.137330
0.242179 -0.030692 0.164799
0.234743 -0.055375 0.162797
0.236913 -0.052348 0.168199
0.239150 -0.049193 0.150703
0.241188 -0.038095 0.155879
0.233514 -0.059176 0.180612
0.229463 -0.064113 0.175324
0.236155 -0.052682 0.155844
0.235277 -0.052919 0.188505
0.237422 -0.049605 0.130867
0.233283 -0.059144 0.141680
0.236544 -0.053973 0.141479
0.240011 -0.036434 0.146146
0.237558 -0.049683 0.183466
-0.145755 0.139376 -0.024850
-0.147410 0.157862 -0.022991
-0.150387 0.169459 -0.005537
-0.147922 0.163230 -0.011584
-0.145599 0.146274 -0.041344
-0.147262 0.164340 -0.020141
-0.145456 0.140867 -0.018574
-0.145339 0.146739 -0.030320
-0.144768 0.131913 -0.030019
-0.146671 0.148148 -0.015221
-0.145055 0.148818 -0.010330
-0.144390 0.140040 -0.002303
-0.149567 0.171349 -0.014458
-0.143368 0.129738 -0.022167
-0.147979 0.162707 -0.027899
-0.148001 0.159434 -0.000830
-0.149163 0.158239 -0.017095
-0.147785 0.164001 -0.037566
-0.150643 0.177400 -0.022163
-0.147124 0.146582 -0.023846
-0.147329 0.152907 -0.020106
-0.147411 0.158806 -0.031649
-0.149708 0.170583 -0.026050
-0.145388 0.142493 -0.010176
-0.145385 0.133547 -0.012691
-0.146269 0.152026 -0.027083
-0.147372 0.151219 -0.002908
-0.147709 0.156272 -0.041344
-0.144375 0.141512 -0.034762
-0.146910 0.152773 -0.035054
-0.150934 0.171724 -0.032773
-0.147932 0.156329 -0.008071
0.172456 0.004447 -0.067754
0.147859 0.002165 -0.031289
0.155662 0.002775 0.054750
0.133130 0.002728 0.022445
0.146175 0.002716 -0.135448
0.111427 0.001932 -0.019755
0.150115 0.001863 -0.054939
0.114135 0.001644 -0.093400
0.161066 0.003639 -0.084982
0.123532 0.001841 0.005170
0.117910 0.001439 0.039548
0.128535 0.001683 0.077450
0.152269 0.002776 -0.001018
0.132553 0.002242 -0.037637
0.170095 0.002667 -0.026980
0.151110 0.001902 0.085639
0.184914 0.003857 0.032487
0.126486 0.000595 -0.118697
0.138749 0.002990 -0.007531
0.185890 0.003326 -0.043103
0.180378 0.002225 -0.000892
0.122579 0.001018 -0.055218
0.125327 0.002855 -0.079726
0.147852 0.002159 0.034475
0.162820 0.002714 0.017384
0.165891 0.002637 -0.048573
0.172597 0.003789 0.067280
0.166336 0.001792 -0.126270
0.141585 0.002301 -0.074842
0.146712 0.000609 -0.102141
0.179964 0.001655 -0.102120
0.136717 0.001379 0.054066
0.235867 -0.059983 0.175185
0.238770 -0.014016 0.165251
0.236111 0.008749 0.182188
0.238276 -0.001310 0.191692
0.239710 -0.042329 0.141662
0.243848 -0.007643 0.174557
0.236912 -0.028108 0.188675
0.242641 -0.033111 0.152531
0.236914 -0.039149 0.159002
0.236625 -0.031842 0.180908
0.239177 -0.047895 0.178402
0.234274 -0.040220 0.188702
0.237602 0.013211 0.166123
0.239389 -0.046736 0.165259
0.238246 0.000265 0.165146
0.233527 -0.018834 0.189312
0.236564 -0.016487 0.175488
0.241245 -0.007607 0.160173
0.238112 -0.008232 0.183939
0.238829 -0.026261 0.163223
0.237253 -0.022099 0.183788
0.240613 -0.006068 0.141961
0.237987 0.003570 0.179141
0.237265 -0.040275 0.182422
0.235277 -0.057905 0.184962
0.238522 -0.024205 0.172726
0.236124 -0.011644 0.184662
0.237666 -0.024464 0.135720
0.238043 -0.060988 0.153443
0.236657 -0.017367 0.152546
0.237171 0.005610 0.153796
0.238150 -0.037477 0.169857
0.208625 -0.059620 0.130894
0.135944 -0.062501 0.097029
0.211826 -0.057524 0.162580
0.109399 -0.062477 0.187300
0.145930 -0.062405 0.043330
0.074284 -0.064755 0.125909
0.176016 -0.057935 0.171765
0.078872 -0.065885 0.074390
0.218947 -0.061810 0.078680
0.152427 -0.063672 0.122116
0.091787 -0.063120 0.151971
0.143771 -0.058639 0.183392
0.169987 -0.064487 0.066307
0.104504 -0.064562 0.115894
0.173768 -0.061503 0.134853
0.167678 -0.057707 0.198168
0.237350 -0.053080 0.111757
0.110273 -0.066188 0.094581
0.121865 -0.062871 0.161825
0.186727 -0.058126 0.078429
0.190539 -0.059746 0.141559
0.110524 -0.065323 0.048387
0.126752 -0.059845 0.136337
0.197926 -0.057673 0.188284
0.145348 -0.064583 0.149307
0.184373 -0.056257 0.108862
0.233600 -0.056413 0.157370
0.180575 -0.065034 0.034073
0.138926 -0.065690 0.076527
0.217971 -0.060678 0.048794
0.207761 -0.057535 0.105303
0.166675 -0.064732 0.098798
-0.151651 0.030606 -0.076556
-0.150007 0.053980 -0.075674
-0.149703 0.066136 -0.055384
-0.148767 0.059628 -0.062481
-0.150257 0.039688 -0.095036
-0.150791 0.061004 -0.071843
-0.151474 0.034892 -0.070321
-0.152575 0.041107 -0.082177
-0.151595 0.022363 -0.084066
-0.150702 0.043879 -0.066502
-0.151014 0.042830 -0.060654
-0.150052 0.033391 -0.052582
-0.148623 0.068103 -0.065092
-0.151087 0.019580 -0.074037
-0.149126 0.059189 -0.080534
-0.149714 0.056033 -0.050854
-0.150564 0.054013 -0.068406
-0.148474 0.060842 -0.090268
-0.148605 0.074126 -0.072758
-0.150731 0.040305 -0.076462
-0.150830 0.048959 -0.072411
-0.149665 0.054024 -0.084790
-0.149190 0.067350 -0.077983
-0.151058 0.035071 -0.061697
-0.151709 0.024890 -0.064158
-0.150134 0.047148 -0.080112
-0.150327 0.046269 -0.051800
-0.150079 0.051917 -0.094662
-0.150398 0.034848 -0.087702
-0.150100 0.045576 -0.088580
-0.149487 0.068995 -0.085468
-0.150072 0.051752 -0.058615
-0.146699 0.061180 -0.060589
-0.146903 0.082279 -0.059534
-0.148420 0.093967 -0.041559
-0.146471 0.087718 -0.048306
-0.145983 0.069225 -0.076448
-0.149357 0.089097 -0.056514
-0.146721 0.065147 -0.055060
-0.149283 0.070684 -0.065333
-0.146247 0.053191 -0.066878
-0.146869 0.072626 -0.051671
-0.147710 0.071689 -0.046616
-0.145270 0.062671 -0.038651
-0.147454 0.096122 -0.050948
-0.145219 0.050280 -0.058517
-0.146850 0.086820 -0.064062
-0.146992 0.083656 -0.036545
-0.148195 0.082701 -0.053684
-0.146451 0.088556 -0.072414
-0.147703 0.102259 -0.057798
-0.146857 0.069684 -0.060678
-0.147289 0.077636 -0.056977
-0.146853 0.082599 -0.067538
-0.147681 0.094525 -0.062010
-0.146285 0.065121 -0.047317
-0.146291 0.055178 -0.049394
-0.146386 0.075742 -0.063822
-0.147037 0.074956 -0.038587
-0.147189 0.080467 -0.076290
-0.145352 0.064551 -0.069903
-0.146487 0.075139 -0.070595
-0.148451 0.096377 -0.068383
-0.147236 0.079948 -0.044829
-0.226599 0.183672 -0.020268
-0.236511 0.290027 -0.039674
-0.246332 0.342599 0.007693
-0.239337 0.326558 0.030855
-0.225207 0.227531 -0.078013
-0.240457 0.315455 -0.025980
-0.233168 0.260820 0.025520
-0.232398 0.256795 -0.071305
-0.227403 0.229433 -0.052718
-0.228344 0.251324 -0.000606
-0.229251 0.221507 -0.006907
-0.227015 0.229398 0.038535
-0.245211 0.354983 -0.041864
-0.224023 0.213415 -0.042675
-0.240927 0.331623 -0.038608
-0.237682 0.285367 0.041252
-0.241537 0.289054 -0.015450
-0.240321 0.310569 -0.053446
-0.236807 0.310637 0.004926
-0.228751 0.261369 -0.046913
-0.236286 0.275792 0.004733
-0.238926 0.311533 -0.086886
-0.238173 0.330783 -0.011665
-0.229468 0.226020 0.008112
-0.222184 0.190241 0.010143
-0.232172 0.264656 -0.023165
-0.241866 0.292716 0.023853
-0.232824 0.272636 -0.086631
-0.219786 0.182264 -0.063232
-0.238327 0.285000 -0.062834
-0.243131 0.339604 -0.065235
-0.228904 0.234686 -0.024246
0.118725 0.000293 -0.096989
0.094568 -0.001927 -0.060019
0.101998 -0.000828 0.019832
0.079423 -0.000814 -0.009734
0.092969 -0.000895 -0.163454
0.056876 -0.002242 -0.049557
0.096379 -0.001896 -0.086273
0.060114 -0.002001 -0.119677
0.106774 0.000039 -0.113427
0.068739 -0.002266 -0.026151
0.063963 -0.002506 0.006699
0.074117 -0.001976 0.042147
0.098917 -0.000909 -0.030598
0.078886 -0.001173 -0.064979
0.116669 -0.000957 -0.055547
0.097450 -0.001537 0.046715
0.131539 0.000761 0.001515
0.072613 -0.003393 -0.146658
0.085163 -0.000860 -0.037037
0.133117 -0.000424 -0.071024
0.127609 -0.001406 -0.030824
0.068583 -0.002819 -0.082622
0.071185 -0.001025 -0.108701
0.093362 -0.001640 0.000478
0.109905 -0.000723 -0.013917
0.112097 -0.001504 -0.076243
0.118124 0.000375 0.032446
0.112844 -0.001987 -0.153216
0.087700 -0.001346 -0.101457
0.092437 -0.002663 -0.130690
0.126521 -0.001921 -0.130162
0.082421 -0.001957 0.021658
-0.176970 -0.045150 -0.145395
-0.190332 0.024329 -0.163630
-0.192887 0.067182 -0.113152
-0.194424 0.046822 -0.099251
-0.188890 -0.030304 -0.183147
-0.203053 0.025939 -0.149220
-0.189508 -0.009249 -0.101461
-0.201381 -0.015470 -0.176330
-0.176235 -0.028488 -0.172358
-0.192272 -0.018821 -0.129990
-0.200031 -0.033810 -0.126902
-0.189948 -0.027905 -0.084057
-0.193787 0.088457 -0.169125
-0.196092 -0.034983 -0.161781
-0.195914 0.063401 -0.146134
-0.191660 0.012550 -0.076653
-0.178612 -0.001221 -0.149598
-0.199104 0.050536 -0.167291
-0.198058 0.009349 -0.119533
-0.188700 -0.001637 -0.165835
-0.187310 -0.001281 -0.127966
-0.198980 0.021459 -0.186807
-0.186600 0.036872 -0.136310
-0.177522 -0.026716 -0.104718
-0.184267 -0.050323 -0.116518
-0.194569 -0.005860 -0.151579
-0.183524 0.015110 -0.109389
-0.185240 -0.010570 -0.187771
-0.184444 -0.056308 -0.169034
-0.183385 0.015207 -0.177171
-0.184772 0.046090 -0.163376
-0.180207 -0.026221 -0.148134
-0.151110 0.193032 -0.010930
-0.153698 0.212274 -0.008377
-0.157830 0.224691 0.011224
-0.154672 0.218234 0.004001
-0.151162 0.200045 -0.027422
-0.153742 0.219198 -0.005404
-0.150608 0.194204 -0.003671
-0.151001 0.201035 -0.016551
-0.149595 0.184906 -0.016098
-0.152332 0.202066 -0.000158
-0.150823 0.203192 0.005401
-0.149604 0.193665 0.014810
-0.157265 0.226864 0.000904
-0.147892 0.182814 -0.007712
-0.154835 0.217720 -0.013554
-0.154617 0.214088 0.016586
-0.156058 0.212968 -0.001862
-0.154502 0.218943 -0.023811
-0.158414 0.233307 -0.007903
-0.153123 0.200197 -0.009194
-0.153518 0.207147 -0.005174
-0.153745 0.213494 -0.017368
-0.157009 0.225967 -0.011796
-0.150892 0.196238 0.005928
-0.150418 0.186630 0.002607
-0.152084 0.205802 -0.012796
-0.153697 0.205121 0.013561
-0.154044 0.210512 -0.027542
-0.149471 0.194876 -0.021028
-0.153032 0.207450 -0.021179
-0.158474 0.226906 -0.018951
-0.154338 0.211066 0.008065
-0.157686 0.235847 0.000621
-0.160682 0.253308 0.003507
-0.165363 0.265086 0.021531
-0.162078 0.258939 0.014954
-0.157921 0.241892 -0.015134
-0.161043 0.259860 0.006240
-0.157108 0.236555 0.007691
-0.157901 0.243051 -0.004679
-0.155764 0.228147 -0.004073
-0.159058 0.243657 0.010852
-0.157744 0.245219 0.016232
-0.156122 0.236079 0.024862
-0.164923 0.266928 0.011908
-0.154071 0.226100 0.003681
-0.162133 0.258310 -0.001281
-0.161822 0.254905 0.026431
-0.163170 0.253950 0.009362
-0.162026 0.259652 -0.011752
-0.166312 0.273305 0.003510
-0.159853 0.242070 0.002686
-0.160430 0.248302 0.006505
-0.160952 0.254656 -0.005085
-0.164538 0.266023 -0.000084
-0.157446 0.238618 0.016718
-0.156658 0.229429 0.013385
-0.158976 0.247316 -0.000789
-0.160498 0.246611 0.023537
-0.161198 0.251544 -0.014972
-0.155906 0.237221 -0.009008
-0.160107 0.249228 -0.008673
-0.165937 0.266749 -0.006888
-0.161423 0.252220 0.018594
-0.185969 0.339558 0.014811
-0.190517 0.351884 0.021835
-0.196978 0.361235 0.044705
-0.193125 0.357175 0.034876
-0.186166 0.343733 -0.007924
-0.192058 0.358560 0.025346
-0.184572 0.339011 0.024036
-0.186145 0.346346 0.008590
-0.182859 0.333577 0.008635
-0.187420 0.344787 0.029513
-0.186382 0.347556 0.036072
-0.184274 0.338963 0.046690
-0.197384 0.362269 0.030929
-0.179842 0.330571 0.018909
-0.192825 0.355086 0.016156
-0.191664 0.353373 0.049923
-0.193602 0.351981 0.029156
-0.193388 0.358142 -0.003230
-0.199970 0.368929 0.017553
-0.187984 0.342706 0.019102
-0.189653 0.346794 0.024446
-0.190817 0.353678 0.011165
-0.196460 0.361994 0.011801
-0.185244 0.340193 0.037164
-0.183511 0.333699 0.029985
-0.188226 0.347628 0.015417
-0.189341 0.346316 0.043681
-0.190941 0.350932 -0.004199
-0.184062 0.341385 0.003163
-0.190329 0.350682 0.002891
-0.197265 0.361326 0.004273
-0.192146 0.352205 0.039958
-0.194209 -0.077017 -0.208349
-0.185136 -0.001185 -0.216823
-0.172416 0.023917 -0.213217
-0.186697 0.008761 -0.210964
-0.194958 -0.051815 -0.215504
-0.186898 -0.006540 -0.211409
-0.191744 -0.031798 -0.208109
-0.197678 -0.041405 -0.212888
-0.200769 -0.073104 -0.212894
-0.196871 -0.042538 -0.210642
-0.200232 -0.071959 -0.208044
-0.201790 -0.061952 -0.209076
-0.176083 0.029337 -0.216305
-0.201777 -0.080766 -0.215008
-0.177835 0.008205 -0.212796
-0.193658 -0.007849 -0.211137
-0.186303 -0.008787 -0.213607
-0.184143 0.008699 -0.216427
-0.189133 -0.017745 -0.210860
-0.195878 -0.026295 -0.216410
-0.187431 -0.018280 -0.211016
-0.191089 -0.013823 -0.218415
-0.184499 0.006167 -0.208977
-0.190683 -0.048663 -0.210382
-0.201372 -0.086721 -0.214328
-0.196176 -0.034235 -0.208190
-0.187862 -0.000092 -0.214322
-0.192258 -0.031746 -0.217453
-0.202675 -0.102388 -0.211964
-0.189238 -0.013835 -0.213228
-0.180684 0.012380 -0.216442
-0.188247 -0.042721 -0.217089
-0.156053 -0.030157 -0.125873
-0.160761 -0.018211 -0.116394
-0.161630 -0.015313 -0.065588
-0.161629 -0.015902 -0.085578
-0.158685 -0.020724 -0.163552
-0.180885 -0.016020 -0.108990
-0.159953 -0.023193 -0.114519
-0.184330 -0.018546 -0.135695
-0.156316 -0.046656 -0.141871
-0.165341 -0.018320 -0.096955
-0.173812 -0.017832 -0.076791
-0.160967 -0.023728 -0.048798
-0.163737 -0.014433 -0.102378
-0.155716 -0.059081 -0.120493
-0.158637 -0.016858 -0.119858
-0.160947 -0.018705 -0.030779
-0.149574 -0.019116 -0.092469
-0.166795 -0.015355 -0.150610
-0.164611 -0.011664 -0.113947
-0.146820 -0.023954 -0.123591
-0.157976 -0.018213 -0.107220
-0.166759 -0.017531 -0.128833
-0.162681 -0.014477 -0.138077
-0.158566 -0.025631 -0.086984
-0.156721 -0.045121 -0.093257
-0.159377 -0.017963 -0.128063
-0.155251 -0.020607 -0.057523
-0.157512 -0.019583 -0.155024
-0.157279 -0.026510 -0.141150
-0.157906 -0.017996 -0.144673
-0.155823 -0.015313 -0.141663
-0.160814 -0.017546 -0.074558
-0.003034 -0.378281 -0.203827
-0.055719 -0.373655 -0.202905
-0.020468 -0.375300 -0.200390
-0.074308 -0.374584 -0.201613
-0.069694 -0.378054 -0.202155
-0.103675 -0.375138 -0.203482
-0.046752 -0.373961 -0.203608
-0.120046 -0.377770 -0.204311
-0.033677 -0.389711 -0.201571
-0.071619 -0.375232 -0.204440
-0.095513 -0.380138 -0.202696
-0.059810 -0.378685 -0.201473
-0.031846 -0.373990 -0.202192
-0.072914 -0.387239 -0.204427
-0.023149 -0.373431 -0.203501
-0.037071 -0.375273 -0.201593
0.016047 -0.375087 -0.204265
-0.083101 -0.376132 -0.204195
-0.062191 -0.374404 -0.202686
0.028555 -0.376564 -0.203525
-0.008864 -0.372760 -0.203753
-0.088473 -0.375437 -0.204719
-0.053523 -0.373766 -0.204397
-0.033597 -0.376097 -0.203977
-0.014967 -0.382581 -0.204337
-0.041615 -0.376663 -0.204277
0.003704 -0.377247 -0.201448
-0.017347 -0.376492 -0.201594
-0.050189 -0.383055 -0.201914
-0.027069 -0.377633 -0.203541
