-0.208887 -0.386211 0.216320
-0.225277 -0.359579 0.208504
-0.222301 -0.324067 0.215273
-0.181766 -0.371883 0.208977
-0.216255 -0.294308 0.214883
-0.214290 -0.273343 0.215847
-0.150699 -0.371723 0.209676
-0.201266 -0.336270 0.181643
-0.124626 -0.379807 0.212410
-0.205977 -0.248682 0.210812
-0.202674 -0.228005 0.208095
-0.099119 -0.380824 0.211974
-0.194659 -0.187225 0.207182
-0.177323 -0.277144 0.176713
-0.064842 -0.372563 0.208915
-0.189182 -0.139142 0.213773
-0.038481 -0.372021 0.209099
-0.217701 -0.220441 0.139082
-0.182831 -0.111638 0.213040
-0.015609 -0.379046 0.212234
-0.177210 -0.092903 0.207237
-0.175434 -0.073174 0.212021
0.020167 -0.379210 0.212099
-0.174748 -0.042309 0.212633
0.043018 -0.379919 0.211889
-0.214802 -0.013202 0.180930
0.062473 -0.371814 0.210115
-0.167205 0.009427 0.212390
-0.163750 -0.018524 0.201003
-0.131661 -0.147009 0.165309
-0.194463 -0.076107 0.148179
-0.159494 -0.041558 0.172695
-0.202606 -0.144498 0.091785
0.104724 -0.377891 0.212972
-0.149786 -0.014765 0.186356
-0.165166 -0.020366 0.166601
-0.159057 0.027877 0.190449
0.126131 -0.374976 0.213983
-0.127010 -0.006340 0.186831
-0.165222 0.021655 0.169271
-0.171972 -0.064294 0.123090
-0.203184 0.086155 0.165945
-0.185749 -0.131796 0.080164
-0.150250 0.063354 0.187569
-0.154448 0.034762 0.162258
-0.212557 0.131376 0.153227
-0.149239 0.104362 0.188825
-0.087533 -0.002287 0.185544
-0.112404 -0.014164 0.154655
-0.149844 0.053828 0.150391
-0.060186 -0.010293 0.186871
-0.182023 0.074403 0.132853
-0.199951 0.020502 0.092585
0.145124 -0.277123 0.211884
-0.154106 0.030221 0.128825
-0.146540 0.087899 0.158790
-0.144380 0.138551 0.182834
-0.149521 0.163578 0.189333
-0.201164 0.065306 0.100685
-0.050483 -0.044027 0.160169
-0.150437 0.186644 0.187774
-0.097092 0.051921 0.167616
-0.056957 -0.072262 0.141097
-0.114563 -0.014675 0.121943
-0.148406 0.068756 0.133355
-0.156585 0.207112 0.188580
-0.242052 0.197140 0.113552
-0.145517 0.118576 0.150932
-0.145740 0.139977 0.160148
-0.157312 0.226272 0.187853
0.215650 -0.340876 0.205601
-0.165046 0.248935 0.189477
-0.208013 0.240337 0.152324
-0.011139 -0.007022 0.188718
-0.121945 -0.015177 0.101107
-0.155198 0.030234 0.094668
-0.042138 -0.010182 0.159438
-0.146065 0.103621 0.131617
-0.173057 0.281612 0.189175
-0.149320 0.060651 0.108677
-0.147483 0.166613 0.154698
-0.150864 0.197230 0.165810
-0.229022 0.132852 0.075363
0.011738 -0.007342 0.187890
0.233541 -0.352084 0.189742
-0.146134 0.143580 0.136696
-0.073616 -0.013315 0.120476
-0.140520 0.147642 0.140686
-0.173308 0.299116 0.181147
-0.125058 -0.016886 0.076722
-0.146192 0.096065 0.111913
-0.230189 0.313906 0.144343
-0.156134 0.230865 0.162264
-0.043793 -0.010082 0.138807
-0.276877 0.233375 0.070926
0.026700 -0.039382 0.177390
-0.189367 -0.036068 0.015874
-0.165232 0.270664 0.171488
-0.186360 0.336913 0.183270
-0.160334 0.250534 0.164660
-0.199546 0.366057 0.185663
-0.000352 0.015857 0.178658
-0.065165 -0.048492 0.099307
-0.150550 0.193279 0.143575
-0.147588 0.163482 0.132259
0.035260 -0.003397 0.191215
-0.145767 0.124801 0.112741
-0.148140 0.072215 0.085385
-0.205542 0.094650 0.051871
-0.209170 0.375810 0.172083
-0.055158 -0.010790 0.116845
0.239070 -0.320783 0.187183
-0.152739 0.037459 0.060545
-0.146401 0.092270 0.087806
-0.208067 0.033582 0.013257
-0.170670 0.291192 0.155200
-0.149632 0.185817 0.124817
-0.129456 -0.017946 0.047429
-0.153536 0.212042 0.132188
-0.221622 -0.383228 -0.202366
-0.163472 0.263757 0.144827
-0.182033 -0.046923 -0.009710
0.056151 -0.003107 0.188839
0.239168 -0.292180 0.187931
-0.147488 0.164850 0.111699
-0.179983 0.321657 0.154633
0.233408 -0.272281 0.190075
-0.227623 -0.358236 -0.200998
-0.135169 0.046244 0.064631
-0.187797 0.343194 0.154576
-0.148137 0.072766 0.064825
-0.203130 -0.343707 -0.177282
0.006333 0.138333 0.207887
0.202629 -0.194081 0.198606
0.015047 -0.006750 0.145671
-0.145650 0.121685 0.082986
-0.227111 -0.337203 -0.200223
-0.146276 0.093712 0.066612
-0.156985 0.232716 0.119318
-0.196545 -0.376487 -0.198977
0.232843 -0.242641 0.189489
-0.168647 0.284737 0.132155
0.091895 -0.036823 0.180112
0.200832 -0.228468 0.171003
-0.146800 0.156951 0.087371
-0.134413 -0.018837 0.017174
-0.217552 0.374708 0.129454
-0.051349 -0.010508 0.083356
-0.152779 0.039696 0.029476
-0.149571 0.185153 0.095895
0.074371 -0.002957 0.177233
-0.176562 0.313125 0.130983
-0.208407 -0.229197 -0.144570
-0.147814 0.075481 0.045001
0.093607 -0.000083 0.188411
-0.163918 0.266071 0.114851
-0.196047 0.361977 0.131406
-0.213765 -0.037143 -0.062653
-0.153413 0.213597 0.097552
-0.182475 0.330464 0.126987
0.238614 -0.221709 0.187027
-0.171834 -0.382589 -0.202480
0.232768 -0.201286 0.189228
-0.244517 0.381902 0.097593
0.010453 -0.007060 0.115761
-0.252246 0.245419 0.027340
-0.156958 0.234463 0.093928
-0.168405 0.285456 0.106698
0.012328 -0.072549 0.081333
-0.138600 -0.019201 -0.008639
-0.148483 0.173729 0.070814
0.114708 0.007131 0.190226
-0.175303 -0.298377 -0.174940
-0.147722 0.073498 0.022818
-0.154132 0.033193 -0.001731
-0.163276 0.265037 0.096068
-0.145717 0.115363 0.042247
-0.213980 -0.295553 -0.208141
0.232641 -0.172162 0.188532
-0.158655 0.034030 -0.006565
-0.182476 0.330774 0.107582
-0.054690 -0.010410 0.049362
0.134702 -0.060551 0.166324
-0.146367 0.147985 0.051394
-0.221555 0.373991 0.093934
-0.150665 0.195488 0.068966
-0.191974 0.354251 0.107689
-0.213466 -0.273481 -0.200544
-0.173381 0.303492 0.097708
0.073399 -0.002329 0.144829
-0.146057 0.098987 0.026239
-0.217866 0.281288 0.052983
0.087969 0.026807 0.166240
0.232399 -0.152292 0.188153
0.133113 0.003126 0.187916
-0.156669 0.233603 0.075219
-0.199449 -0.062287 -0.094989
0.205335 -0.138576 0.171703
-0.212527 -0.253458 -0.200217
-0.161055 0.254559 0.075992
0.182286 -0.056681 0.189415
-0.148473 0.176637 0.049331
-0.178991 0.321499 0.089179
-0.185388 0.031933 -0.046245
-0.144131 -0.020548 -0.039713
-0.270167 0.346093 0.027656
0.038639 -0.011394 0.099277
0.232150 -0.123407 0.187898
-0.146810 0.084084 0.001292
-0.145587 0.138310 0.026919
-0.191505 0.354268 0.087451
-0.059796 -0.010900 0.022202
0.156294 0.002975 0.186703
0.238506 -0.104323 0.196310
-0.154273 0.032539 -0.033053
-0.111080 -0.379679 -0.200222
-0.191070 0.090929 -0.040090
0.070916 -0.002488 0.113245
0.231762 -0.094057 0.188217
0.127781 0.001559 0.155879
-0.205308 -0.217722 -0.200411
-0.224414 0.372716 0.058111
-0.148381 0.066888 -0.020353
-0.147434 0.167048 0.024763
-0.168106 0.285866 0.059916
-0.154892 0.223688 0.041785
-0.059237 -0.025576 0.000926
0.009074 -0.006654 0.060342
-0.191174 -0.167610 -0.169252
-0.178335 0.320631 0.065534
-0.210944 0.171275 -0.027933
0.175798 0.003033 0.182874
0.143671 -0.009847 0.154304
-0.151947 0.202738 0.030090
-0.159059 0.245478 0.043192
-0.149573 -0.021163 -0.072012
-0.145204 0.120670 -0.003081
-0.063823 -0.011107 -0.003115
0.231574 -0.054180 0.189311
-0.146332 0.089980 -0.024744
-0.185651 0.341136 0.056536
0.197001 0.006133 0.186117
-0.146655 0.159061 0.001026
-0.197511 -0.181626 -0.200302
-0.195336 0.362240 0.051758
-0.011569 -0.043053 0.008054
-0.154038 0.029889 -0.068366
0.220555 -0.015265 0.188494
-0.163579 0.267362 0.030262
-0.077566 -0.374400 -0.205933
-0.116497 -0.037612 -0.072864
0.233385 -0.086818 0.163070
0.231791 -0.024804 0.189502
-0.149658 0.189308 0.004413
-0.148356 0.067611 -0.051511
-0.177785 0.318974 0.038436
-0.145572 0.131697 -0.022580
-0.208519 0.166634 -0.055263
-0.268163 0.287173 -0.047207
-0.056818 -0.382925 -0.201803
-0.155712 0.230966 0.013549
-0.268752 0.380528 -0.009523
-0.190797 -0.161519 -0.200784
-0.148690 0.176149 -0.009439
0.224067 0.009863 0.188416
-0.155608 -0.019866 -0.108881
-0.145448 0.109185 -0.042707
-0.169132 0.289914 0.019655
0.176666 0.003401 0.147216
-0.068216 -0.011278 -0.041442
0.166950 0.117568 0.190339
0.238340 -0.052168 0.164703
-0.146949 0.156982 -0.025079
0.128200 0.002067 0.108239
0.245074 -0.032579 0.176356
0.181196 -0.040749 0.125979
-0.149630 0.057908 -0.076254
-0.146660 0.086441 -0.060818
-0.212556 0.293680 -0.017697
0.077330 -0.002175 0.065110
-0.202995 -0.027518 -0.159885
-0.152752 0.210353 -0.012969
-0.159644 0.249665 -0.000137
-0.189063 0.348693 0.020028
-0.135541 -0.125596 -0.159362
-0.163917 -0.020888 -0.133024
-0.034479 -0.374190 -0.205972
-0.184982 -0.136987 -0.209071
0.125513 -0.066817 0.061415
-0.180868 0.328639 0.009926
-0.165532 0.275325 -0.002594
-0.175113 0.312808 0.007207
-0.183393 -0.116520 -0.200602
0.237159 -0.003642 0.167872
-0.192985 0.069522 -0.119850
0.224935 -0.093841 0.116263
0.238575 -0.024974 0.156522
-0.065484 -0.011363 -0.062051
-0.146934 0.158010 -0.048396
-0.149109 0.179346 -0.040099
-0.145575 0.120460 -0.065355
0.216372 0.016480 0.155028
-0.161757 0.259373 -0.015847
-0.007965 -0.380476 -0.201706
-0.148133 0.069824 -0.093741
-0.157977 0.239687 -0.024194
-0.183207 -0.096886 -0.200834
0.126189 -0.033571 0.063973
-0.146567 0.088187 -0.085505
0.076416 -0.002163 0.039068
-0.150765 0.049272 -0.108721
-0.154851 0.026608 -0.125556
-0.196802 0.363349 -0.005761
0.235327 -0.064887 0.120149
0.238471 -0.035160 0.134356
-0.068217 -0.011631 -0.081099
-0.178766 0.322161 -0.013279
0.222162 -0.090187 0.098023
0.236893 -0.003222 0.145666
-0.171613 0.298456 -0.023707
-0.131508 0.000889 -0.128715
-0.189038 0.349075 -0.014842
-0.145737 0.138776 -0.078450
-0.175466 -0.067431 -0.200405
-0.162626 -0.018933 -0.166705
0.238379 -0.051315 0.117810
-0.148071 0.169776 -0.067952
-0.145397 0.121872 -0.090381
-0.153663 0.210950 -0.054988
-0.242749 0.355950 -0.058802
-0.162944 0.261856 -0.041074
0.024312 -0.383096 -0.203544
0.159628 -0.122745 0.022498
-0.222574 0.115924 -0.159112
-0.152217 0.040238 -0.142834
-0.223153 0.373501 -0.048968
0.231535 0.008499 0.125914
-0.146069 0.093499 -0.116770
0.075294 -0.002513 0.005794
-0.157886 0.237563 -0.060406
-0.186135 0.051175 -0.168556
0.012274 -0.006826 -0.044982
-0.193322 0.357924 -0.035483
-0.147920 0.072048 -0.131309
-0.143851 -0.006832 -0.166117
-0.149760 0.186050 -0.081774
-0.168775 -0.037786 -0.200848
0.090293 -0.028067 0.001504
-0.161490 -0.018110 -0.187206
-0.147320 0.163851 -0.092067
-0.175812 0.311840 -0.047831
-0.181727 0.330476 -0.045006
-0.245996 0.210009 -0.149190
-0.233085 0.308910 -0.094737
0.014756 -0.012741 -0.053886
0.211178 0.019967 0.103472
-0.166886 0.074658 -0.153774
-0.145770 0.137278 -0.109971
0.238846 -0.012756 0.105994
-0.169552 0.288676 -0.059968
-0.205936 0.197852 -0.131004
-0.068108 -0.011323 -0.122662
-0.105025 -0.069396 -0.178732
0.062706 -0.383610 -0.203616
-0.151605 0.040923 -0.162951
-0.148676 0.062118 -0.153262
-0.160078 0.028436 -0.178921
-0.159411 0.244611 -0.079310
-0.155601 0.224378 -0.086978
-0.161671 -0.018745 -0.207953
-0.152457 0.205580 -0.098306
-0.145184 0.095281 -0.143421
0.217056 -0.096495 0.037919
0.238436 -0.043218 0.078384
-0.149402 0.182193 -0.107469
-0.145353 0.114980 -0.136044
-0.193372 0.359142 -0.063721
-0.178078 0.319244 -0.072135
-0.146469 0.081376 -0.157723
-0.165973 0.273641 -0.085659
0.178735 -0.016582 0.040056
-0.185151 0.338690 -0.073339
0.231475 0.009410 0.086392
0.222605 -0.011979 0.070304
-0.148242 0.062452 -0.173414
0.087921 -0.374736 -0.204636
-0.147549 0.158428 -0.130960
0.039080 -0.106828 -0.112302
0.238878 -0.011657 0.076955
-0.219244 0.371458 -0.094430
-0.155750 0.224534 -0.113458
-0.152225 0.200340 -0.121797
0.238476 -0.044142 0.056140
-0.161078 0.253908 -0.105526
-0.171800 0.295907 -0.096411
-0.145176 0.105907 -0.163192
-0.112379 0.015721 -0.181402
0.247264 -0.084255 0.038740
-0.185918 0.341490 -0.091203
-0.067451 0.028372 -0.143373
0.199006 -0.102581 -0.006081
-0.044689 -0.047148 -0.163074
0.120501 -0.383694 -0.202404
0.230815 0.010576 0.066149
-0.145960 0.144284 -0.156912
0.205743 -0.084601 0.000939
-0.150817 0.194090 -0.141049
-0.145231 0.092391 -0.185912
0.067129 -0.016145 -0.074806
-0.214968 0.369458 -0.115651
-0.172343 0.298014 -0.115945
0.239105 -0.015780 0.045818
-0.242978 0.349216 -0.148909
-0.158964 0.241856 -0.134733
-0.178415 0.317856 -0.114421
-0.147426 0.171074 -0.158093
0.238197 -0.053065 0.026067
-0.167344 0.279108 -0.124620
-0.192534 0.356165 -0.112285
0.216343 -0.095923 -0.013532
-0.144840 0.125860 -0.185127
-0.145544 0.146584 -0.177016
0.155066 -0.383920 -0.203207
0.080571 -0.231398 -0.184588
0.000069 -0.018320 -0.146491
0.238656 -0.024632 0.023634
0.221091 0.017936 0.030294
-0.154571 0.223457 -0.158051
-0.209685 0.367641 -0.138029
-0.165893 0.274273 -0.148538
-0.183130 0.221714 -0.186090
-0.148022 0.164186 -0.187036
-0.189601 0.349829 -0.135296
-0.160786 0.253386 -0.157250
0.237279 -0.000864 0.020846
-0.182375 0.330796 -0.142891
-0.150796 0.202203 -0.182965
-0.173642 0.303082 -0.154442
0.182013 -0.373921 -0.206833
-0.153664 0.221008 -0.177384
0.239042 -0.034771 -0.002350
0.217879 -0.090877 -0.045806
0.007707 -0.038619 -0.178107
0.205175 -0.387332 -0.200120
0.220505 0.018514 -0.000357
0.234436 -0.380240 -0.181396
0.098493 -0.046130 -0.121687
0.230320 -0.037065 -0.020562
0.239201 -0.012003 -0.002987
0.238276 -0.053873 -0.023467
-0.158671 0.246057 -0.183292
0.161026 0.037627 -0.038157
-0.189507 0.349452 -0.162871
0.236426 -0.359891 -0.177785
-0.170307 0.291076 -0.180042
-0.179365 0.321130 -0.173564
-0.204018 0.372573 -0.174526
0.202449 -0.351643 -0.208475
0.232310 -0.330338 -0.176693
0.217938 -0.084138 -0.069049
0.239171 -0.024555 -0.026369
0.029964 0.008978 -0.167037
0.228790 -0.375030 -0.205035
0.144595 -0.212911 -0.192475
0.237280 0.000162 -0.024767
0.206301 -0.281737 -0.184434
0.100402 -0.021118 -0.139315
0.219327 0.018681 -0.034559
0.232169 -0.298370 -0.176810
0.221476 -0.097118 -0.089688
-0.023589 0.116608 -0.172210
0.229189 -0.074889 -0.073657
0.118051 -0.091441 -0.169831
0.238730 -0.279040 -0.179106
0.238560 -0.043558 -0.065822
0.239218 -0.016999 -0.054290
0.181139 -0.116155 -0.147753
0.238226 -0.052470 -0.083901
0.225055 -0.098486 -0.115586
0.124022 0.005276 -0.144462
0.230173 0.009901 -0.064743
0.235750 -0.228550 -0.176030
0.226938 -0.012323 -0.096515
0.238321 -0.197788 -0.178659
0.239213 -0.021377 -0.097487
0.238496 -0.045748 -0.110323
0.221641 -0.083788 -0.143286
0.216627 0.017844 -0.099255
0.238014 -0.168297 -0.179217
0.158079 -0.063065 -0.188865
0.238034 -0.138632 -0.179503
0.230865 -0.118529 -0.177114
0.230437 0.009106 -0.120443
0.239381 -0.032903 -0.136608
0.215750 0.019138 -0.133668
0.239110 -0.011127 -0.131519
0.238792 -0.050921 -0.150479
0.235079 -0.100879 -0.177455
0.222649 -0.024736 -0.153343
0.152531 0.006789 -0.194855
0.232088 -0.156201 -0.216405
0.193605 -0.023507 -0.183327
0.209020 -0.036141 -0.183212
0.237896 -0.070211 -0.180194
0.239314 -0.026204 -0.158074
0.214724 0.018280 -0.156005
0.238800 -0.006800 -0.153139
0.244397 -0.062633 -0.175390
0.239260 -0.038816 -0.180890
0.238779 -0.007126 -0.176144
0.224634 0.014914 -0.178042
0.142459 0.109710 -0.216968
