-0.040826 0.400225 0.009108
-0.044573 0.370306 0.010973
-0.038487 0.386473 0.009139
-0.037876 0.417707 0.009437
-0.039979 0.392799 0.009074
-0.047551 0.257516 0.000584
-0.045595 0.304135 -0.005228
-0.044559 0.325599 -0.000747
-0.042965 0.309743 0.000288
-0.050276 0.273025 -0.006751
-0.042442 0.307416 -0.006936
-0.043712 0.285268 -0.000882
-0.045569 0.281051 -0.008278
-0.051399 0.266744 -0.000977
-0.046202 0.277605 -0.001455
-0.041350 0.261863 -0.001825
-0.045180 0.264526 0.004187
-0.043862 0.330057 -0.004145
-0.045493 0.257877 -0.007440
-0.042123 0.315477 -0.005535
-0.045222 0.297632 0.003723
-0.048633 0.294216 -0.001314
-0.046763 0.313529 -0.008008
-0.043387 0.302403 -0.003845
-0.047606 0.288606 -0.006535
-0.044826 0.292648 -0.001537
-0.046532 0.302326 -0.008912
-0.045405 0.309615 -0.002349
-0.043351 0.272996 0.001563
-0.047008 0.249643 0.000698
-0.045873 0.285953 -0.002445
-0.046244 0.304191 0.000805
-0.050831 0.287247 -0.006034
-0.046747 0.250257 -0.003441
-0.049561 0.295617 -0.004317
-0.047777 0.317133 -0.004634
-0.043963 0.277250 -0.001742
-0.046173 0.348886 -0.011369
-0.047293 0.371246 -0.010774
-0.050892 0.385848 -0.005907
-0.050649 0.376815 -0.004418
-0.048269 0.357346 -0.010039
-0.051508 0.376125 -0.005251
-0.049456 0.360486 -0.011642
-0.052273 0.365945 -0.005358
-0.048151 0.339064 -0.011575
-0.049881 0.363100 -0.008723
-0.052038 0.358793 -0.001032
-0.050566 0.352017 0.002344
-0.045799 0.383897 -0.010070
-0.049884 0.334987 -0.008599
-0.045231 0.372375 -0.012965
-0.051488 0.371010 0.005326
-0.047527 0.373144 -0.010901
-0.049176 0.381952 -0.008595
-0.048415 0.397020 -0.010341
-0.046354 0.357380 -0.012704
-0.047295 0.371340 -0.010676
-0.048870 0.371532 -0.008298
-0.047404 0.377304 -0.010398
-0.048289 0.352518 -0.010270
-0.050759 0.346405 -0.008287
-0.047104 0.361770 -0.010954
-0.050154 0.366109 -0.003654
-0.042728 0.367656 -0.012699
-0.047170 0.351936 -0.009541
-0.046225 0.363481 -0.011573
-0.044699 0.383306 -0.010573
-0.047917 0.367558 -0.008426
-0.034813 0.369801 0.000805
-0.034128 0.379663 -0.000548
-0.034938 0.388125 0.002811
-0.033130 0.382268 0.002874
-0.034819 0.373878 -0.005700
-0.031971 0.383250 -0.000776
-0.033912 0.372311 -0.001558
-0.032918 0.373908 -0.001698
-0.034233 0.365378 -0.001448
-0.034357 0.376157 0.001295
-0.031402 0.374528 0.003695
-0.033060 0.369533 0.004712
-0.032740 0.386425 0.001033
-0.032725 0.361951 -0.001178
-0.032703 0.381217 -0.002970
-0.034764 0.380426 0.005341
-0.035668 0.379838 -0.000811
-0.034954 0.384149 -0.004478
-0.034935 0.394432 -0.002157
-0.034638 0.373610 -0.001600
-0.033790 0.377923 -0.000346
-0.033137 0.380693 -0.002709
-0.034562 0.386783 -0.001653
-0.033962 0.371592 0.002182
-0.035057 0.366544 0.001870
-0.033550 0.376443 -0.001058
-0.034644 0.377093 0.004942
-0.035659 0.378897 -0.004245
-0.032861 0.373218 -0.002098
-0.034848 0.377006 -0.002896
-0.035732 0.389182 -0.002961
-0.034679 0.378335 0.003482
-0.035966 0.364962 -0.003960
-0.035216 0.373794 -0.005523
-0.034494 0.383656 -0.003372
-0.033376 0.376910 -0.003049
-0.037805 0.368027 -0.009013
-0.033069 0.377743 -0.006829
-0.034932 0.367344 -0.006844
-0.035200 0.369181 -0.007007
-0.035694 0.360824 -0.005001
-0.034989 0.371241 -0.004804
-0.031548 0.369129 -0.002532
-0.032740 0.364647 -0.000887
-0.033408 0.381266 -0.004857
-0.034046 0.357023 -0.007017
-0.034310 0.374795 -0.007277
-0.034401 0.375328 -0.000314
-0.036182 0.374229 -0.005863
-0.037501 0.379633 -0.007947
-0.035874 0.390603 -0.007525
-0.035824 0.368160 -0.004941
-0.034764 0.372831 -0.005295
-0.035150 0.375060 -0.006977
-0.036053 0.380853 -0.006945
-0.034725 0.366586 -0.003695
-0.035781 0.361599 -0.004230
-0.035271 0.369558 -0.005709
-0.034294 0.370872 -0.001415
-0.038449 0.372421 -0.007003
-0.034993 0.368055 -0.005689
-0.036462 0.371432 -0.006104
-0.037282 0.382857 -0.006008
-0.034444 0.372469 -0.002366
-0.037245 0.384724 0.008557
-0.044679 0.411933 0.009527
-0.038913 0.443151 0.007301
-0.046379 0.421123 0.007134
-0.049765 0.394012 0.009010
-0.053696 0.420588 0.006979
-0.043151 0.403476 0.007538
-0.054373 0.404446 0.006623
-0.039560 0.368119 0.010357
-0.047649 0.404048 0.008748
-0.051597 0.382601 0.008189
-0.044244 0.384975 0.008222
-0.040805 0.434442 0.009598
-0.046473 0.363627 0.008498
-0.037760 0.421163 0.009118
-0.042235 0.417058 0.008003
-0.039115 0.417597 0.006814
-0.050807 0.433537 0.007242
-0.047719 0.457836 0.008389
-0.038199 0.393271 0.006640
-0.038435 0.416591 0.008508
-0.049884 0.412234 0.007741
-0.043585 0.427276 0.009034
-0.038808 0.388809 0.009378
-0.038242 0.377921 0.008079
-0.041314 0.395101 0.009058
-0.037135 0.407227 0.007489
-0.040675 0.411174 0.008949
-0.043326 0.381783 0.010504
-0.038345 0.397815 0.008970
-0.037676 0.429860 0.009343
-0.039301 0.404013 0.008868
-0.041032 0.345088 0.009499
-0.055438 0.412068 0.005963
-0.046169 0.430707 0.006841
-0.057674 0.407896 0.004561
-0.060542 0.362852 0.006588
-0.057860 0.404703 0.000867
-0.052042 0.383918 0.006611
-0.058332 0.374798 0.001791
-0.048300 0.352442 0.009436
-0.051911 0.365970 0.005940
-0.058325 0.348172 0.003020
-0.055252 0.354382 0.005885
-0.054197 0.436455 0.005304
-0.058097 0.339385 0.003292
-0.050616 0.421494 0.008274
-0.055040 0.398619 0.005969
-0.043657 0.381211 0.007121
-0.060319 0.422578 0.003165
-0.060705 0.393670 0.005960
-0.052686 0.388963 0.007142
-0.044930 0.396038 0.008772
-0.057706 0.395265 0.002622
-0.049581 0.407422 0.008178
-0.040319 0.365559 0.007858
-0.047989 0.333919 0.005888
-0.057028 0.375275 0.006732
-0.042185 0.402815 0.002355
-0.056060 0.378371 0.004808
-0.055292 0.321843 0.008685
-0.044891 0.389030 0.009254
-0.043894 0.414505 0.010446
-0.043956 0.372125 0.008471
-0.034676 0.380668 0.000772
-0.034164 0.389582 -0.000394
-0.034975 0.399368 0.002591
-0.033152 0.392537 0.002742
-0.034969 0.384262 -0.005828
-0.032110 0.393475 -0.000681
-0.033822 0.382786 -0.001822
-0.033052 0.384150 -0.001507
-0.033956 0.376252 -0.001461
-0.034231 0.386377 0.001048
-0.031153 0.384763 0.003307
-0.032911 0.379920 0.004527
-0.032792 0.397044 0.000727
-0.032568 0.372711 -0.001333
-0.032770 0.391053 -0.002897
-0.034784 0.390575 0.005242
-0.035619 0.390041 -0.000942
-0.035321 0.394774 -0.004402
-0.035295 0.407022 -0.002464
-0.034382 0.383826 -0.001538
-0.033681 0.388028 -0.000387
-0.033139 0.390732 -0.002539
-0.034535 0.396837 -0.001749
-0.033769 0.382207 0.002035
-0.034804 0.377326 0.001557
-0.033593 0.386525 -0.000964
-0.034598 0.387092 0.004480
-0.035837 0.388961 -0.004000
-0.032783 0.384282 -0.001930
-0.034874 0.387150 -0.002781
-0.035824 0.399669 -0.002881
-0.034645 0.388521 0.003132
-0.037926 0.370906 -0.007488
-0.040005 0.381117 -0.010400
-0.037292 0.392584 -0.010414
-0.038992 0.382377 -0.011966
-0.043216 0.372672 -0.011636
-0.042601 0.383527 -0.011748
-0.039401 0.375847 -0.012278
-0.044891 0.376464 -0.011873
-0.038690 0.361465 -0.008967
-0.040787 0.376919 -0.011073
-0.041760 0.369149 -0.010629
-0.037078 0.369146 -0.011329
-0.037852 0.389295 -0.009949
-0.041069 0.360944 -0.011801
-0.037111 0.381764 -0.010154
-0.037747 0.381104 -0.010132
-0.037851 0.381067 -0.007557
-0.044272 0.389052 -0.012215
-0.041776 0.397875 -0.011932
-0.037358 0.372399 -0.007419
-0.037489 0.380758 -0.009345
-0.042841 0.379643 -0.011194
-0.040365 0.386365 -0.011520
-0.037634 0.371180 -0.009398
-0.036833 0.366187 -0.009642
-0.039201 0.372358 -0.010124
-0.036333 0.376571 -0.008179
-0.041036 0.378484 -0.009180
-0.039579 0.368476 -0.009769
-0.038752 0.374156 -0.007969
-0.038032 0.386147 -0.007754
-0.037383 0.375710 -0.009705
-0.044261 0.367269 -0.011750
-0.047924 0.388363 -0.010884
-0.049403 0.401071 -0.011349
-0.050682 0.391487 -0.006459
-0.049035 0.373818 -0.010326
-0.051685 0.390455 -0.004777
-0.049723 0.378678 -0.012824
-0.052613 0.382519 -0.005430
-0.047314 0.357563 -0.011940
-0.049825 0.379908 -0.010628
-0.051753 0.374956 -0.003480
-0.049824 0.369982 -0.001595
-0.045771 0.398652 -0.011530
-0.049606 0.354964 -0.008695
-0.044391 0.387712 -0.013605
-0.050895 0.386110 0.000807
-0.044879 0.387904 -0.011587
-0.050998 0.398177 -0.008285
-0.049104 0.410167 -0.010767
-0.043778 0.374488 -0.012350
-0.045592 0.388428 -0.012417
-0.049352 0.386769 -0.008651
-0.046796 0.392322 -0.011385
-0.046236 0.370441 -0.013507
-0.049694 0.366284 -0.010993
-0.046140 0.377899 -0.011262
-0.047264 0.383094 -0.008901
-0.042928 0.383390 -0.013194
-0.047929 0.368130 -0.010152
-0.045464 0.379017 -0.011827
-0.043798 0.396615 -0.010357
-0.047090 0.383339 -0.012069
-0.036306 0.375422 -0.004061
-0.035460 0.384242 -0.005794
-0.034635 0.393276 -0.003364
-0.033512 0.387201 -0.003199
-0.038487 0.378424 -0.008996
-0.033584 0.387884 -0.007185
-0.035206 0.378002 -0.006836
-0.035870 0.379912 -0.007561
-0.036200 0.371200 -0.005073
-0.035088 0.381850 -0.005131
-0.031758 0.379759 -0.002516
-0.032875 0.375364 -0.000702
-0.033830 0.391337 -0.004883
-0.034555 0.367232 -0.007259
-0.034796 0.385102 -0.007439
-0.034455 0.385641 -0.000174
-0.036509 0.384642 -0.005783
-0.037939 0.389650 -0.008246
-0.036096 0.399745 -0.007492
-0.036164 0.378893 -0.004826
-0.035124 0.383482 -0.005383
-0.035605 0.385361 -0.007343
-0.036442 0.390943 -0.007213
-0.034973 0.377217 -0.003850
-0.036195 0.372046 -0.004486
-0.035809 0.379908 -0.006022
-0.034572 0.381449 -0.001505
-0.039032 0.382754 -0.007147
-0.035432 0.378471 -0.005994
-0.036905 0.381978 -0.006171
-0.037686 0.392366 -0.005959
-0.034430 0.382856 -0.002379
-0.037473 0.391257 0.008776
-0.045355 0.419873 0.009457
-0.039324 0.449165 0.007541
-0.046810 0.428343 0.007129
-0.050622 0.401260 0.009047
-0.053964 0.428258 0.006861
-0.043796 0.411220 0.007687
-0.054797 0.412131 0.006322
-0.040196 0.374061 0.010440
-0.048322 0.411609 0.008730
-0.052170 0.389305 0.008097
-0.044898 0.391625 0.008222
-0.041262 0.441647 0.009669
-0.047171 0.369116 0.008426
-0.038245 0.428649 0.009242
-0.042735 0.424627 0.008007
-0.039451 0.425079 0.007080
-0.051210 0.440413 0.007213
-0.048146 0.462555 0.008605
-0.038536 0.400659 0.006898
-0.038909 0.424250 0.008570
-0.050519 0.420063 0.007505
-0.044122 0.434682 0.009226
-0.039310 0.395641 0.009319
-0.038750 0.384046 0.008176
-0.041993 0.402642 0.009164
-0.037496 0.414799 0.007537
-0.041466 0.418800 0.009107
-0.044262 0.387661 0.010442
-0.038763 0.405452 0.009255
-0.037998 0.436676 0.009655
-0.039825 0.411627 0.008923
-0.037512 0.379757 -0.007978
-0.040934 0.390158 -0.010446
-0.037458 0.400862 -0.010850
-0.040420 0.391067 -0.012346
-0.044373 0.381558 -0.011520
-0.044624 0.392207 -0.011371
-0.040147 0.385344 -0.012433
-0.046743 0.385421 -0.011740
-0.039005 0.369280 -0.009349
-0.041815 0.385588 -0.010935
-0.043847 0.377257 -0.010550
-0.038488 0.377696 -0.011950
-0.038460 0.397682 -0.010084
-0.042130 0.369235 -0.011519
-0.037127 0.390866 -0.010335
-0.038287 0.389850 -0.010891
-0.037580 0.389871 -0.007756
-0.045408 0.397879 -0.012356
-0.042502 0.405261 -0.012140
-0.037065 0.381216 -0.008067
-0.037440 0.390043 -0.009910
-0.044112 0.388450 -0.011171
-0.040683 0.394616 -0.011601
-0.037855 0.379506 -0.009598
-0.036677 0.374986 -0.010000
-0.039640 0.381179 -0.010045
-0.036308 0.385793 -0.008426
-0.040432 0.387691 -0.009439
-0.040187 0.376564 -0.009991
-0.038491 0.382416 -0.008033
-0.037718 0.394613 -0.008261
-0.037692 0.384322 -0.010044
-0.045805 0.321340 0.001720
-0.043150 0.358778 -0.005519
-0.045174 0.378719 0.002292
-0.042324 0.365548 0.005235
-0.045417 0.334932 -0.008622
-0.038372 0.364017 -0.004033
-0.042344 0.344142 0.001847
-0.040401 0.341192 -0.008409
-0.047446 0.329049 -0.003819
-0.044426 0.339223 0.001555
-0.038779 0.326805 0.001865
-0.044520 0.328189 0.007447
-0.042544 0.382860 -0.002449
-0.041340 0.321851 -0.006037
-0.041114 0.370460 -0.005522
-0.045447 0.354288 0.007700
-0.046774 0.352050 -0.001292
-0.042883 0.366662 -0.009020
-0.041528 0.362253 0.000006
-0.043920 0.346037 -0.006422
-0.042949 0.349702 -0.000968
-0.042094 0.360556 -0.011010
-0.044143 0.368273 -0.000438
-0.042662 0.333134 0.003729
-0.045683 0.316093 0.003208
-0.042933 0.346777 -0.001117
-0.045382 0.359040 0.004051
-0.047906 0.348176 -0.009551
-0.043629 0.318041 -0.004739
-0.046785 0.352209 -0.006036
-0.046019 0.373488 -0.006674
-0.042708 0.338334 -0.000634
-0.034965 0.396299 0.001091
-0.034324 0.404898 0.000029
-0.035259 0.413312 0.003113
-0.033289 0.407270 0.003221
-0.034717 0.399879 -0.006019
-0.032102 0.408244 -0.000022
-0.034070 0.398387 -0.001388
-0.032762 0.399514 -0.000932
-0.034034 0.391935 -0.001406
-0.034531 0.401747 0.001718
-0.031349 0.400324 0.003957
-0.033269 0.395395 0.005001
-0.032803 0.411236 0.001203
-0.032546 0.388584 -0.001025
-0.032698 0.405984 -0.002616
-0.035034 0.405416 0.005801
-0.035826 0.405091 -0.000560
-0.034942 0.409205 -0.004268
-0.035284 0.420208 -0.001994
-0.034417 0.399349 -0.001392
-0.033871 0.403235 0.000019
-0.032976 0.406010 -0.002256
-0.034586 0.411537 -0.001346
-0.034038 0.397744 0.002529
-0.035023 0.392995 0.002134
-0.033664 0.402227 -0.000570
-0.034867 0.402615 0.004992
-0.035610 0.404274 -0.004113
-0.032636 0.399894 -0.001992
-0.034862 0.402601 -0.002684
-0.035868 0.414175 -0.002772
-0.034978 0.403774 0.003641
-0.023679 0.447187 0.004248
-0.032264 0.485570 0.002517
-0.027383 0.495303 -0.002781
-0.033917 0.480503 -0.004103
-0.034223 0.456236 0.000589
-0.043163 0.480798 -0.004018
-0.029000 0.467160 -0.004430
-0.042897 0.461999 -0.002759
-0.030476 0.445682 0.003726
-0.030054 0.459267 -0.001335
-0.038477 0.447946 -0.004079
-0.031297 0.450176 -0.006629
-0.031727 0.497624 -0.001729
-0.031674 0.440080 -0.004499
-0.028487 0.487173 0.000538
-0.034936 0.474860 -0.007680
-0.025376 0.465924 0.002673
-0.038844 0.491019 -0.004680
-0.034903 0.467989 -0.003924
-0.032392 0.470161 0.001452
-0.026169 0.476283 -0.000407
-0.036779 0.474041 -0.002636
-0.027565 0.481591 -0.001686
-0.023820 0.458313 -0.002830
-0.025714 0.438817 -0.004181
-0.033113 0.461759 0.000561
-0.026649 0.477556 -0.002912
-0.036107 0.465343 0.000359
-0.031500 0.430748 0.001650
-0.029830 0.470429 0.003757
-0.026959 0.484332 0.002704
-0.025256 0.461441 0.002093
-0.037394 0.403403 0.008254
-0.042357 0.427448 0.009798
-0.038667 0.449907 0.007637
-0.044094 0.433833 0.007571
-0.046086 0.412733 0.010431
-0.052220 0.434042 0.008654
-0.041731 0.421219 0.007726
-0.053909 0.421767 0.009364
-0.038211 0.388042 0.010581
-0.045094 0.420572 0.009148
-0.050229 0.403233 0.010028
-0.042641 0.404249 0.008228
-0.039223 0.444096 0.009508
-0.044822 0.382658 0.009599
-0.037341 0.433857 0.008849
-0.041351 0.430637 0.008059
-0.039439 0.432109 0.006484
-0.047488 0.443393 0.008966
-0.044684 0.461497 0.008911
-0.038145 0.411357 0.006525
-0.038043 0.431433 0.008232
-0.046901 0.427417 0.009541
-0.041387 0.438019 0.009512
-0.037944 0.407278 0.009144
-0.038531 0.398654 0.008090
-0.039268 0.414508 0.009383
-0.037576 0.423475 0.007021
-0.037782 0.427087 0.008754
-0.041611 0.400926 0.011196
-0.037834 0.416310 0.008762
-0.037600 0.441569 0.008850
-0.038459 0.421483 0.008479
-0.036217 0.391339 -0.004037
-0.035471 0.398901 -0.005364
-0.034849 0.407566 -0.003086
-0.033520 0.401549 -0.002910
-0.037807 0.393866 -0.009225
-0.033306 0.402404 -0.006542
-0.035126 0.393102 -0.006527
-0.035139 0.394632 -0.006896
-0.035712 0.387569 -0.005137
-0.035083 0.396568 -0.004513
-0.031626 0.394975 -0.002304
-0.032962 0.390713 -0.000507
-0.033775 0.405453 -0.004681
-0.033946 0.384107 -0.006870
-0.034578 0.399578 -0.007168
-0.034569 0.400083 0.000187
-0.036495 0.399112 -0.005695
-0.037516 0.404021 -0.008055
-0.036133 0.413994 -0.007455
-0.035974 0.393913 -0.004963
-0.035025 0.397844 -0.005265
-0.035218 0.400131 -0.007001
-0.036244 0.405300 -0.006890
-0.034878 0.392548 -0.003367
-0.035879 0.388192 -0.003988
-0.035429 0.395255 -0.005542
-0.034560 0.396285 -0.001143
-0.038474 0.397572 -0.007130
-0.035042 0.394224 -0.005884
-0.036545 0.396884 -0.006124
-0.037591 0.406956 -0.006155
-0.034694 0.397692 -0.002119
-0.047387 0.379240 -0.010257
-0.047583 0.400144 -0.010739
-0.051008 0.414417 0.001313
-0.050205 0.406987 -0.001022
-0.047328 0.387803 -0.010163
-0.050375 0.406342 -0.005782
-0.049549 0.388096 -0.009500
-0.050312 0.394162 -0.007000
-0.048298 0.370445 -0.011375
-0.050189 0.393174 -0.005390
-0.050839 0.389815 0.001967
-0.050633 0.381935 0.006095
-0.046816 0.413214 -0.006707
-0.049229 0.366232 -0.007882
-0.046199 0.403528 -0.012210
-0.051255 0.401147 0.008815
-0.048803 0.403342 -0.008748
-0.047304 0.409610 -0.010021
-0.048593 0.424513 -0.008789
-0.047573 0.387712 -0.012289
-0.048464 0.399531 -0.008780
-0.048322 0.401983 -0.009584
-0.048041 0.408902 -0.009180
-0.049300 0.382500 -0.005366
-0.051145 0.375257 -0.003834
-0.048106 0.392348 -0.010424
-0.051250 0.395265 0.002792
-0.043999 0.398409 -0.011761
-0.046641 0.383295 -0.009547
-0.046523 0.393986 -0.011428
-0.045739 0.413787 -0.011273
-0.049327 0.397743 -0.002394
-0.044351 0.386514 0.010375
-0.052335 0.451445 0.001713
-0.045632 0.473509 0.005915
-0.050897 0.452337 0.003221
-0.054916 0.403082 -0.000870
-0.053462 0.449399 -0.002117
-0.048395 0.423705 0.005079
-0.054027 0.416480 -0.003860
-0.049715 0.392884 0.005510
-0.050224 0.412325 0.005009
-0.052647 0.391014 0.001415
-0.049033 0.395206 0.003686
-0.049904 0.479128 0.000564
-0.053282 0.381283 -0.000678
-0.049818 0.463698 0.005178
-0.050646 0.441807 0.003261
-0.045940 0.427398 0.007227
-0.054848 0.463242 -0.002202
-0.054320 0.438332 0.003295
-0.052729 0.428665 0.004003
-0.045735 0.437041 0.007208
-0.054836 0.439891 -0.005059
-0.047486 0.452135 0.006258
-0.041270 0.406666 0.006517
-0.047032 0.374989 0.005274
-0.053621 0.417959 0.003440
-0.043248 0.443898 0.002736
-0.055931 0.423924 -0.002822
-0.052594 0.367019 0.003972
-0.049208 0.432750 0.004497
-0.045078 0.459175 0.007393
-0.044601 0.412843 0.006737
-0.037425 0.411219 0.008676
-0.042779 0.437558 0.010002
-0.038872 0.462202 0.007945
-0.044423 0.444697 0.007825
-0.046702 0.421412 0.010503
-0.052470 0.444890 0.008573
-0.042066 0.430287 0.008108
-0.054107 0.431263 0.009078
-0.038428 0.394950 0.010846
-0.045567 0.430128 0.009346
-0.050547 0.411111 0.009963
-0.042894 0.412129 0.008394
-0.039686 0.456023 0.009880
-0.045022 0.389231 0.009729
-0.037502 0.444688 0.009231
-0.041684 0.441255 0.008175
-0.039642 0.442524 0.006867
-0.048041 0.455074 0.009011
-0.045212 0.474398 0.009218
-0.038331 0.419926 0.006886
-0.038294 0.441557 0.008577
-0.047475 0.437691 0.009471
-0.041734 0.449528 0.009846
-0.038173 0.415466 0.009462
-0.038520 0.405861 0.008357
-0.039520 0.423202 0.009703
-0.037733 0.432956 0.007381
-0.038445 0.436934 0.009055
-0.041977 0.408581 0.011332
-0.038054 0.425386 0.009152
-0.037817 0.452890 0.009196
-0.038621 0.431009 0.008783
-0.036291 0.401349 -0.003923
-0.035634 0.409095 -0.005340
-0.035293 0.417869 -0.002721
-0.033794 0.411727 -0.002710
-0.037784 0.404185 -0.009224
-0.033376 0.412670 -0.006295
-0.035305 0.403180 -0.006538
-0.035151 0.404722 -0.006658
-0.035784 0.397470 -0.005327
-0.035229 0.406709 -0.004413
-0.031787 0.405188 -0.002088
-0.033443 0.400721 -0.000013
-0.033811 0.415913 -0.004571
-0.034013 0.393780 -0.006737
-0.034600 0.409818 -0.007254
-0.035098 0.410194 0.000744
-0.036716 0.409247 -0.005737
-0.037514 0.414183 -0.008169
-0.036287 0.424720 -0.007532
-0.036020 0.404031 -0.005180
-0.035084 0.407846 -0.005251
-0.035178 0.410338 -0.006943
-0.036198 0.415619 -0.006860
-0.035026 0.402661 -0.003208
-0.036114 0.398102 -0.003727
-0.035445 0.405578 -0.005564
-0.035068 0.406427 -0.000852
-0.038456 0.407803 -0.007169
-0.034989 0.404479 -0.005974
-0.036688 0.407092 -0.006267
-0.037613 0.417456 -0.006334
-0.035069 0.407946 -0.001935
-0.038606 0.396209 -0.007797
-0.039884 0.405150 -0.010575
-0.037578 0.416622 -0.010950
-0.038798 0.406572 -0.012510
-0.043085 0.397764 -0.011788
-0.044430 0.407913 -0.011886
-0.039438 0.400706 -0.012604
-0.047488 0.401030 -0.011382
-0.038646 0.387631 -0.009060
-0.040619 0.401765 -0.011627
-0.042775 0.394779 -0.011086
-0.036998 0.394850 -0.011479
-0.037879 0.413217 -0.010683
-0.041145 0.386010 -0.012024
-0.037822 0.405147 -0.010606
-0.037678 0.405282 -0.010210
-0.039251 0.405208 -0.008538
-0.044956 0.413221 -0.012476
-0.042071 0.423609 -0.012621
-0.038275 0.397098 -0.007917
-0.037956 0.404565 -0.009932
-0.042945 0.403830 -0.011077
-0.040122 0.410026 -0.011902
-0.037566 0.396795 -0.010019
-0.037085 0.392191 -0.010363
-0.039320 0.397396 -0.010079
-0.036791 0.400678 -0.008850
-0.041188 0.402826 -0.009350
-0.039760 0.394777 -0.009637
-0.039263 0.399009 -0.008324
-0.038953 0.410317 -0.008024
-0.037549 0.400877 -0.010521
-0.041190 0.397811 0.002488
-0.039800 0.444965 0.005052
-0.045168 0.459113 0.000456
-0.046437 0.445494 0.004406
-0.039624 0.413463 0.002200
-0.046106 0.440488 0.005350
-0.043088 0.423796 0.002436
-0.043470 0.421762 0.005582
-0.040296 0.401984 0.002657
-0.042108 0.413498 0.003865
-0.045629 0.403289 0.005512
-0.047091 0.407501 0.001943
-0.040522 0.467024 0.003124
-0.040432 0.395567 0.003118
-0.039543 0.449927 0.002438
-0.050018 0.433811 0.002191
-0.042474 0.426561 -0.000957
-0.043572 0.450843 0.003802
-0.044774 0.432210 0.004924
-0.041060 0.425835 0.000528
-0.041001 0.431125 0.002905
-0.039352 0.436669 0.001004
-0.042770 0.445662 0.003842
-0.039951 0.409258 -0.000022
-0.042470 0.392664 0.002605
-0.040850 0.423723 0.005533
-0.043874 0.438843 -0.001884
-0.041686 0.422423 -0.003207
-0.038982 0.386638 0.004554
-0.041717 0.431417 -0.000018
-0.040971 0.450419 -0.002156
-0.038598 0.417957 0.002658
-0.035167 0.410278 0.000886
-0.034611 0.419506 -0.000379
-0.035592 0.430046 0.003041
-0.033535 0.422821 0.002822
-0.035313 0.414088 -0.006356
-0.032530 0.423560 -0.000384
-0.034285 0.412715 -0.001818
-0.033427 0.414087 -0.001355
-0.034381 0.405270 -0.001724
-0.034573 0.416344 0.001086
-0.031557 0.414492 0.003476
-0.033598 0.409400 0.004855
-0.033263 0.427845 0.000794
-0.032968 0.401301 -0.001178
-0.033237 0.421097 -0.002911
-0.035315 0.420615 0.005781
-0.036293 0.420045 -0.000584
-0.035536 0.424970 -0.004914
-0.035633 0.438441 -0.002407
-0.034692 0.413538 -0.001436
-0.034145 0.417983 -0.000243
-0.033309 0.420773 -0.002488
-0.034811 0.427131 -0.001747
-0.034265 0.411826 0.002048
-0.035209 0.406689 0.001490
-0.033987 0.416385 -0.000875
-0.035280 0.416911 0.004573
-0.036070 0.419036 -0.004447
-0.033080 0.414225 -0.002222
-0.035280 0.416918 -0.002811
-0.036158 0.430062 -0.002974
-0.035160 0.418493 0.003199
-0.038178 0.370566 0.004839
-0.037011 0.414096 -0.002091
-0.041873 0.433244 0.003361
-0.038045 0.421086 0.008015
-0.036404 0.387112 -0.006666
-0.032402 0.418979 0.000313
-0.036945 0.398627 0.005546
-0.032889 0.395416 -0.005006
-0.038133 0.381013 -0.003172
-0.037262 0.393587 0.004017
-0.033415 0.379302 0.003230
-0.039076 0.382988 0.006083
-0.036724 0.438866 -0.001160
-0.033866 0.373049 -0.003372
-0.036425 0.425624 -0.002471
-0.042261 0.409039 0.006998
-0.039582 0.405230 0.000783
-0.036221 0.421355 -0.004232
-0.036746 0.415158 0.003916
-0.036701 0.400760 -0.003228
-0.037330 0.404698 0.003810
-0.034817 0.415280 -0.009176
-0.038306 0.424016 0.003712
-0.037462 0.385213 0.002968
-0.038674 0.367979 0.005608
-0.035648 0.400573 0.002217
-0.040504 0.413901 0.004207
-0.040035 0.401708 -0.009611
-0.035226 0.366189 -0.002823
-0.039271 0.407449 -0.004665
-0.038964 0.429771 -0.006046
-0.036915 0.390784 -0.000198
-0.038447 0.406525 -0.007588
-0.040358 0.415105 -0.010148
-0.037763 0.425984 -0.010566
-0.039484 0.416164 -0.012211
-0.043494 0.407908 -0.011264
-0.045165 0.417638 -0.011241
-0.039730 0.410816 -0.012183
-0.047933 0.411138 -0.010981
-0.038646 0.397602 -0.008780
-0.041098 0.411569 -0.011175
-0.043460 0.404713 -0.010691
-0.037534 0.404857 -0.011293
-0.038188 0.422668 -0.010056
-0.041466 0.396583 -0.011465
-0.037794 0.414952 -0.010134
-0.037971 0.414917 -0.010026
-0.039117 0.414876 -0.007938
-0.045507 0.422862 -0.012017
-0.042546 0.432350 -0.012048
-0.038063 0.407076 -0.007669
-0.037954 0.414451 -0.009587
-0.043576 0.413702 -0.010667
-0.040416 0.419503 -0.011409
-0.037657 0.406683 -0.009598
-0.036872 0.402430 -0.009944
-0.039378 0.407426 -0.009659
-0.036880 0.410666 -0.008477
-0.041019 0.412720 -0.008942
-0.039781 0.404701 -0.009363
-0.039180 0.408735 -0.007828
-0.038856 0.419586 -0.007614
-0.037717 0.410573 -0.010144
-0.046507 0.395319 -0.010880
-0.047231 0.418788 -0.010907
-0.050850 0.431883 -0.002326
-0.050314 0.424246 -0.003378
-0.047809 0.405130 -0.009693
-0.050607 0.423895 -0.005542
-0.049447 0.407357 -0.010776
-0.051330 0.413308 -0.005793
-0.048117 0.384580 -0.011586
-0.050029 0.410882 -0.007377
-0.051587 0.406136 0.000525
-0.050905 0.398705 0.005269
-0.045910 0.431225 -0.008754
-0.049326 0.378851 -0.008375
-0.045487 0.420064 -0.012705
-0.051427 0.418624 0.008455
-0.048016 0.420912 -0.009834
-0.047954 0.428341 -0.009079
-0.048208 0.442562 -0.009717
-0.046614 0.404732 -0.012617
-0.047529 0.418207 -0.009976
-0.048462 0.419493 -0.008643
-0.047548 0.425347 -0.009827
-0.048561 0.399283 -0.008568
-0.051094 0.391486 -0.006396
-0.047292 0.409824 -0.010799
-0.050646 0.413100 -0.000300
-0.042883 0.415378 -0.012111
-0.046925 0.398751 -0.009544
-0.046001 0.411493 -0.011240
-0.044934 0.430633 -0.010772
-0.048399 0.415596 -0.005784
-0.037632 0.432345 0.008877
-0.041376 0.454993 0.010649
-0.039066 0.481665 0.008015
-0.043241 0.463215 0.008753
-0.044041 0.440688 0.010609
-0.052236 0.462519 0.009535
-0.041006 0.448065 0.008420
-0.054316 0.449363 0.010288
-0.037594 0.417255 0.010850
-0.044179 0.448464 0.009954
-0.049790 0.432383 0.011189
-0.042121 0.432811 0.008477
-0.039544 0.474293 0.010123
-0.043644 0.411486 0.010222
-0.037084 0.462066 0.009176
-0.041529 0.459076 0.008429
-0.039754 0.460779 0.006528
-0.047066 0.473741 0.009705
-0.044122 0.495370 0.009263
-0.037958 0.438878 0.006597
-0.037799 0.458700 0.008850
-0.045837 0.455269 0.010494
-0.040711 0.467739 0.010145
-0.037687 0.435838 0.009942
-0.038299 0.427832 0.008606
-0.038240 0.442320 0.010277
-0.037971 0.450817 0.007577
-0.037483 0.454805 0.008917
-0.040590 0.430934 0.011953
-0.038094 0.443891 0.009133
-0.037613 0.472004 0.008567
-0.038257 0.449667 0.009212
-0.037115 0.367073 -0.004443
-0.048088 0.430801 -0.008399
-0.041854 0.440935 -0.008597
-0.055259 0.425910 -0.008059
-0.054457 0.384014 -0.007830
-0.057833 0.422934 -0.005705
-0.043854 0.401612 -0.008737
-0.057437 0.398109 -0.003645
-0.043040 0.371183 -0.009299
-0.044462 0.383260 -0.011325
-0.058457 0.372788 -0.008821
-0.047551 0.376980 -0.002932
-0.044991 0.447491 -0.012061
-0.052505 0.363595 -0.010700
-0.041545 0.432548 -0.010444
-0.048306 0.416098 0.000027
-0.040914 0.399848 -0.001318
-0.056690 0.440687 -0.008844
-0.058228 0.404020 -0.010483
-0.044290 0.406523 -0.005778
-0.039886 0.412337 -0.005958
-0.052309 0.415422 -0.008463
-0.042617 0.420103 -0.010722
-0.036190 0.381731 -0.005627
-0.040865 0.358478 -0.005750
-0.051005 0.395897 -0.009864
-0.040154 0.421626 -0.005304
-0.045347 0.393670 -0.010145
-0.044883 0.350713 -0.009192
-0.041854 0.409844 -0.005952
-0.039217 0.427092 -0.005044
-0.035494 0.391018 -0.011171
-0.035272 0.424115 0.001269
-0.034630 0.433398 -0.000036
-0.035683 0.442208 0.003554
-0.033565 0.435978 0.003068
-0.035099 0.428148 -0.006093
-0.032417 0.436928 0.000232
-0.034468 0.426819 -0.001328
-0.033048 0.428115 -0.000793
-0.034404 0.419016 -0.001621
-0.034643 0.430323 0.001595
-0.031699 0.428401 0.003926
-0.033959 0.423194 0.005217
-0.033022 0.440617 0.001211
-0.032885 0.415155 -0.000820
-0.033077 0.434576 -0.002497
-0.035480 0.434088 0.006273
-0.036301 0.433677 -0.000236
-0.034974 0.437910 -0.004449
-0.035280 0.449402 -0.001757
-0.034559 0.427491 -0.001340
-0.034199 0.431812 -0.000004
-0.033088 0.434602 -0.002143
-0.034667 0.440281 -0.001174
-0.034400 0.425595 0.002170
-0.035276 0.420614 0.001928
-0.033859 0.430476 -0.000488
-0.035460 0.430915 0.004874
-0.035782 0.432836 -0.004289
-0.032943 0.427940 -0.002166
-0.035130 0.430898 -0.002563
-0.035971 0.442827 -0.002633
-0.035353 0.432295 0.003529
-0.017606 0.462996 0.007362
-0.029986 0.491461 0.004317
-0.021669 0.499182 -0.000066
-0.031347 0.486231 -0.000803
-0.030228 0.470011 0.002038
-0.041012 0.487378 -0.001628
-0.024592 0.477404 -0.000116
-0.040084 0.474258 -0.000784
-0.025350 0.461865 0.005824
-0.026906 0.470676 0.002508
-0.035348 0.463543 -0.001396
-0.028770 0.466034 -0.003290
-0.029246 0.499681 -0.000900
-0.028668 0.458470 -0.001504
-0.025064 0.492166 0.003295
-0.030618 0.481955 -0.003155
-0.017309 0.475036 0.005362
-0.036569 0.495883 -0.002084
-0.032232 0.476449 -0.000509
-0.027616 0.480278 0.004120
-0.021373 0.484096 0.003444
-0.034256 0.482468 -0.001840
-0.024279 0.487827 0.000971
-0.018736 0.471887 0.001790
-0.021209 0.457145 -0.000593
-0.030768 0.474033 0.002784
-0.019907 0.484655 0.001323
-0.031490 0.475983 0.000160
-0.027628 0.450628 0.005107
-0.023903 0.480028 0.005206
-0.021230 0.490229 0.005500
-0.021394 0.471460 0.004921
-0.047859 0.378789 -0.002975
-0.050701 0.440768 -0.003582
-0.056438 0.461330 0.003487
-0.055866 0.447668 0.013821
-0.049640 0.399481 -0.005064
-0.052163 0.441233 0.004840
-0.055076 0.415530 0.008141
-0.050581 0.412905 0.000820
-0.050665 0.388443 -0.007134
-0.054197 0.403528 0.001219
-0.053179 0.391540 0.007109
-0.056076 0.397310 0.015090
-0.047623 0.469355 -0.004440
-0.050382 0.384832 -0.005053
-0.048032 0.450597 -0.006071
-0.057371 0.428218 0.019068
-0.047512 0.421743 -0.003006
-0.051346 0.451753 -0.001038
-0.054187 0.430494 0.005556
-0.049686 0.418412 -0.004703
-0.052020 0.427654 0.000499
-0.048573 0.435065 -0.006150
-0.053464 0.445193 0.000622
-0.051121 0.395954 0.001007
-0.054892 0.375091 0.005485
-0.051587 0.419901 -0.001908
-0.053351 0.434398 0.005265
-0.045622 0.410973 -0.009846
-0.047179 0.370061 -0.006654
-0.047804 0.428880 -0.006522
-0.044324 0.452021 -0.008926
-0.047198 0.406168 -0.005700
-0.048908 0.352795 0.001084
-0.045774 0.385223 -0.005572
-0.047180 0.403573 0.002028
-0.045298 0.391657 0.004644
-0.048395 0.364412 -0.008164
-0.041975 0.389609 -0.004258
-0.045336 0.372027 0.001076
-0.043640 0.369683 -0.008128
-0.050717 0.358471 -0.003286
-0.047715 0.366985 0.000780
-0.042392 0.356319 0.002007
-0.048512 0.357142 0.007079
-0.045199 0.406854 -0.002661
-0.044785 0.351339 -0.005818
-0.043595 0.395111 -0.005741
-0.048754 0.381549 0.007358
-0.049261 0.379881 -0.001878
-0.045665 0.392559 -0.009314
-0.044349 0.389238 -0.000298
-0.046965 0.373043 -0.006557
-0.045624 0.377178 -0.002140
-0.044997 0.386935 -0.010800
-0.047264 0.393830 -0.000749
-0.045126 0.362757 0.003059
-0.049076 0.346426 0.001891
-0.046329 0.374757 -0.001834
-0.047704 0.385694 0.003443
-0.050578 0.375987 -0.008857
-0.047053 0.349073 -0.004476
-0.049348 0.379300 -0.005712
-0.048530 0.398031 -0.006588
-0.045341 0.367293 -0.000579
-0.036447 0.420734 -0.003524
-0.035886 0.429399 -0.005032
-0.036019 0.437964 -0.001161
-0.034177 0.432161 -0.002338
-0.037882 0.424195 -0.008963
-0.033985 0.433024 -0.005774
-0.035568 0.423320 -0.006111
-0.035620 0.425066 -0.006334
-0.035964 0.416194 -0.005370
-0.035211 0.426936 -0.004224
-0.032181 0.425266 -0.001414
-0.034081 0.420504 0.001565
-0.034494 0.436761 -0.004048
-0.034135 0.411587 -0.006130
-0.035212 0.430157 -0.006928
-0.035629 0.430493 0.002871
-0.037344 0.429496 -0.005034
-0.037680 0.434209 -0.008149
-0.036626 0.445051 -0.006949
-0.036089 0.424027 -0.005162
-0.035473 0.428057 -0.004971
-0.035250 0.430536 -0.006612
-0.036335 0.435891 -0.006376
-0.035329 0.422394 -0.002893
-0.036243 0.417390 -0.003397
-0.035779 0.425727 -0.005332
-0.035776 0.426539 0.000130
-0.038531 0.428078 -0.007056
-0.035080 0.424410 -0.005825
-0.036877 0.427183 -0.006020
-0.037943 0.437577 -0.006018
-0.035531 0.428282 -0.001227
-0.038771 0.417003 -0.007624
-0.039941 0.425298 -0.010110
-0.037941 0.436127 -0.010271
-0.038878 0.426682 -0.011929
-0.042879 0.418440 -0.011061
-0.044762 0.428143 -0.011254
-0.039481 0.421077 -0.012070
-0.047768 0.421556 -0.010701
-0.038582 0.408825 -0.008668
-0.040539 0.422116 -0.011359
-0.042738 0.416004 -0.010613
-0.037091 0.415784 -0.010509
-0.038158 0.433256 -0.010134
-0.040956 0.407193 -0.011522
-0.038218 0.424981 -0.010171
-0.037917 0.425371 -0.009042
-0.039596 0.425196 -0.008229
-0.045033 0.432911 -0.011667
-0.042189 0.443109 -0.011952
-0.038342 0.417648 -0.007645
-0.038186 0.424520 -0.009539
-0.042923 0.424130 -0.010443
-0.040218 0.429971 -0.011230
-0.037631 0.417628 -0.009778
-0.037142 0.413231 -0.010011
-0.039325 0.418079 -0.009658
-0.037142 0.420860 -0.008424
-0.041254 0.422910 -0.008812
-0.039654 0.415893 -0.009169
-0.039443 0.419612 -0.007846
-0.039364 0.430127 -0.007460
-0.037769 0.421365 -0.010160
-0.035357 0.434894 0.000801
-0.034688 0.443833 -0.000256
-0.035683 0.453233 0.003973
-0.033612 0.446804 0.003227
-0.035117 0.438617 -0.006774
-0.032487 0.447620 -0.000008
-0.034463 0.437048 -0.001411
-0.033074 0.438467 -0.001286
-0.034467 0.430108 -0.001984
-0.034643 0.440664 0.001580
-0.031702 0.439087 0.003893
-0.033874 0.433904 0.005707
-0.033183 0.451471 0.001093
-0.032905 0.426547 -0.001050
-0.033217 0.445180 -0.002844
-0.035466 0.444766 0.006857
-0.036448 0.444246 -0.000335
-0.034942 0.448730 -0.005043
-0.035340 0.460769 -0.002124
-0.034792 0.437984 -0.001527
-0.034287 0.442199 -0.000201
-0.033201 0.445162 -0.002636
-0.034700 0.451041 -0.001554
-0.034456 0.436156 0.002435
-0.035253 0.431502 0.001904
-0.033928 0.440888 -0.000791
-0.035475 0.441258 0.005291
-0.035803 0.443383 -0.004950
-0.033010 0.438635 -0.002611
-0.035112 0.441363 -0.003011
-0.036082 0.453756 -0.003210
-0.035375 0.442887 0.003789
-0.044096 0.418925 -0.011497
-0.047047 0.436423 -0.011249
-0.047588 0.449605 -0.012386
-0.048576 0.439548 -0.008798
-0.047989 0.424202 -0.010921
-0.049965 0.438806 -0.006769
-0.048753 0.428845 -0.013176
-0.051656 0.431139 -0.006776
-0.046049 0.407322 -0.011698
-0.048545 0.430322 -0.011061
-0.050264 0.423575 -0.005639
-0.048939 0.419985 -0.006968
-0.045355 0.446321 -0.011546
-0.048571 0.404049 -0.009709
-0.043628 0.437055 -0.012987
-0.049454 0.435014 -0.005495
-0.044447 0.436713 -0.012208
-0.049863 0.445915 -0.009455
-0.047826 0.458476 -0.010947
-0.043231 0.424480 -0.012787
-0.044786 0.437244 -0.012644
-0.048337 0.435241 -0.008987
-0.046193 0.441062 -0.011422
-0.045493 0.421221 -0.013377
-0.048424 0.416423 -0.012604
-0.045329 0.427794 -0.011311
-0.045504 0.432426 -0.011387
-0.043119 0.433287 -0.012594
-0.047464 0.419130 -0.010057
-0.044550 0.427819 -0.011260
-0.043569 0.444858 -0.011047
-0.046516 0.432653 -0.012914
-0.036609 0.430369 -0.003427
-0.035923 0.438628 -0.004664
-0.036205 0.446903 -0.000382
-0.034261 0.441268 -0.001619
-0.037484 0.433743 -0.009371
-0.033688 0.442193 -0.005217
-0.035586 0.432468 -0.005697
-0.035005 0.434083 -0.005998
-0.035929 0.426076 -0.005414
-0.035336 0.436004 -0.003453
-0.032136 0.434670 -0.000809
-0.034191 0.429820 0.002209
-0.034507 0.445619 -0.003526
-0.033925 0.421990 -0.005706
-0.035054 0.439446 -0.006814
-0.035768 0.439609 0.003625
-0.037530 0.438685 -0.004684
-0.037249 0.443189 -0.008202
-0.036507 0.453631 -0.006726
-0.036280 0.433345 -0.005126
-0.035570 0.437106 -0.004663
-0.034978 0.439869 -0.006473
-0.036277 0.445144 -0.006142
-0.035464 0.431744 -0.002094
-0.036292 0.427129 -0.002668
-0.035584 0.435355 -0.005009
-0.035935 0.435869 0.000993
-0.038194 0.437518 -0.007367
-0.034871 0.433987 -0.005950
-0.036765 0.436509 -0.006161
-0.037961 0.447030 -0.006295
-0.035825 0.437611 -0.000523
-0.043413 0.467673 0.008214
-0.041318 0.475079 0.005930
-0.039438 0.485898 0.007703
-0.038170 0.478204 0.006249
-0.041337 0.470868 -0.001082
-0.040306 0.477371 0.005445
-0.042328 0.471481 0.004445
-0.044830 0.471967 0.005740
-0.042376 0.460913 0.005667
-0.040608 0.474276 0.005908
-0.039702 0.470486 0.008014
-0.039982 0.466083 0.008753
-0.039456 0.483099 0.004923
-0.040829 0.452512 0.005916
-0.040968 0.475120 0.004189
-0.040199 0.475846 0.010839
-0.043287 0.476711 0.005450
-0.041698 0.481187 0.002044
-0.039745 0.496710 0.003148
-0.041831 0.470746 0.006429
-0.041937 0.475074 0.005224
-0.039589 0.475527 0.005653
-0.040456 0.481239 0.005748
-0.040862 0.470290 0.006104
-0.041955 0.463731 0.006227
-0.041730 0.471905 0.006875
-0.040522 0.472785 0.006800
-0.042666 0.475632 0.001731
-0.041142 0.471868 0.005318
-0.042745 0.472979 0.005080
-0.042513 0.484662 0.005054
-0.041399 0.475053 0.006278
-0.041222 0.444818 0.005274
-0.039262 0.478240 0.001100
-0.041484 0.491074 0.010260
-0.039245 0.483078 0.015589
-0.037235 0.456829 -0.000939
-0.038241 0.480820 0.003910
-0.041741 0.466521 0.011019
-0.037268 0.463390 -0.000308
-0.040616 0.450841 -0.000101
-0.041576 0.462617 0.007019
-0.038338 0.451662 0.007406
-0.041152 0.455380 0.015531
-0.036322 0.494007 -0.000858
-0.038485 0.446616 -0.000235
-0.037957 0.484680 0.000402
-0.042107 0.473881 0.017464
-0.041928 0.472244 0.003552
-0.037627 0.483921 0.000512
-0.040617 0.476802 0.007312
-0.041930 0.469166 -0.000106
-0.041193 0.472429 0.007023
-0.037825 0.478835 -0.004929
-0.040448 0.484897 0.006581
-0.040989 0.455793 0.008356
-0.042068 0.441545 0.009087
-0.040618 0.468244 0.004109
-0.042272 0.477312 0.011776
-0.039010 0.467385 -0.002678
-0.037630 0.440117 -0.000684
-0.039336 0.474748 -0.000634
-0.037911 0.488293 -0.003951
-0.039511 0.459217 0.002157
-0.044266 0.429274 -0.011309
-0.046495 0.446240 -0.011177
-0.047366 0.457907 -0.011231
-0.047926 0.449233 -0.008574
-0.047269 0.434697 -0.010661
-0.048921 0.448571 -0.007049
-0.048272 0.438731 -0.013039
-0.050619 0.441087 -0.006737
-0.046156 0.418133 -0.011424
-0.047971 0.440495 -0.011010
-0.049429 0.434662 -0.005520
-0.048656 0.430602 -0.006079
-0.044706 0.455344 -0.011381
-0.048038 0.414292 -0.009813
-0.043557 0.446476 -0.012816
-0.049168 0.444991 -0.004335
-0.044622 0.446667 -0.012171
-0.048611 0.454511 -0.009236
-0.046794 0.466267 -0.010637
-0.043408 0.435035 -0.012843
-0.044905 0.446726 -0.012272
-0.047512 0.445189 -0.008883
-0.045906 0.450468 -0.010948
-0.045786 0.431804 -0.013125
-0.048437 0.426702 -0.012179
-0.045299 0.438402 -0.011059
-0.046000 0.442452 -0.010538
-0.042877 0.443222 -0.012143
-0.046830 0.430074 -0.009753
-0.044504 0.438432 -0.010943
-0.043449 0.454298 -0.010760
-0.046475 0.442913 -0.012321
-0.035404 0.449081 0.000555
-0.034531 0.457880 -0.000169
-0.035437 0.465999 0.005702
-0.033396 0.460440 0.003982
-0.035148 0.452793 -0.007578
-0.032343 0.461375 0.000183
-0.034416 0.451233 -0.000835
-0.032928 0.452832 -0.001720
-0.034502 0.444386 -0.002307
-0.034299 0.454814 0.002113
-0.031374 0.453337 0.004608
-0.033548 0.448200 0.007776
-0.033113 0.464826 0.001622
-0.032485 0.440843 -0.000946
-0.033261 0.459031 -0.002811
-0.035092 0.458765 0.009417
-0.036473 0.458232 0.000383
-0.034622 0.462232 -0.005619
-0.034915 0.472158 -0.002052
-0.034768 0.452268 -0.001436
-0.034384 0.456146 -0.000119
-0.033104 0.459206 -0.002962
-0.034650 0.464541 -0.001848
-0.034297 0.450117 0.003368
-0.034951 0.445656 0.002556
-0.033829 0.454894 -0.000779
-0.035219 0.455176 0.006721
-0.035860 0.457272 -0.005736
-0.033011 0.452805 -0.003215
-0.034840 0.455697 -0.003500
-0.036315 0.466734 -0.003582
-0.035217 0.456935 0.004926
-0.046472 0.457554 -0.002826
-0.045188 0.466206 -0.002547
-0.044843 0.470709 0.010470
-0.043915 0.467885 0.004250
-0.044523 0.461544 -0.008287
-0.042506 0.468650 -0.001422
-0.046375 0.460333 -0.002120
-0.043218 0.462097 -0.003403
-0.046322 0.452805 -0.005745
-0.045415 0.463881 0.001574
-0.042747 0.462975 0.006328
-0.045222 0.457632 0.014962
-0.042806 0.470594 0.000884
-0.044783 0.447716 -0.002311
-0.043582 0.466710 -0.005206
-0.045026 0.465785 0.018244
-0.046812 0.466205 -0.000332
-0.042605 0.468626 -0.006588
-0.043190 0.477302 -0.003748
-0.046086 0.462006 -0.004732
-0.045639 0.464424 -0.001959
-0.043765 0.466579 -0.005272
-0.043728 0.469898 -0.004070
-0.045748 0.459008 0.004910
-0.046993 0.454037 0.003343
-0.045544 0.463787 -0.003660
-0.045691 0.464085 0.011321
-0.044485 0.465161 -0.006980
-0.043661 0.461563 -0.005737
-0.044172 0.464346 -0.005603
-0.044854 0.472555 -0.006726
-0.045462 0.465704 0.007670
-0.045406 0.396887 0.002919
-0.043202 0.436328 -0.002991
-0.045384 0.454570 0.002768
-0.043157 0.442680 0.005705
-0.044470 0.411587 -0.007670
-0.038646 0.440132 -0.001441
-0.043002 0.420288 0.002258
-0.040094 0.418240 -0.005652
-0.046750 0.402701 -0.002843
-0.044434 0.416341 0.002306
-0.040136 0.404151 0.003098
-0.045689 0.404786 0.005938
-0.042045 0.458811 -0.000891
-0.041367 0.396109 -0.003693
-0.041149 0.446166 -0.003765
-0.046415 0.431494 0.006368
-0.046071 0.427749 0.000049
-0.042359 0.443124 -0.007430
-0.041537 0.437454 0.001372
-0.044380 0.421991 -0.004203
-0.042838 0.426958 -0.000120
-0.041778 0.436692 -0.009093
-0.043667 0.444726 0.001169
-0.043563 0.409056 0.002809
-0.045577 0.391497 0.003336
-0.042894 0.423079 0.000784
-0.045195 0.435590 0.003646
-0.047019 0.425081 -0.009374
-0.043710 0.392635 -0.003669
-0.046259 0.428384 -0.004941
-0.045331 0.448937 -0.005697
-0.042985 0.416118 0.000298
-0.041865 0.466067 -0.001667
-0.041090 0.470744 -0.000296
-0.041284 0.474936 0.009525
-0.039664 0.471889 0.004828
-0.040407 0.467999 -0.010408
-0.038395 0.472427 0.000433
-0.041329 0.466798 -0.000625
-0.038604 0.467157 -0.002542
-0.040972 0.463435 -0.004637
-0.040608 0.468827 0.003041
-0.037959 0.468690 0.006596
-0.040175 0.464792 0.013470
-0.039611 0.474186 0.001792
-0.038915 0.459686 -0.001367
-0.039925 0.470739 -0.003435
-0.041066 0.470502 0.016329
-0.042611 0.470181 0.001827
-0.039416 0.472667 -0.007406
-0.040488 0.479908 -0.002795
-0.041053 0.467847 -0.002276
-0.041130 0.469033 -0.000276
-0.039461 0.471417 -0.004019
-0.040120 0.474427 -0.003114
-0.040759 0.466373 0.006311
-0.041520 0.463584 0.004207
-0.041001 0.469410 -0.001682
-0.041012 0.469160 0.010543
-0.040937 0.469751 -0.007656
-0.039230 0.468980 -0.005455
-0.040161 0.469862 -0.005030
-0.042152 0.475683 -0.005951
-0.041277 0.470250 0.008268
-0.039717 0.442366 -0.007958
-0.039574 0.449722 -0.009714
-0.037852 0.459214 -0.009574
-0.037681 0.451699 -0.010239
-0.042309 0.443464 -0.011281
-0.040210 0.452808 -0.011254
-0.039466 0.444893 -0.011492
-0.042446 0.446091 -0.010952
-0.039312 0.435736 -0.008490
-0.039285 0.447270 -0.010714
-0.038285 0.443843 -0.009520
-0.036996 0.441164 -0.008791
-0.037818 0.456408 -0.009830
-0.039411 0.433598 -0.011598
-0.038414 0.449425 -0.010149
-0.037997 0.450341 -0.007369
-0.039806 0.449777 -0.009100
-0.042774 0.456041 -0.011020
-0.040379 0.465440 -0.011277
-0.039072 0.443196 -0.008108
-0.038620 0.448771 -0.009804
-0.040656 0.449692 -0.010502
-0.040457 0.454737 -0.010770
-0.038345 0.442966 -0.009782
-0.038276 0.438991 -0.010159
-0.039339 0.444340 -0.009295
-0.037586 0.446292 -0.008374
-0.042164 0.447769 -0.008682
-0.039528 0.442723 -0.008880
-0.039873 0.445277 -0.007789
-0.040164 0.455120 -0.007825
-0.038264 0.447087 -0.009427
-0.036783 0.444659 -0.003851
-0.035815 0.453655 -0.004951
-0.035936 0.462348 0.000146
-0.034241 0.456733 -0.001327
-0.037557 0.448177 -0.010077
-0.033497 0.457605 -0.005421
-0.035667 0.446743 -0.005625
-0.034942 0.448707 -0.006541
-0.036269 0.440439 -0.005794
-0.035305 0.450778 -0.003329
-0.032225 0.449431 -0.000693
-0.034276 0.444208 0.002595
-0.034179 0.460832 -0.003410
-0.034149 0.436454 -0.005807
-0.034835 0.454882 -0.007083
-0.035715 0.455010 0.003950
-0.037614 0.454035 -0.004760
-0.036759 0.458646 -0.008781
-0.035910 0.468718 -0.006764
-0.036650 0.447857 -0.005381
-0.035575 0.452119 -0.004956
-0.034965 0.455132 -0.007100
-0.036155 0.460685 -0.006306
-0.035514 0.445947 -0.001897
-0.036392 0.441445 -0.002624
-0.035438 0.450086 -0.005194
-0.035879 0.450670 0.001490
-0.038125 0.452712 -0.008227
-0.035039 0.448306 -0.006441
-0.036627 0.451233 -0.006729
-0.037854 0.462716 -0.006877
-0.035831 0.452714 -0.000147
-0.043579 0.443163 -0.011512
-0.045908 0.457511 -0.011101
-0.045946 0.466725 -0.010696
-0.046910 0.459955 -0.008699
-0.046467 0.447414 -0.010708
-0.047905 0.459214 -0.007637
-0.047412 0.450897 -0.013227
-0.049261 0.452530 -0.007712
-0.045708 0.432891 -0.011391
-0.046945 0.452611 -0.011353
-0.048006 0.447925 -0.006353
-0.047737 0.444131 -0.007390
-0.043935 0.464375 -0.011059
-0.047125 0.429538 -0.010244
-0.043000 0.457387 -0.012707
-0.048110 0.456581 -0.005594
-0.043345 0.457832 -0.012307
-0.047500 0.463928 -0.009616
-0.045608 0.472822 -0.010450
-0.041971 0.448046 -0.013307
-0.044219 0.457862 -0.012471
-0.046689 0.456445 -0.009493
-0.045431 0.460892 -0.010946
-0.045206 0.445201 -0.013158
-0.047298 0.440515 -0.012550
-0.044966 0.450888 -0.011076
-0.045008 0.454709 -0.010864
-0.042710 0.455085 -0.011762
-0.045840 0.443711 -0.009760
-0.043957 0.450607 -0.010772
-0.042695 0.463924 -0.010906
-0.045927 0.454465 -0.012090
-0.006952 0.480892 0.017313
-0.037359 0.489930 0.015501
-0.013176 0.508040 0.014184
-0.048080 0.492784 0.014114
-0.053648 0.480074 0.015053
-0.079660 0.494349 0.012812
-0.034520 0.485830 0.013795
-0.091317 0.482296 0.011639
-0.024791 0.473146 0.015773
-0.047196 0.482824 0.014739
-0.067152 0.476006 0.015249
-0.036490 0.479088 0.012312
-0.024992 0.503333 0.015533
-0.046834 0.475174 0.011769
-0.018285 0.494079 0.015666
-0.024135 0.491110 0.013094
0.003539 0.490616 0.014931
-0.063505 0.502966 0.012474
-0.044915 0.513075 0.013519
0.008185 0.480121 0.015012
-0.009470 0.489549 0.014836
-0.062417 0.485713 0.012895
-0.034500 0.499057 0.013017
-0.019358 0.480486 0.015264
-0.008315 0.477643 0.013893
-0.029441 0.479383 0.015827
-0.003091 0.485131 0.016326
-0.018154 0.487003 0.017431
-0.031334 0.476578 0.015291
-0.016332 0.480562 0.018250
-0.004281 0.498380 0.016570
-0.023162 0.481291 0.016661
-0.039824 0.453391 -0.007757
-0.039302 0.461085 -0.009193
-0.037736 0.469607 -0.008447
-0.037355 0.463193 -0.009471
-0.041830 0.454979 -0.011089
-0.039172 0.464145 -0.010711
-0.039254 0.456146 -0.011152
-0.041293 0.457490 -0.010385
-0.039368 0.446924 -0.008226
-0.038625 0.458858 -0.010252
-0.037089 0.456068 -0.008844
-0.036922 0.452444 -0.007700
-0.037524 0.466993 -0.009460
-0.038681 0.443654 -0.011128
-0.038391 0.460619 -0.009812
-0.037868 0.461960 -0.005941
-0.039953 0.461208 -0.008993
-0.041782 0.466637 -0.010628
-0.039537 0.475509 -0.010778
-0.039198 0.454722 -0.008148
-0.038715 0.460082 -0.009749
-0.039681 0.461394 -0.009891
-0.040091 0.465773 -0.010119
-0.038355 0.454298 -0.009710
-0.038376 0.450121 -0.010043
-0.039278 0.456199 -0.008813
-0.037775 0.457914 -0.007854
-0.041978 0.459313 -0.008479
-0.039150 0.454412 -0.008534
-0.039768 0.457058 -0.007613
-0.040293 0.466588 -0.007543
-0.038463 0.458989 -0.008819
-0.036669 0.475703 0.002318
-0.035466 0.477771 0.001448
-0.035181 0.486283 0.006204
-0.033469 0.480235 0.004031
-0.034682 0.475926 -0.006111
-0.032214 0.479801 0.002333
-0.035810 0.476026 0.000603
-0.033829 0.475675 0.001512
-0.035221 0.472557 -0.000147
-0.034262 0.477276 0.003294
-0.032427 0.476972 0.006167
-0.034911 0.473566 0.008430
-0.033819 0.484482 0.001320
-0.033764 0.468877 0.001275
-0.034211 0.478024 -0.000367
-0.036106 0.478253 0.011257
-0.036813 0.478719 0.002735
-0.034625 0.481929 -0.003275
-0.034715 0.495180 -0.000752
-0.034668 0.475768 0.001111
-0.035305 0.477234 0.001351
-0.033110 0.478652 0.000164
-0.034396 0.482822 0.000715
-0.035449 0.475943 0.004007
-0.035996 0.472868 0.003390
-0.035244 0.477232 0.001968
-0.035579 0.477253 0.006235
-0.035113 0.478205 -0.003036
-0.033697 0.478632 -0.000233
-0.034877 0.477208 -0.000025
-0.035615 0.485131 -0.002024
-0.035865 0.478540 0.005093
-0.046504 0.475338 -0.002815
-0.044489 0.480198 -0.003192
-0.043607 0.487157 0.007361
-0.043179 0.482539 0.002316
-0.043842 0.476630 -0.007130
-0.041136 0.482483 -0.002152
-0.045867 0.476660 -0.003954
-0.042666 0.476740 -0.002265
-0.046256 0.471575 -0.004242
-0.044618 0.479277 -0.000213
-0.041651 0.478723 0.003964
-0.044529 0.474804 0.011397
-0.041754 0.486055 -0.000998
-0.045127 0.467855 -0.003196
-0.042845 0.480425 -0.005229
-0.044747 0.480192 0.015276
-0.046561 0.481431 -0.001553
-0.042386 0.483551 -0.005011
-0.041984 0.496722 -0.004151
-0.045484 0.478059 -0.004396
-0.045061 0.479276 -0.002602
-0.042828 0.480376 -0.004248
-0.042977 0.484013 -0.003666
-0.045452 0.476073 0.002314
-0.046780 0.472665 0.000675
-0.045199 0.478580 -0.003059
-0.045423 0.479507 0.007476
-0.043717 0.479629 -0.005190
-0.042826 0.479081 -0.003873
-0.043628 0.478761 -0.004024
-0.043670 0.488337 -0.006152
-0.045125 0.480530 0.004466
0.026731 0.488055 0.006902
-0.020679 0.489797 0.007461
0.024857 0.491818 0.007348
-0.033925 0.486016 0.011594
-0.014922 0.487323 0.001106
-0.049864 0.489277 0.008882
0.005009 0.489443 0.010276
