-0.071273 -0.491618 0.004416
-0.064085 -0.483442 0.006363
-0.044306 -0.465473 0.029400
-0.051365 -0.482301 0.012628
-0.062831 -0.477649 -0.000128
-0.042982 -0.480657 0.010633
-0.052148 -0.482017 0.001723
-0.036123 -0.489562 0.009325
-0.041720 -0.483420 0.008534
-0.036092 -0.479385 0.009592
-0.037516 -0.496345 -0.002366
-0.033327 -0.492682 0.000902
-0.044236 -0.498603 -0.010926
-0.046056 -0.464338 0.004439
-0.036316 -0.469095 0.009285
-0.019065 -0.459464 0.026035
-0.036260 -0.458192 0.008959
-0.053449 -0.474747 -0.012144
-0.038322 -0.491682 -0.009298
-0.041261 -0.480969 -0.007468
-0.035009 -0.481478 -0.004755
-0.037190 -0.488369 -0.009877
-0.053753 -0.479485 -0.018308
-0.036256 -0.448542 0.009742
-0.044470 -0.477274 -0.011735
-0.033488 -0.466362 0.000760
-0.034265 -0.474422 -0.008354
-0.036332 -0.432721 0.008918
-0.018873 -0.477975 0.000233
-0.045390 -0.448946 -0.005531
-0.038457 -0.465797 -0.009165
-0.035111 -0.461033 -0.005008
-0.061343 -0.425865 -0.007832
-0.060816 -0.381898 0.013107
-0.029412 -0.479236 -0.010231
-0.044373 -0.456589 -0.011820
-0.033897 -0.448157 0.000537
-0.033490 -0.445298 0.000567
-0.036348 -0.422287 0.009120
-0.035027 -0.450890 -0.005390
-0.044739 -0.447683 -0.012960
-0.033663 -0.435450 0.000270
-0.036318 -0.411830 0.009080
-0.038570 -0.445451 -0.009643
-0.035228 -0.440586 -0.005323
-0.012633 -0.479639 -0.008989
-0.033653 -0.425246 0.000449
-0.037240 -0.452077 -0.015100
-0.044594 -0.431185 -0.012105
-0.036232 -0.397110 0.009608
-0.033618 -0.414831 0.000255
-0.043526 -0.403802 -0.002203
-0.038592 -0.425153 -0.009742
-0.034990 -0.419956 -0.004977
-0.044481 -0.415913 -0.012016
-0.036347 -0.385230 0.008657
-0.033495 -0.405427 0.000935
-0.035907 -0.430841 -0.017285
-0.038520 -0.404875 -0.009733
-0.033621 -0.389160 0.000611
-0.044409 -0.395689 -0.012193
-0.035150 -0.395550 -0.005180
-0.036101 -0.360347 0.010468
-0.050989 -0.359691 -0.003242
-0.038541 -0.390031 -0.009617
-0.044379 -0.384933 -0.012030
-0.035126 -0.383562 -0.005413
-0.033557 -0.373469 0.000179
-0.036381 -0.350002 0.008888
-0.044669 -0.374255 -0.012307
-0.038468 -0.378354 -0.009738
-0.033568 -0.362947 0.000103
-0.036159 -0.335008 0.010030
-0.038598 -0.368345 -0.009978
-0.044647 -0.359768 -0.012454
-0.033387 -0.356927 -0.002683
-0.029812 -0.380909 -0.012485
-0.039041 -0.326261 0.006993
-0.033668 -0.347416 -0.000164
-0.035084 -0.353701 -0.005229
-0.044581 -0.349292 -0.012352
-0.036402 -0.314502 0.009553
-0.033626 -0.337597 0.000152
-0.051785 -0.296939 0.005924
-0.035138 -0.344258 -0.005555
-0.044460 -0.339308 -0.012414
-0.033572 -0.328729 0.000760
-0.036341 -0.303295 0.009239
-0.035126 -0.332871 -0.005831
-0.044315 -0.328633 -0.012485
-0.036322 -0.294130 0.009779
-0.033570 -0.318234 0.000386
-0.035089 -0.323569 -0.005448
-0.044482 -0.317287 -0.012445
-0.033602 -0.307196 0.000352
-0.036318 -0.278882 0.009761
-0.028621 -0.320831 -0.007541
-0.038590 -0.308130 -0.010177
-0.044474 -0.303743 -0.012351
-0.036153 -0.268162 0.009551
-0.025179 -0.300879 0.001177
-0.042780 -0.250040 0.012292
-0.035071 -0.297274 -0.005772
-0.033637 -0.286316 -0.000089
-0.044312 -0.294119 -0.012536
-0.036341 -0.257216 0.008643
-0.036211 -0.248436 0.010223
-0.038630 -0.286428 -0.010274
-0.035179 -0.278301 -0.005434
-0.044420 -0.277156 -0.012553
-0.033570 -0.266951 -0.000321
-0.036288 -0.237872 0.009784
-0.036345 -0.248993 0.004274
-0.033678 -0.257882 0.000448
-0.038636 -0.267828 -0.010061
-0.036205 -0.227301 0.009830
-0.035119 -0.261986 -0.005955
-0.038530 -0.217126 0.012281
-0.044532 -0.258151 -0.012505
-0.035357 -0.265538 -0.011336
-0.036248 -0.217201 0.009487
-0.033576 -0.241990 0.000178
-0.044455 -0.248064 -0.012537
-0.038638 -0.252504 -0.010121
-0.040233 -0.221668 0.003559
-0.035154 -0.247666 -0.005865
-0.045307 -0.206773 0.004336
-0.033627 -0.230416 -0.000161
-0.026406 -0.262984 -0.011393
-0.026207 -0.249826 -0.004941
-0.036152 -0.201713 0.009384
-0.044244 -0.231701 -0.012455
-0.038606 -0.236144 -0.010177
-0.033696 -0.221038 -0.000331
-0.070253 -0.177021 -0.010366
-0.038740 -0.226485 -0.010469
-0.036132 -0.185882 0.008314
-0.035136 -0.217543 -0.005537
-0.033562 -0.205684 -0.000462
-0.044184 -0.212079 -0.012488
-0.036138 -0.176936 0.008416
-0.027947 -0.218386 -0.006921
-0.038498 -0.206126 -0.010110
-0.033436 -0.168365 0.012093
-0.044136 -0.201291 -0.012366
-0.034936 -0.200760 -0.005914
-0.033514 -0.190785 -0.000231
-0.052023 -0.181515 -0.011265
-0.036116 -0.161574 0.007928
-0.038469 -0.194486 -0.010069
-0.044244 -0.189308 -0.012520
-0.033600 -0.180237 -0.000931
-0.040575 -0.176469 -0.004193
-0.035020 -0.185558 -0.006253
-0.036036 -0.145827 0.008192
-0.044194 -0.176187 -0.012595
-0.030981 -0.181713 -0.005466
-0.035039 -0.175564 -0.006213
-0.033595 -0.165669 -0.000977
-0.057559 -0.107799 0.008172
-0.026643 -0.150953 0.011179
-0.017758 -0.169888 0.006486
-0.036020 -0.135090 0.008050
-0.044126 -0.166226 -0.012764
-0.038390 -0.170586 -0.010264
-0.034973 -0.160571 -0.006344
-0.033584 -0.150995 -0.000936
-0.035920 -0.126275 0.008371
-0.044035 -0.156074 -0.012665
-0.017200 -0.154156 0.008328
-0.035943 -0.115029 0.008330
-0.038348 -0.150404 -0.010288
-0.034862 -0.145657 -0.006307
-0.033459 -0.135473 -0.000774
-0.043946 -0.140741 -0.012535
-0.035813 -0.105736 0.008295
-0.044008 -0.129723 -0.012387
-0.038346 -0.135099 -0.010254
-0.033473 -0.120038 -0.000949
-0.026091 -0.129200 0.000671
-0.038702 -0.096100 0.006596
-0.034843 -0.129310 -0.006411
-0.033241 -0.110156 -0.000531
-0.038265 -0.119781 -0.010353
-0.035711 -0.084752 0.007851
-0.038240 -0.113575 -0.007579
-0.034857 -0.115097 -0.006570
-0.043869 -0.109875 -0.012391
-0.033832 -0.116376 -0.008215
-0.033339 -0.099265 -0.001025
-0.031430 -0.097810 0.000475
-0.035689 -0.074207 0.007336
-0.034662 -0.104025 -0.006282
-0.043683 -0.099115 -0.012215
-0.033193 -0.089408 -0.001072
-0.038147 -0.094036 -0.010249
-0.043761 -0.088565 -0.012605
-0.013760 -0.111362 -0.002398
-0.035536 -0.054151 0.007548
-0.033164 -0.073485 -0.001192
-0.043696 -0.078661 -0.012618
-0.034603 -0.079106 -0.006488
-0.035474 -0.044268 0.007492
-0.006533 -0.090057 0.008060
-0.033140 -0.064309 -0.001271
-0.044533 -0.013969 0.013361
-0.042569 -0.055804 -0.005030
-0.035780 -0.060722 -0.002921
-0.020599 -0.058422 0.008033
-0.038134 -0.068616 -0.010320
-0.043566 -0.059014 -0.012682
-0.035361 -0.028088 0.007554
-0.032922 -0.048665 -0.001142
-0.034556 -0.058707 -0.006628
-0.033889 -0.042878 0.000312
-0.035356 -0.018224 0.007381
-0.037875 -0.048455 -0.010326
-0.032899 -0.038127 -0.001421
-0.027867 -0.043523 -0.000677
-0.043470 -0.043589 -0.012667
-0.034411 -0.043326 -0.006509
-0.035324 -0.008401 0.007420
-0.032886 -0.028245 -0.001239
-0.043275 -0.033173 -0.012590
-0.037738 -0.038174 -0.010344
-0.034118 -0.033084 -0.006614
-0.034368 0.002150 0.008823
-0.035244 0.001540 0.007408
-0.034734 0.040270 0.024449
-0.037713 -0.027663 -0.010232
-0.034296 -0.022673 -0.006605
-0.043230 -0.018120 -0.012638
-0.035347 0.012520 0.007190
-0.032792 -0.008247 -0.001363
-0.021970 0.005431 0.011632
-0.016096 -0.065145 -0.017129
-0.034233 -0.012744 -0.006707
-0.004752 -0.030280 0.006340
-0.035153 0.022063 0.007397
-0.023415 0.004300 0.007682
-0.032865 0.001894 -0.001443
-0.037602 -0.007936 -0.010470
-0.043234 -0.002863 -0.012751
-0.034058 -0.002669 -0.006791
-0.035289 0.032255 0.007203
-0.032668 0.012078 -0.001538
-0.043340 0.008038 -0.012443
-0.037538 0.002861 -0.010385
-0.034292 0.007745 -0.006641
-0.035284 0.042626 0.007134
-0.037689 0.012560 -0.010561
-0.045481 0.021669 -0.012323
-0.035189 0.052187 0.007549
-0.027811 0.029507 0.002057
-0.034283 0.022318 -0.006846
-0.043247 0.026759 -0.013054
-0.048981 0.073221 0.002526
-0.035258 0.063151 0.007259
-0.034205 0.032366 -0.006765
-0.032753 0.042408 -0.001368
-0.031972 0.044786 0.000322
-0.030961 0.015254 -0.013306
-0.043274 0.037333 -0.012808
-0.035310 0.073529 0.007330
-0.037662 0.042393 -0.010469
-0.032660 0.052411 -0.001625
-0.034119 0.047499 -0.006771
-0.043398 0.101652 0.010017
-0.043292 0.052685 -0.012716
-0.032703 0.063078 -0.001592
-0.034178 0.057836 -0.006729
-0.035211 0.093552 0.007452
-0.032845 0.072855 -0.001387
-0.043332 0.067736 -0.012806
-0.037462 0.063190 -0.010602
-0.019113 0.044127 -0.005202
-0.034173 0.068216 -0.006709
-0.028869 0.082806 0.003432
-0.037639 0.073380 -0.010373
-0.043300 0.078398 -0.012718
-0.012282 0.061142 0.001330
-0.035441 0.113343 0.007066
-0.034235 0.083110 -0.006889
-0.010716 0.083702 0.010981
-0.033007 0.093258 -0.001530
-0.043396 0.088405 -0.012890
-0.032859 0.103051 -0.001597
-0.035627 0.103980 -0.003061
-0.035337 0.129041 0.006922
-0.037884 0.097760 -0.010649
-0.043431 0.103431 -0.013099
-0.046279 0.162803 0.012098
-0.032941 0.112975 -0.001621
-0.035458 0.139194 0.006852
-0.037879 0.108128 -0.010594
-0.043395 0.113456 -0.013016
-0.032840 0.123525 -0.001761
-0.035521 0.149058 0.006893
-0.022545 0.146462 0.014031
-0.037813 0.118690 -0.010574
-0.043405 0.123682 -0.012766
-0.033002 0.133405 -0.001694
-0.047173 0.193569 0.014609
-0.014725 0.086114 -0.010085
-0.035543 0.159857 0.006951
-0.034371 0.128318 -0.006965
-0.037828 0.133820 -0.010620
-0.035525 0.169896 0.006949
-0.033034 0.148619 -0.001705
-0.043545 0.143825 -0.012664
-0.017377 0.159563 0.014511
-0.020545 0.145122 0.005097
-0.034388 0.143707 -0.006902
-0.035501 0.179897 0.007135
-0.043612 0.154141 -0.012947
-0.037980 0.149047 -0.010563
-0.019098 0.160176 0.007674
-0.033006 0.164027 -0.001733
-0.034583 0.158977 -0.006941
-0.035550 0.199247 0.006866
-0.033003 0.174197 -0.001724
-0.038015 0.163827 -0.010728
-0.043540 0.169130 -0.013012
-0.034557 0.168975 -0.006934
-0.035651 0.210010 0.006650
-0.037954 0.173797 -0.010756
-0.033061 0.188790 -0.001796
-0.034571 0.178782 -0.007023
-0.043609 0.184084 -0.013023
-0.035754 0.220914 0.007065
-0.038676 0.232488 0.009963
-0.033057 0.198960 -0.001856
-0.030321 0.219106 0.009333
-0.043541 0.194151 -0.013022
-0.034588 0.193846 -0.007017
-0.033222 0.208961 -0.001719
-0.037954 0.198696 -0.010920
-0.043668 0.204493 -0.013051
0.008582 0.122167 -0.011420
-0.034633 0.203905 -0.007168
-0.035784 0.240708 0.006970
-0.038004 0.209050 -0.010818
-0.043727 0.214470 -0.012959
-0.034626 0.214011 -0.006961
-0.033354 0.224877 -0.001689
-0.035797 0.251419 0.006932
-0.038154 0.219727 -0.010683
-0.033283 0.234417 -0.001502
-0.043872 0.229841 -0.012990
-0.035865 0.262030 0.007227
-0.018816 0.243439 0.010995
-0.028156 0.225564 -0.005917
-0.038275 0.234600 -0.010805
-0.035836 0.271833 0.007122
-0.043947 0.244906 -0.012917
-0.033408 0.249837 -0.001813
-0.041600 0.235374 -0.015240
-0.000359 0.204629 0.002434
-0.034779 0.244483 -0.007051
-0.035790 0.286801 0.007725
-0.043901 0.255430 -0.012942
-0.038381 0.249599 -0.010794
-0.034844 0.260125 -0.006922
-0.044019 0.265612 -0.012964
-0.025539 0.279497 0.005727
-0.035910 0.302593 0.007558
-0.033418 0.280104 -0.001590
-0.038368 0.270219 -0.010802
-0.034917 0.274668 -0.006915
-0.044057 0.280070 -0.012888
-0.035985 0.312864 0.007476
-0.033346 0.295621 -0.001732
-0.034942 0.289977 -0.006870
-0.044122 0.291053 -0.012901
-0.035955 0.323185 0.007556
-0.032724 0.320634 0.007653
-0.033367 0.306373 -0.001718
-0.035240 0.330958 0.006899
-0.036080 0.334370 0.007382
-0.038477 0.300851 -0.010792
-0.044042 0.306698 -0.012892
-0.038360 0.311029 -0.010674
-0.035035 0.315878 -0.006863
-0.044132 0.316685 -0.012907
-0.033587 0.326219 -0.001590
-0.015568 0.301042 -0.001801
-0.036127 0.359175 0.007641
-0.038574 0.320534 -0.010730
-0.022133 0.324821 0.003216
-0.044165 0.327424 -0.012809
-0.033472 0.343014 -0.001191
-0.038469 0.331328 -0.010608
-0.044091 0.337617 -0.012886
-0.034972 0.336941 -0.006658
-0.036216 0.375130 0.007949
-0.033494 0.351977 -0.001339
-0.038363 0.342493 -0.010646
-0.044170 0.347883 -0.012763
-0.034973 0.347031 -0.006801
-0.036093 0.385664 0.008645
-0.038585 0.352328 -0.010638
-0.044259 0.358285 -0.012690
-0.024059 0.358946 0.002370
-0.033650 0.368052 -0.001304
-0.035140 0.361553 -0.006435
-0.036055 0.364065 -0.006465
-0.036303 0.400866 0.008618
0.004197 0.281194 -0.014610
-0.044195 0.368954 -0.012488
-0.033606 0.378496 -0.001154
-0.035087 0.372448 -0.006207
-0.036276 0.411727 0.008551
-0.035820 0.400582 0.004200
-0.033653 0.388523 -0.000820
-0.038454 0.378321 -0.010191
-0.044231 0.384489 -0.012524
-0.035070 0.382703 -0.006363
-0.036261 0.421903 0.008576
-0.038675 0.388075 -0.010069
-0.001954 0.348339 0.000233
-0.033707 0.404535 -0.000166
-0.040027 0.470916 0.023190
-0.036257 0.431546 0.008247
-0.035209 0.398133 -0.005727
-0.044353 0.399417 -0.012173
-0.040943 0.441456 0.006993
-0.036307 0.442051 0.008690
-0.035145 0.408919 -0.005866
-0.038640 0.403783 -0.010141
-0.026131 0.438488 0.013937
-0.033589 0.419098 -0.000403
-0.025447 0.410861 0.001686
-0.038497 0.413655 -0.009684
-0.044344 0.420199 -0.012059
-0.036263 0.457625 0.009980
-0.037085 0.414809 -0.009096
-0.033666 0.434359 0.000020
-0.036772 0.476536 0.016019
-0.044988 0.432155 -0.009181
0.004048 0.371887 0.000312
-0.035112 0.429915 -0.005493
-0.038582 0.424436 -0.009702
-0.033739 0.444499 0.000039
-0.044088 0.435742 -0.011787
-0.035198 0.439291 -0.005196
-0.040873 0.478335 0.007323
-0.052737 0.473526 -0.005377
-0.044119 0.445853 -0.011618
-0.033542 0.460055 0.000448
-0.044003 0.466925 -0.004637
-0.008282 0.428882 0.005474
-0.040122 0.471111 -0.000804
-0.038601 0.449242 -0.009158
-0.035099 0.454212 -0.005160
-0.044065 0.456464 -0.011413
-0.012493 0.477012 0.019213
-0.038455 0.460665 -0.008871
-0.034539 0.480892 0.002882
-0.043833 0.482470 -0.004492
-0.003261 0.454301 0.012600
-0.018432 0.477214 0.009413
-0.021784 0.467371 0.000480
-0.012408 0.445623 -0.003078
-0.035763 0.486081 -0.004007
0.005566 0.477090 0.016763
-0.037359 0.500064 -0.004989
0.034974 0.384419 -0.005897
-0.003358 0.477133 0.003859
0.010042 0.457416 0.003624
-0.009608 0.477245 -0.004743
-0.017190 0.477717 -0.012064
-0.012458 0.491325 -0.004048
0.022884 0.476960 0.015735
-0.010741 0.497346 -0.000249
-0.020288 0.471415 -0.018584
-0.017120 0.494173 -0.011938
0.017300 0.477085 0.006526
0.011027 0.477004 -0.001389
-0.008466 0.485785 -0.012331
0.026254 0.483277 0.012288
-0.000032 0.478290 -0.012096
0.043136 0.476906 0.017838
-0.008243 0.496787 -0.012015
0.029687 0.461530 0.000524
-0.000005 0.488913 -0.012066
0.034349 0.477068 0.005144
0.008036 0.486224 -0.012098
0.025707 0.477012 -0.006210
0.008315 0.497260 -0.011714
0.015979 0.483817 -0.012141
0.060496 0.476512 0.016182
-0.001724 0.489062 -0.025455
0.016046 0.494233 -0.012027
0.054315 0.476415 0.007714
0.061091 0.486455 0.015624
0.023966 0.486546 -0.012170
0.048363 0.476837 0.000504
0.061259 0.497231 0.015857
0.061062 0.479424 0.008587
0.024239 0.497800 -0.011607
0.039696 0.476395 -0.011744
0.061108 0.489786 0.009095
0.032062 0.494826 -0.011391
0.039965 0.487124 -0.011609
0.061159 0.483295 0.002163
0.047870 0.479357 -0.011988
0.061252 0.476859 -0.004197
0.061352 0.493638 0.002641
0.047866 0.489475 -0.011569
0.061407 0.487472 -0.004241
0.055939 0.481606 -0.011925
0.061614 0.495967 -0.011011
