-0.108026 -0.032583 0.314771
-0.348163 -0.022508 0.126263
-0.081857 -0.032208 0.311946
-0.080956 -0.035850 0.295256
-0.315582 -0.026703 0.103252
-0.061180 -0.035974 0.280873
-0.072439 -0.040027 0.263068
-0.309454 -0.031386 0.075008
-0.050371 -0.039860 0.255265
-0.291754 -0.031270 0.070265
-0.051190 -0.040863 0.242488
-0.352857 -0.038066 0.003753
-0.055730 -0.044292 0.228363
-0.335315 -0.042074 0.010143
-0.063406 -0.048429 0.213437
-0.343396 -0.028926 0.007669
-0.288598 -0.036103 0.043239
-0.320949 -0.013683 0.027649
-0.326400 -0.028619 0.013606
-0.036999 -0.043954 0.226155
-0.306965 -0.045802 0.016167
-0.291674 -0.045381 0.020758
-0.296036 -0.032437 0.022180
-0.307105 -0.023996 0.016008
-0.270521 -0.035959 0.038767
-0.282695 -0.032209 0.024686
-0.343862 -0.012568 -0.016416
-0.272029 -0.044917 0.024242
-0.326349 -0.002221 0.000747
-0.338143 0.020084 0.000565
-0.054793 -0.042909 0.186262
-0.019646 -0.044161 0.211627
-0.042196 -0.048862 0.192081
-0.343876 0.038016 0.000699
-0.349767 0.051549 0.000687
-0.272151 -0.058302 0.011075
-0.272534 -0.020784 0.025788
-0.361634 0.078799 0.000657
-0.285665 -0.019486 0.014784
-0.256997 -0.036018 0.029087
-0.367608 0.092516 0.000642
-0.302197 -0.015391 0.002133
-0.303958 -0.034457 -0.008556
-0.275945 -0.061751 0.000693
-0.319642 0.015498 0.001801
-0.317328 -0.017844 -0.012847
-0.266365 -0.023472 0.024447
-0.253753 -0.062064 0.013400
-0.367561 0.106049 0.000693
-0.342721 0.069232 0.001973
-0.240421 -0.044181 0.029577
-0.020513 -0.048257 0.193671
-0.240484 -0.057081 0.022975
-0.010126 -0.044319 0.202603
-0.326611 0.045104 0.001619
-0.319015 0.033185 0.002511
-0.292666 -0.007381 0.002759
-0.022028 -0.044703 0.191952
-0.240851 -0.023938 0.033495
-0.307061 0.024214 0.003083
-0.311933 0.017882 -0.004462
-0.348035 0.100659 0.002584
-0.295272 0.015334 0.003596
-0.265229 -0.015056 0.012756
-0.324171 0.064254 0.003198
-0.312479 0.046313 0.003419
-0.230612 -0.065643 0.015331
-0.235370 -0.027302 0.029223
-0.221980 -0.056526 0.026101
-0.270665 -0.050158 -0.009145
-0.278039 -0.006525 0.004077
-0.053389 -0.058175 0.147675
-0.212181 -0.043606 0.031791
-0.252856 -0.011411 0.014228
-0.331211 0.095623 0.001797
-0.216061 -0.069559 0.013584
-0.221174 -0.059471 0.013537
-0.245360 -0.053336 -0.003006
-0.300775 0.054873 0.003777
-0.312811 0.072806 0.003040
-0.271898 0.010844 0.004775
-0.202888 -0.064512 0.023723
-0.319953 0.086376 0.001448
-0.281683 -0.007490 -0.013161
-0.211895 -0.041677 0.025166
-0.283253 0.032683 0.004512
-0.252817 -0.009388 0.007747
-0.001364 -0.048369 0.180623
-0.213624 -0.027046 0.029978
-0.260592 -0.002159 0.005101
-0.035089 -0.057571 0.149467
-0.196298 -0.047435 0.032181
-0.249433 -0.010744 0.005374
-0.332858 -0.008316 -0.059801
-0.188409 -0.059753 0.029077
-0.294556 -0.018547 -0.034646
-0.225271 -0.062012 -0.001461
-0.012987 -0.052830 0.163496
-0.009308 -0.043980 0.169005
-0.194142 -0.073055 0.014849
-0.262979 -0.030425 -0.022958
-0.280546 0.050183 0.001097
-0.216386 -0.014689 0.019872
-0.262323 0.028125 0.003002
-0.192279 -0.026796 0.030722
-0.174746 -0.046963 0.033624
-0.239038 -0.002141 0.004818
-0.251471 0.019390 0.002867
-0.180303 -0.076919 0.012673
-0.166620 -0.049471 0.035265
-0.037999 -0.054627 0.130675
-0.200779 -0.019500 0.023235
-0.166675 -0.059136 0.030927
-0.227670 -0.010650 0.005594
-0.240708 0.010728 0.002734
0.003530 -0.052670 0.157739
-0.017660 -0.037552 0.145044
-0.244266 -0.034793 -0.026799
-0.162038 -0.076114 0.016724
-0.164735 -0.034570 0.033525
-0.168981 -0.039240 0.027668
0.014328 -0.045449 0.162003
-0.162383 -0.060699 0.019427
-0.224910 -0.011104 -0.006942
-0.152052 -0.037067 0.035862
-0.144561 -0.066871 0.027031
-0.144725 -0.046375 0.033648
-0.209422 -0.006361 0.001728
-0.240375 -0.039386 -0.038722
-0.190877 -0.010442 0.012326
-0.201963 -0.012092 0.000836
-0.038796 -0.061041 0.101608
-0.167846 -0.003205 0.026645
-0.141942 -0.079980 0.009786
-0.001080 -0.057857 0.125140
-0.163801 -0.014362 0.021202
-0.141656 -0.026230 0.031066
-0.195258 -0.065043 -0.029956
0.028320 -0.049175 0.146272
0.020365 -0.044070 0.142174
0.013582 -0.046243 0.133676
-0.120092 -0.074612 0.019947
-0.125363 -0.034006 0.033324
-0.125650 -0.039495 0.029212
-0.124965 -0.069239 0.015717
-0.115445 -0.045803 0.033671
-0.037204 -0.051694 0.089295
-0.002686 -0.062263 0.109349
-0.168127 -0.063385 -0.018131
-0.205852 -0.034849 -0.034234
0.019224 -0.057303 0.124837
-0.033671 -0.068436 0.080592
-0.019518 -0.062169 0.093608
0.024232 -0.085779 0.112910
-0.102304 -0.069788 0.024807
-0.082426 -0.074230 0.037302
-0.101334 -0.049500 0.033301
0.005414 -0.052244 0.110637
-0.091679 -0.057430 0.035683
-0.134088 -0.014188 0.020937
-0.039089 -0.043011 0.077817
0.028445 -0.046594 0.126732
0.018481 -0.065112 0.110116
-0.015500 -0.067790 0.081901
-0.011340 -0.105492 0.067572
-0.122348 -0.006197 0.028806
-0.120503 -0.080931 -0.004517
-0.181771 -0.000043 -0.013470
0.042784 -0.095652 0.110134
0.053757 -0.087252 0.122450
-0.181991 -0.042179 -0.036571
0.039728 -0.053257 0.125539
0.038111 -0.071101 0.115921
-0.097448 -0.029680 0.032018
-0.089983 -0.077969 0.014615
-0.082444 -0.049099 0.033307
-0.171340 -0.033180 -0.028282
-0.132087 -0.073265 -0.016416
-0.078267 -0.069043 0.025362
-0.102446 -0.073971 0.003043
-0.165194 -0.040533 -0.030106
-0.114686 -0.014075 0.020748
0.005950 -0.104631 0.067841
-0.088597 -0.026305 0.030641
-0.012972 -0.091503 0.057665
0.060992 -0.066546 0.121389
-0.089683 -0.082858 0.000353
0.074864 -0.093454 0.118386
-0.061124 -0.056686 0.032605
0.074809 -0.075978 0.125392
-0.070226 -0.077231 0.016004
-0.048089 -0.075701 0.029246
-0.059257 -0.048606 0.033316
-0.005706 -0.076455 0.060537
0.085336 -0.085790 0.123646
0.054812 -0.057433 0.113558
-0.095611 -0.013964 0.020534
-0.080871 -0.021669 0.028562
-0.006377 -0.061243 0.062250
0.045134 -0.065161 0.098117
-0.059622 -0.042547 0.030649
-0.131158 -0.047817 -0.027592
-0.064790 -0.029268 0.031854
0.049140 -0.050407 0.107259
0.009859 -0.105790 0.052506
-0.009657 -0.053844 0.059805
0.093306 -0.075340 0.124399
-0.074890 -0.068448 0.000825
-0.018192 -0.053996 0.050031
0.067574 -0.056597 0.112085
0.033840 -0.057225 0.086695
0.094182 -0.096528 0.111442
-0.045173 -0.040558 0.033958
-0.143470 -0.047510 -0.044706
0.054612 -0.043091 0.105813
-0.135499 -0.009826 -0.022326
-0.088164 -0.074900 -0.017746
-0.045685 -0.047717 0.026286
0.055333 -0.064627 0.091287
-0.032040 -0.048028 0.033326
-0.081899 -0.009978 0.012450
-0.000553 -0.077615 0.040840
0.086436 -0.059514 0.111217
-0.048677 -0.021373 0.028296
0.100187 -0.065584 0.115798
0.010394 -0.055558 0.052268
-0.047883 -0.028373 0.020661
-0.005479 -0.057419 0.039292
-0.033025 -0.028867 0.031696
0.067274 -0.059519 0.091309
0.084333 -0.084843 0.092213
-0.067899 -0.009920 0.012284
-0.020766 -0.062772 0.023067
-0.107437 -0.030685 -0.030162
-0.105899 -0.044130 -0.036085
0.081769 -0.040875 0.105462
-0.013922 -0.040002 0.033895
0.059431 -0.051269 0.082319
-0.009512 -0.051028 0.030519
-0.104944 -0.024323 -0.030551
-0.060382 -0.076617 -0.020545
-0.012484 -0.024404 0.039496
0.011067 -0.055224 0.042386
0.088898 -0.076224 0.090168
-0.095755 -0.047340 -0.035137
-0.000914 -0.051143 0.033651
-0.026250 -0.083581 -0.002997
0.048718 -0.040658 0.072390
0.055783 -0.066278 0.065164
-0.021783 -0.021126 0.028060
0.099074 -0.074007 0.090836
0.036653 -0.061952 0.049449
0.016176 -0.064979 0.032953
-0.052370 -0.074886 -0.023568
-0.031522 -0.081439 -0.011537
-0.093289 -0.059720 -0.048138
-0.001499 -0.077254 0.013434
0.072900 -0.058202 0.077618
-0.001491 -0.032236 0.032641
0.012135 -0.053654 0.032158
-0.008562 -0.021004 0.027955
0.061342 -0.061796 0.057229
-0.052212 -0.064832 -0.029606
-0.031351 -0.009768 0.011848
0.016482 -0.039462 0.033831
0.027594 -0.062355 0.027568
-0.043936 -0.007511 -0.001700
0.026290 -0.055190 0.027491
-0.000664 -0.085579 -0.006749
0.068035 -0.052038 0.060394
0.054186 -0.056583 0.044694
0.037556 -0.050267 0.033511
0.005064 -0.075266 -0.004206
0.028546 -0.031807 0.032474
0.084362 -0.058722 0.061089
0.045420 -0.071947 0.025322
-0.036628 -0.036396 -0.021972
0.021689 -0.020726 0.027688
0.069497 -0.052585 0.047363
0.073431 -0.071091 0.038988
0.042942 -0.059837 0.021146
-0.050791 -0.002610 -0.023733
0.013674 -0.069778 -0.007328
-0.000477 -0.007470 0.007465
0.049516 -0.031507 0.032358
0.038622 -0.020571 0.027545
0.073773 -0.076297 0.026337
0.069080 -0.079678 0.021849
0.070801 -0.053165 0.033670
-0.013132 0.000227 -0.008325
0.066530 -0.034912 0.033308
0.045401 -0.014404 0.026683
0.092776 -0.066929 0.037382
0.041994 -0.060561 0.001482
-0.016150 -0.073277 -0.051059
0.055751 -0.076273 -0.003423
0.057754 -0.016733 0.024034
-0.004662 -0.074303 -0.051026
-0.013949 -0.051295 -0.047489
0.038496 -0.009478 0.011028
0.091807 -0.058515 0.026972
0.077705 -0.027470 0.031141
0.021379 -0.061184 -0.029130
0.110421 -0.049001 0.040946
0.070214 -0.046915 0.012108
0.098901 -0.045244 0.033450
0.107305 -0.071163 0.026883
0.108657 -0.047089 0.038999
0.024504 -0.074212 -0.038068
0.098184 -0.079103 0.014496
0.113957 -0.066582 0.031808
-0.011149 -0.065207 -0.063266
0.073071 -0.079120 -0.008347
0.051171 -0.055912 -0.015830
-0.007729 -0.070323 -0.067012
0.024043 -0.046144 -0.034968
0.077069 -0.082096 -0.015245
0.090331 -0.016489 0.023667
0.117533 -0.078488 0.013106
-0.043314 -0.049171 -0.094638
0.001474 -0.049076 -0.060483
0.129910 -0.051755 0.032659
0.132330 -0.059725 0.027910
0.107827 -0.019934 0.026944
0.027618 -0.032762 -0.040254
0.138006 -0.069827 0.024454
0.011326 -0.060395 -0.066797
0.060864 -0.056882 -0.028298
0.133810 -0.081425 0.014428
0.125725 -0.030418 0.031938
0.030411 -0.061444 -0.057139
0.088138 -0.009273 0.010274
0.105756 -0.039145 0.008872
0.069079 -0.060164 -0.028831
0.004356 -0.054473 -0.074192
0.149624 -0.067321 0.026225
0.057096 -0.051543 -0.035675
0.159870 -0.057477 0.037512
0.063168 -0.074426 -0.042304
0.155375 -0.061872 0.029571
0.131242 -0.019719 0.026741
0.021461 -0.046978 -0.069153
0.010347 -0.057895 -0.083857
0.108162 -0.009191 0.009898
0.160784 -0.040408 0.033680
0.041766 -0.052076 -0.060001
0.165429 -0.076498 0.016747
0.086596 -0.045939 -0.028013
-0.033102 -0.050596 -0.125232
0.150375 -0.019543 0.026583
0.160950 -0.081032 0.005152
0.179160 -0.047036 0.033149
0.119850 -0.071460 -0.024704
0.127833 -0.009110 0.009524
0.188312 -0.064456 0.028128
0.095511 -0.062539 -0.043584
0.150868 -0.073224 -0.007503
0.121716 -0.044056 -0.016172
0.087075 -0.074524 -0.056037
0.174514 -0.026248 0.030652
0.048531 -0.056964 -0.077386
0.146461 -0.077782 -0.013989
0.189097 -0.047213 0.030280
0.181456 -0.079952 0.009426
0.209577 -0.052040 0.042164
0.095960 -0.017081 -0.028038
0.034541 -0.055277 -0.091574
0.076583 -0.054532 -0.060796
0.089072 -0.054743 -0.051766
0.201038 -0.046533 0.033175
-0.005292 -0.056287 -0.125516
0.205805 -0.067476 0.026207
-0.022546 -0.047660 -0.136443
0.057991 -0.052898 -0.077875
0.017722 -0.055027 -0.110113
0.080676 -0.048926 -0.061625
0.040508 -0.033331 -0.084680
0.150991 -0.009015 0.009092
0.058706 -0.096457 -0.101661
0.200760 -0.079058 0.011681
0.192837 -0.026018 0.030518
0.178915 -0.015826 0.022675
-0.056478 -0.045712 -0.168401
0.186910 -0.066698 0.004448
0.033534 -0.058155 -0.106011
0.153999 -0.019020 0.001377
0.168297 -0.085235 -0.020369
-0.024022 -0.053173 -0.151106
0.225061 -0.059756 0.030408
0.048404 -0.062774 -0.103013
-0.057032 -0.044532 -0.175828
0.078713 -0.095274 -0.096355
0.219037 -0.039274 0.033556
-0.004780 -0.050703 -0.139201
0.024077 -0.049185 -0.118530
0.219561 -0.078202 0.013657
0.129548 -0.016257 -0.025525
0.087969 -0.059836 -0.076393
0.029659 -0.045292 -0.114582
-0.040742 -0.050197 -0.173783
-0.006793 -0.056216 -0.150744
0.162759 -0.005422 -0.000094
0.194366 -0.067643 -0.006756
0.213784 -0.022357 0.028534
0.172094 -0.051429 -0.015673
0.236916 -0.063632 0.024759
-0.054943 -0.032600 -0.179015
0.097651 -0.090236 -0.092602
0.240074 -0.042241 0.033594
0.237838 -0.077397 0.015194
-0.018383 -0.036081 -0.156554
0.123043 -0.059751 -0.061858
0.055377 -0.053116 -0.109589
0.247674 -0.069586 0.024501
0.092618 -0.057184 -0.084234
0.069310 -0.055099 -0.100851
0.225621 -0.081409 0.000482
0.250064 -0.052173 0.032409
0.074129 -0.075454 -0.110726
0.259415 -0.062154 0.029308
0.163768 -0.016777 -0.019899
0.234949 -0.022127 0.028383
0.000926 -0.046420 -0.157100
-0.061774 -0.029679 -0.197601
0.191154 -0.065243 -0.024476
0.199537 -0.008817 0.008161
0.189477 -0.062888 -0.025644
0.034384 -0.046323 -0.134816
-0.014942 -0.048315 -0.173214
0.021314 -0.034678 -0.138698
0.066249 -0.084045 -0.128667
0.018350 -0.040150 -0.145522
0.260667 -0.041804 0.033606
0.259177 -0.076481 0.016645
0.093183 -0.091903 -0.114166
0.270285 -0.055005 0.031760
0.073378 -0.042939 -0.107931
0.262004 -0.053351 0.025103
-0.036989 -0.042919 -0.192959
0.252405 -0.080977 0.005245
0.018346 -0.043956 -0.151243
0.069097 -0.057807 -0.120403
0.021201 -0.040291 -0.147685
0.047538 -0.061548 -0.141267
0.093691 -0.071674 -0.112329
0.255681 -0.021901 0.028234
0.011615 -0.050087 -0.166483
0.257163 -0.074348 0.004306
-0.036062 -0.038658 -0.199274
0.083782 -0.071980 -0.122936
0.280729 -0.044705 0.033213
0.185885 -0.028761 -0.029023
0.040771 -0.054481 -0.149155
0.270874 -0.079942 0.009354
-0.034946 -0.041298 -0.201477
-0.051829 -0.032957 -0.211300
0.289162 -0.064642 0.027423
0.224084 -0.021793 -0.001520
0.228363 -0.008698 0.007615
0.269764 -0.025052 0.029903
-0.061522 -0.038193 -0.224122
-0.029173 -0.044574 -0.202173
0.070282 -0.055153 -0.131866
0.069761 -0.051206 -0.132003
-0.063606 -0.036232 -0.227294
0.253975 -0.029372 0.012482
0.014625 -0.043884 -0.173007
0.095668 -0.062249 -0.121719
0.010407 -0.040298 -0.176708
0.197502 -0.048540 -0.041148
0.288296 -0.079121 0.011086
-0.008680 -0.033988 -0.192847
0.092798 -0.050092 -0.123532
0.304599 -0.067681 0.023296
-0.007348 -0.022782 -0.186847
0.300133 -0.041037 0.031756
0.225439 -0.050643 -0.027234
-0.027715 -0.036075 -0.213419
0.249482 -0.008612 0.007218
0.313982 -0.105040 0.007395
0.277589 -0.015087 0.021574
-0.027714 -0.029780 -0.214390
0.318320 -0.057199 0.026430
0.211885 -0.059974 -0.053739
0.298795 -0.021462 0.026371
-0.087781 -0.041205 -0.272879
0.305410 -0.077723 0.003450
0.253168 -0.061694 -0.026578
0.306012 -0.079107 0.001519
0.254513 -0.001896 -0.000096
0.246512 -0.004657 -0.011011
0.321706 -0.037495 0.027197
0.329652 -0.063770 0.019624
0.323709 -0.081320 0.007042
0.000661 -0.038059 -0.213295
0.320625 -0.102728 -0.007125
0.317606 -0.024596 0.023296
0.259809 -0.058617 -0.035917
0.306452 -0.014925 0.017356
0.244378 -0.046843 -0.042841
0.290196 -0.008454 0.005315
0.339764 -0.047047 0.022369
0.280177 -0.044499 -0.026834
0.347728 -0.060206 0.014828
0.338949 -0.071100 0.002614
0.310002 -0.011727 0.004410
0.327931 -0.018139 0.011592
0.320008 -0.035906 -0.006183
0.311967 -0.041842 -0.016297
0.350308 -0.034221 0.011858
-0.066655 -0.023645 -0.295362
0.357814 -0.063937 0.001347
