-0.019812 -0.051109 0.176741
-0.004735 -0.052070 0.162009
-0.044294 -0.053016 0.160607
-0.004761 -0.052986 0.155872
-0.014368 -0.053327 0.147128
-0.014446 -0.052681 0.159190
-0.009572 -0.052584 0.157329
-0.016562 -0.052493 0.163764
-0.006478 -0.052669 0.149797
-0.022622 -0.052609 0.167057
-0.023714 -0.053121 0.155718
-0.011052 -0.050699 0.175940
-0.034286 -0.051247 0.174254
-0.002597 -0.051702 0.167596
-0.037523 -0.052667 0.154229
-0.009441 -0.052854 0.164067
-0.020111 -0.052638 0.151818
-0.018446 -0.051942 0.170533
-0.027075 -0.051052 0.177979
-0.019242 -0.051903 0.157963
-0.012622 -0.051307 0.171453
-0.023780 -0.050617 0.171841
-0.014351 -0.052329 0.166145
-0.032516 -0.052900 0.164148
-0.027639 -0.053279 0.148535
-0.007159 -0.051339 0.169627
-0.023737 -0.052560 0.162674
-0.028759 -0.052197 0.168407
0.001434 -0.052262 0.159902
-0.011603 -0.044098 0.157595
-0.040285 -0.043287 0.174776
-0.029604 -0.043505 0.164358
-0.018775 -0.042987 0.185003
-0.001575 -0.044598 0.167093
-0.043422 -0.044499 0.166601
-0.002062 -0.045743 0.159661
-0.011718 -0.043909 0.149283
-0.011792 -0.043633 0.163275
-0.006743 -0.043564 0.160880
-0.013767 -0.042553 0.169203
-0.002609 -0.043998 0.152691
-0.023365 -0.043197 0.174219
-0.023244 -0.043293 0.160546
-0.008758 -0.043781 0.183149
-0.035982 -0.042183 0.182134
-0.001818 -0.046004 0.172973
-0.036808 -0.043473 0.158773
-0.006447 -0.044371 0.170195
-0.017194 -0.042569 0.156320
-0.017890 -0.042965 0.178496
-0.027288 -0.043382 0.185475
-0.017155 -0.044096 0.164423
-0.010915 -0.042875 0.178619
-0.022311 -0.041010 0.179635
-0.012761 -0.042987 0.172575
-0.032198 -0.043055 0.170561
-0.026744 -0.043346 0.151290
-0.005559 -0.043848 0.176816
-0.021676 -0.043440 0.168699
-0.029222 -0.042844 0.176006
0.002721 -0.046848 0.164177
-0.193792 -0.075701 0.002807
-0.211888 -0.071481 0.012816
-0.205508 -0.073537 0.006368
-0.194964 -0.070086 0.019640
-0.181067 -0.074999 0.009497
-0.215899 -0.072378 0.008175
-0.182481 -0.076062 0.005312
-0.192725 -0.075713 -0.004627
-0.190939 -0.074294 0.007363
-0.187683 -0.075278 0.003837
-0.194600 -0.074038 0.010483
-0.183783 -0.076150 -0.000787
-0.199184 -0.072900 0.012260
-0.201010 -0.074524 0.003877
-0.186128 -0.070116 0.019417
-0.207672 -0.070948 0.015810
-0.177078 -0.073940 0.014324
-0.211221 -0.073354 0.002304
-0.185403 -0.075188 0.011580
-0.199934 -0.074716 -0.001602
-0.194359 -0.072344 0.015472
-0.202095 -0.069622 0.018346
-0.194819 -0.073888 0.003527
-0.189210 -0.072013 0.016567
-0.197654 -0.070800 0.014310
-0.189396 -0.073679 0.012293
-0.207014 -0.072688 0.010442
-0.205915 -0.074800 -0.003757
-0.183068 -0.072901 0.015272
-0.200715 -0.074214 0.008372
-0.203221 -0.071727 0.013812
-0.174944 -0.075721 0.008449
-0.266701 -0.014457 -0.013075
-0.292421 -0.023968 -0.018677
-0.291715 -0.019478 -0.017104
-0.274987 -0.015586 -0.013914
-0.237174 -0.039373 -0.026855
-0.300027 -0.025791 -0.018808
-0.243698 -0.015776 -0.017262
-0.271832 -0.030369 -0.022634
-0.256759 -0.030959 -0.025948
-0.244981 -0.024591 -0.023312
-0.278790 -0.032126 -0.024966
-0.250966 -0.035113 -0.026102
-0.268445 -0.020239 -0.020392
-0.253195 -0.027625 -0.024277
-0.256351 -0.018233 -0.021042
-0.286506 -0.040603 -0.025636
-0.231900 -0.018154 -0.021328
-0.296123 -0.032391 -0.022306
-0.248821 -0.014057 -0.012444
-0.275174 -0.043512 -0.024394
-0.261210 -0.015951 -0.015250
-0.286105 -0.025260 -0.022442
-0.256667 -0.042640 -0.026179
-0.261394 -0.023105 -0.023397
-0.264960 -0.036131 -0.027230
-0.250807 -0.020539 -0.021283
-0.283719 -0.016160 -0.011543
-0.273695 -0.023885 -0.021271
-0.238231 -0.027809 -0.026324
-0.281865 -0.026337 -0.022949
-0.278931 -0.020651 -0.018015
-0.227389 -0.026481 -0.025306
-0.292403 0.055327 -0.000162
-0.295644 0.050759 0.000016
-0.298148 0.053737 -0.002095
-0.289770 0.051430 0.001126
-0.267335 0.028570 0.000716
-0.306375 0.052243 -0.001549
-0.282061 0.048277 0.001063
-0.282855 0.039550 -0.001624
-0.278746 0.038335 -0.000528
-0.278619 0.044120 -0.000043
-0.283858 0.040252 -0.000402
-0.274829 0.032866 -0.001470
-0.285473 0.049676 0.000085
-0.278247 0.043025 -0.000294
-0.281670 0.045435 0.001679
-0.288801 0.036413 0.000539
-0.275698 0.042252 0.000991
-0.297520 0.043743 -0.002002
-0.289448 0.053655 0.001198
-0.283325 0.031477 -0.002716
-0.284627 0.051230 0.000577
-0.288729 0.045405 0.000638
-0.273172 0.024231 -0.000539
-0.283363 0.045957 0.001198
-0.278557 0.034585 0.001058
-0.282929 0.047172 0.000076
-0.299773 0.058778 0.000287
-0.289039 0.049699 -0.001508
-0.275603 0.039693 0.000767
-0.288051 0.047180 -0.000419
-0.292420 0.053461 0.000006
-0.268549 0.036644 0.000775
-0.217165 -0.010810 0.010879
-0.232393 -0.016095 0.021093
-0.228454 -0.010788 0.011440
-0.215097 -0.015566 0.019623
-0.202047 -0.017578 0.023731
-0.238918 -0.013949 0.017583
-0.198170 -0.011935 0.015549
-0.211776 -0.010096 0.010872
-0.208932 -0.013678 0.019118
-0.209779 -0.011832 0.015247
-0.218470 -0.014112 0.019930
-0.202977 -0.010522 0.014287
-0.221572 -0.015467 0.020161
-0.215424 -0.012024 0.016251
-0.207567 -0.020176 0.024664
-0.230322 -0.018999 0.024150
-0.197095 -0.015538 0.020561
-0.233992 -0.011646 0.014911
-0.204679 -0.011907 0.012879
-0.220814 -0.013822 0.020768
-0.211812 -0.013480 0.016760
-0.222798 -0.020633 0.024628
-0.215077 -0.017347 0.024310
-0.211212 -0.016498 0.021726
-0.217727 -0.018596 0.023409
-0.204039 -0.014160 0.018354
-0.228233 -0.012591 0.015181
-0.222660 -0.010390 0.011077
-0.201536 -0.017950 0.022681
-0.223147 -0.012955 0.016848
-0.227939 -0.014954 0.019337
-0.192532 -0.014221 0.019859
-0.270420 0.035440 -0.001539
-0.278004 0.030447 0.003176
-0.277838 0.033781 -0.000730
-0.269041 0.032861 0.002151
-0.251524 0.015820 0.002825
-0.286757 0.031465 0.002440
-0.260470 0.030604 0.000807
-0.263917 0.024058 -0.004537
-0.259191 0.023490 0.002124
-0.259864 0.027974 -0.002190
-0.265632 0.023734 0.002946
-0.255900 0.019849 -0.002666
-0.266752 0.030118 0.002758
-0.260211 0.026335 0.000031
-0.262107 0.026787 0.002873
-0.273058 0.019519 0.003617
-0.255545 0.026063 0.001483
-0.278805 0.026301 -0.000534
-0.266008 0.034199 0.001618
-0.265347 0.017706 -0.001330
-0.264578 0.031924 0.000882
-0.271563 0.025281 0.003031
-0.257770 0.012879 0.002163
-0.263760 0.026597 0.003284
-0.261892 0.019267 0.003231
-0.261204 0.029263 0.001982
-0.278543 0.037712 0.002572
-0.270375 0.030463 -0.003274
-0.256107 0.023376 0.002264
-0.268769 0.029123 0.002217
-0.272985 0.033208 0.002710
-0.250574 0.021812 0.000690
-0.193804 -0.015771 0.021674
-0.205461 -0.024605 0.029608
-0.209640 -0.019261 0.025718
-0.197067 -0.018633 0.025018
-0.178401 -0.034570 0.033918
-0.213415 -0.024079 0.029235
-0.177206 -0.017964 0.025310
-0.194858 -0.026286 0.031110
-0.186856 -0.029607 0.032334
-0.178344 -0.024156 0.029524
-0.198026 -0.031061 0.032483
-0.182284 -0.030924 0.033013
-0.190561 -0.021796 0.028024
-0.181625 -0.026132 0.030879
-0.185916 -0.023557 0.028875
-0.205922 -0.033138 0.032738
-0.172630 -0.020788 0.027694
-0.211109 -0.029289 0.032013
-0.183881 -0.015956 0.022779
-0.198355 -0.036132 0.033890
-0.188713 -0.018453 0.025080
-0.202657 -0.028370 0.030389
-0.186974 -0.035508 0.034105
-0.190358 -0.025825 0.030299
-0.191811 -0.031175 0.031817
-0.182709 -0.020893 0.026501
-0.203235 -0.016973 0.023843
-0.195887 -0.022028 0.028261
-0.175088 -0.029398 0.031700
-0.199534 -0.025953 0.030180
-0.202953 -0.021310 0.027413
-0.168933 -0.027321 0.031153
-0.176946 -0.034064 0.033828
-0.187150 -0.044121 0.033241
-0.189553 -0.038676 0.033593
-0.179226 -0.038812 0.033639
-0.161879 -0.053823 0.031865
-0.192528 -0.044922 0.033345
-0.163806 -0.036790 0.034276
-0.178516 -0.049407 0.032991
-0.171364 -0.049155 0.032754
-0.164161 -0.044665 0.033532
-0.181418 -0.050944 0.032348
-0.167932 -0.052335 0.032479
-0.174205 -0.041609 0.033421
-0.167370 -0.047657 0.033484
-0.169939 -0.043370 0.032871
-0.185261 -0.053428 0.031271
-0.159509 -0.040932 0.033858
-0.190894 -0.050324 0.032154
-0.169327 -0.034360 0.033835
-0.178747 -0.055189 0.031072
-0.172005 -0.038051 0.034019
-0.185250 -0.048198 0.032196
-0.170734 -0.055078 0.030901
-0.174028 -0.045773 0.033167
-0.174297 -0.051538 0.031313
-0.166627 -0.040791 0.033870
-0.183864 -0.036165 0.033852
-0.178008 -0.043270 0.033756
-0.161778 -0.049044 0.032578
-0.181866 -0.046360 0.032921
-0.182536 -0.041461 0.033558
-0.156665 -0.047109 0.033310
-0.244244 0.007280 0.003530
-0.249854 -0.003353 0.004004
-0.252739 0.002542 0.004220
-0.244157 0.002871 0.003306
-0.227855 -0.010296 0.005615
-0.257209 -0.003390 0.004556
-0.232167 0.003631 0.005382
-0.241447 -0.007555 0.001038
-0.236542 -0.006777 0.005820
-0.234494 -0.003697 0.003656
-0.243047 -0.006900 0.005173
-0.233304 -0.009128 0.002848
-0.241366 -0.001830 0.004541
-0.236371 -0.006230 0.004565
-0.237894 -0.003476 0.004314
-0.247879 -0.008939 0.005084
-0.227528 -0.002082 0.004213
-0.252046 -0.007285 0.004016
-0.238816 0.008609 0.004164
-0.243272 -0.009936 0.004042
-0.239317 0.001909 0.004305
-0.247187 -0.007241 0.003777
-0.236319 -0.011283 0.004598
-0.240497 -0.005368 0.004506
-0.239152 -0.008764 0.005037
-0.235006 -0.000880 0.004727
-0.249623 0.007815 0.004422
-0.244651 -0.002725 0.002875
-0.230859 -0.006411 0.004712
-0.245121 -0.003832 0.004982
-0.247347 0.001274 0.004615
-0.222548 -0.007394 0.004920
-0.262550 0.028897 -0.002404
-0.270613 0.024731 0.002544
-0.269737 0.026881 -0.003089
-0.260245 0.026332 0.002040
-0.241726 0.009376 0.001594
-0.280327 0.025725 0.000443
-0.252109 0.023999 -0.000248
-0.255279 0.016968 -0.005059
-0.249964 0.016829 0.000454
-0.251374 0.021251 -0.002732
-0.256304 0.017512 0.001464
-0.246717 0.013154 -0.003541
-0.258153 0.023783 0.002121
-0.251433 0.020000 -0.001368
-0.253360 0.020323 0.002842
-0.264266 0.013644 0.002650
-0.246132 0.018910 0.000731
-0.271269 0.020063 -0.002854
-0.257981 0.027900 0.000950
-0.256714 0.011324 -0.003625
-0.255902 0.025267 -0.000146
-0.262648 0.019207 0.002490
-0.248074 0.006480 0.000204
-0.254432 0.020087 0.002811
-0.252579 0.012993 0.002529
-0.252910 0.022444 0.001216
-0.271610 0.031790 0.001466
-0.262224 0.024236 -0.004353
-0.247657 0.017130 0.001658
-0.259945 0.022696 0.000852
-0.264652 0.027404 0.001866
-0.240586 0.014803 -0.000263
-0.177255 -0.077989 0.001998
-0.196235 -0.075313 0.010685
-0.190143 -0.076545 0.005010
-0.179085 -0.074163 0.017411
-0.164635 -0.077524 0.008146
-0.200262 -0.075875 0.006756
-0.165454 -0.078276 0.003850
-0.176587 -0.077348 -0.004873
-0.175175 -0.077017 0.006123
-0.171319 -0.077345 0.003382
-0.178870 -0.076889 0.009132
-0.167492 -0.077742 -0.001410
-0.183712 -0.076349 0.010799
-0.185314 -0.077070 0.002916
-0.170160 -0.073981 0.017209
-0.192744 -0.074750 0.014299
-0.160594 -0.076826 0.012646
-0.196007 -0.076165 0.001504
-0.169073 -0.078007 0.009693
-0.184048 -0.076720 -0.001604
-0.178313 -0.075956 0.013355
-0.186361 -0.073856 0.016398
-0.179918 -0.076210 0.003081
-0.173202 -0.075407 0.014620
-0.182605 -0.074139 0.012674
-0.173231 -0.076687 0.010719
-0.191503 -0.076168 0.008484
-0.189850 -0.076918 -0.004225
-0.166507 -0.075891 0.013873
-0.185056 -0.077184 0.007266
-0.188148 -0.075479 0.011732
-0.157810 -0.077891 0.007467
-0.171747 -0.036466 0.034194
-0.183470 -0.046605 0.032919
-0.185669 -0.041207 0.033265
-0.173869 -0.041217 0.033374
-0.155004 -0.056450 0.030744
-0.189187 -0.047445 0.032996
-0.157621 -0.039525 0.034209
-0.172992 -0.052438 0.032396
-0.165284 -0.052009 0.032055
-0.158074 -0.047464 0.033273
-0.176148 -0.053742 0.031398
-0.161842 -0.055111 0.031623
-0.169426 -0.044372 0.033153
-0.161697 -0.050404 0.032790
-0.164224 -0.045697 0.032359
-0.180937 -0.055997 0.030024
-0.153058 -0.043664 0.033530
-0.187147 -0.053006 0.031365
-0.163261 -0.036941 0.033768
-0.173974 -0.057973 0.029694
-0.166339 -0.040726 0.033809
-0.180996 -0.050715 0.031281
-0.164773 -0.057621 0.029292
-0.168036 -0.048536 0.032561
-0.168994 -0.054089 0.030284
-0.160361 -0.043659 0.033567
-0.179853 -0.038818 0.033706
-0.173363 -0.045938 0.033636
-0.155320 -0.051557 0.032035
-0.177290 -0.048910 0.032400
-0.177964 -0.043774 0.033355
-0.150064 -0.049979 0.032605
-0.024788 -0.050156 0.114331
-0.058611 -0.051751 0.138585
-0.045761 -0.051407 0.119696
-0.027737 -0.049396 0.151455
-0.007011 -0.050592 0.130376
-0.064417 -0.052653 0.125904
-0.006356 -0.049132 0.118221
-0.024049 -0.050123 0.100352
-0.022726 -0.049790 0.123373
-0.016842 -0.049671 0.119352
-0.028641 -0.050447 0.130695
-0.010804 -0.049120 0.105943
-0.035027 -0.050764 0.135450
-0.034867 -0.050621 0.118607
-0.013433 -0.048709 0.153053
-0.048284 -0.051651 0.145108
-0.000249 -0.048885 0.140464
-0.057660 -0.051806 0.113332
-0.013069 -0.050421 0.128304
-0.035857 -0.050271 0.109384
-0.027854 -0.049942 0.140370
-0.042111 -0.050925 0.153356
-0.030390 -0.051463 0.123647
-0.019976 -0.049539 0.143603
-0.034258 -0.050571 0.143718
-0.020976 -0.049545 0.134017
-0.049928 -0.052503 0.128816
-0.046858 -0.051305 0.102526
-0.011137 -0.049538 0.140889
-0.038012 -0.051103 0.127612
-0.043021 -0.050733 0.136328
0.004115 -0.048371 0.125736
-0.202814 -0.011109 0.013837
-0.217202 -0.019472 0.025576
-0.217974 -0.012790 0.017191
-0.203354 -0.014575 0.019840
-0.185015 -0.026039 0.030511
-0.225729 -0.017061 0.023281
-0.181194 -0.013689 0.019235
-0.199696 -0.015364 0.023209
-0.192508 -0.021217 0.026886
-0.188859 -0.015754 0.022591
-0.205034 -0.021598 0.027031
-0.186756 -0.018919 0.026658
-0.202501 -0.017693 0.023492
-0.192343 -0.017131 0.024027
-0.191716 -0.020832 0.026095
-0.216872 -0.025028 0.028882
-0.178908 -0.017278 0.023526
-0.221919 -0.018652 0.025600
-0.188826 -0.011835 0.015371
-0.207666 -0.024949 0.030662
-0.195380 -0.013536 0.018338
-0.210094 -0.023479 0.027078
-0.195914 -0.026756 0.031305
-0.197510 -0.019831 0.025966
-0.200549 -0.024066 0.028538
-0.188079 -0.016124 0.021426
-0.213572 -0.012501 0.016850
-0.206654 -0.014185 0.020235
-0.182403 -0.022549 0.027964
-0.208945 -0.017726 0.023609
-0.213974 -0.016157 0.021854
-0.173231 -0.020090 0.026564
-0.168812 -0.047425 0.034058
-0.181004 -0.056590 0.030901
-0.181480 -0.051780 0.032249
-0.171337 -0.051624 0.032905
-0.151720 -0.064646 0.026510
-0.185905 -0.057853 0.030586
-0.155784 -0.050154 0.033472
-0.169493 -0.062912 0.028158
-0.162024 -0.061925 0.028269
-0.156115 -0.058162 0.030666
-0.173097 -0.062626 0.027748
-0.158839 -0.064721 0.027517
-0.167681 -0.055179 0.031461
-0.160362 -0.060543 0.029801
-0.161816 -0.055482 0.031034
-0.177088 -0.064724 0.025723
-0.150884 -0.054562 0.032186
-0.183387 -0.062676 0.027675
-0.160991 -0.047991 0.033649
-0.170872 -0.066009 0.024920
-0.163776 -0.051554 0.032639
-0.177864 -0.059814 0.028807
-0.161874 -0.065595 0.024429
-0.165393 -0.058380 0.030147
-0.165909 -0.062171 0.027038
-0.157983 -0.054681 0.032001
-0.176626 -0.049198 0.033322
-0.170841 -0.057266 0.030942
-0.153368 -0.060729 0.028980
-0.174639 -0.059375 0.029656
-0.174452 -0.054093 0.031804
-0.147422 -0.060486 0.030183
-0.224314 -0.009296 -0.004390
-0.243160 -0.009757 0.005315
-0.237599 -0.009492 -0.002844
-0.223886 -0.011813 0.010330
-0.205177 -0.010154 0.004869
-0.246776 -0.009495 0.001053
-0.207327 -0.010067 -0.002100
-0.221037 -0.010911 -0.008857
-0.221099 -0.009350 0.000950
-0.216953 -0.009093 -0.002016
-0.227305 -0.009097 0.004175
-0.211913 -0.009832 -0.005907
-0.231449 -0.010010 0.005504
-0.230722 -0.009303 -0.001809
-0.215552 -0.012569 0.011649
-0.240022 -0.011466 0.009742
-0.201000 -0.010169 0.007268
-0.242021 -0.009296 -0.004691
-0.214052 -0.009664 0.002062
-0.229117 -0.009893 -0.005911
-0.224214 -0.010057 0.005073
-0.233376 -0.013021 0.011947
-0.226537 -0.009681 0.001186
-0.219527 -0.010434 0.008861
-0.230292 -0.010776 0.009516
-0.217177 -0.009937 0.005098
-0.238939 -0.009632 0.001785
-0.234744 -0.009342 -0.007595
-0.209788 -0.010632 0.008242
-0.233286 -0.009719 0.001428
-0.236393 -0.010291 0.005925
-0.195650 -0.009545 0.002050
-0.251428 0.018865 -0.001641
-0.260368 0.014951 0.002326
-0.259719 0.016699 -0.002659
-0.249296 0.016362 0.002115
-0.231475 0.001215 0.001280
-0.270900 0.015741 -0.000019
-0.240406 0.014011 0.000378
-0.244768 0.007686 -0.004674
-0.239672 0.008024 0.000379
-0.240338 0.011422 -0.002066
-0.246600 0.008588 0.000993
-0.236314 0.004482 -0.003134
-0.247631 0.013909 0.001903
-0.241229 0.010676 -0.001098
-0.242278 0.010959 0.002906
-0.254483 0.005022 0.002060
-0.235036 0.009805 0.001119
-0.261875 0.010607 -0.002800
-0.246388 0.018308 0.001389
-0.247354 0.002967 -0.003525
-0.244828 0.015416 0.000395
-0.252448 0.010158 0.002227
-0.238330 -0.001697 -0.000293
-0.243820 0.010822 0.002508
-0.242509 0.004766 0.002207
-0.241741 0.012597 0.001162
-0.260938 0.021640 0.001451
-0.251830 0.014155 -0.003766
-0.236737 0.008226 0.001704
-0.250112 0.012957 0.000573
-0.253975 0.017389 0.001720
-0.229311 0.006118 0.000115
0.002754 -0.053186 0.147963
-0.025598 -0.052769 0.163066
-0.014527 -0.053239 0.152920
-0.005048 -0.051767 0.168914
0.009206 -0.051865 0.154898
-0.029338 -0.054032 0.156190
0.009935 -0.052707 0.149368
0.003035 -0.053609 0.141330
0.002321 -0.052979 0.152606
0.006517 -0.052821 0.150001
-0.001477 -0.052867 0.157105
0.010167 -0.052956 0.143132
-0.007339 -0.053088 0.160693
-0.006083 -0.053629 0.150491
0.002248 -0.051054 0.167459
-0.018788 -0.052121 0.167209
0.009545 -0.051505 0.159323
-0.021420 -0.053633 0.149863
0.005942 -0.052404 0.156529
-0.003214 -0.053419 0.146804
-0.002872 -0.052358 0.162485
-0.011954 -0.051654 0.170549
-0.002496 -0.052460 0.152030
0.002113 -0.051571 0.163717
-0.007652 -0.051219 0.164807
0.001735 -0.052592 0.159259
-0.017819 -0.053401 0.158518
-0.010274 -0.053713 0.144250
0.006716 -0.051359 0.161289
-0.008871 -0.053108 0.156912
-0.013171 -0.052758 0.162163
0.013597 -0.051863 0.152150
-0.024914 -0.045363 0.111880
-0.065382 -0.048156 0.145316
-0.048213 -0.047695 0.121401
-0.029984 -0.045468 0.161277
-0.010069 -0.045205 0.134619
-0.072066 -0.049563 0.129639
-0.008148 -0.045768 0.117886
-0.025024 -0.045968 0.093004
-0.023355 -0.045948 0.125645
-0.017485 -0.045142 0.117996
-0.029943 -0.045634 0.135623
-0.011607 -0.044608 0.101467
-0.037310 -0.046243 0.142300
-0.036874 -0.045757 0.118431
-0.016796 -0.045363 0.160911
-0.054251 -0.048131 0.156558
-0.006327 -0.045508 0.147233
-0.061713 -0.048590 0.112157
-0.017424 -0.044571 0.135990
-0.037032 -0.045193 0.106220
-0.030557 -0.044668 0.148402
-0.043715 -0.047864 0.164300
-0.033207 -0.046375 0.126309
-0.023224 -0.045327 0.152839
-0.039153 -0.046136 0.153315
-0.024221 -0.045234 0.142910
-0.052656 -0.047465 0.134913
-0.047504 -0.047585 0.097131
-0.015305 -0.045714 0.145729
-0.039654 -0.046197 0.133869
-0.046939 -0.046329 0.144567
-0.001924 -0.045015 0.127813
-0.259152 -0.016146 -0.020187
-0.280194 -0.029873 -0.022910
-0.284457 -0.022253 -0.021214
-0.265172 -0.020074 -0.021641
-0.231885 -0.047540 -0.028584
-0.289689 -0.030348 -0.021327
-0.236051 -0.019526 -0.023931
-0.262973 -0.037397 -0.025147
-0.249501 -0.038979 -0.028062
-0.237364 -0.030698 -0.027521
-0.268760 -0.040543 -0.026906
-0.243567 -0.043883 -0.028260
-0.256921 -0.025646 -0.025676
-0.242668 -0.034929 -0.027812
-0.248056 -0.026869 -0.026974
-0.275986 -0.047888 -0.025618
-0.226702 -0.025070 -0.027536
-0.286913 -0.039832 -0.023387
-0.243479 -0.016606 -0.020321
-0.265631 -0.049743 -0.024610
-0.252921 -0.020145 -0.022614
-0.276311 -0.035855 -0.025927
-0.247942 -0.049449 -0.026384
-0.253799 -0.031635 -0.027463
-0.256079 -0.045019 -0.028566
-0.242389 -0.024392 -0.026001
-0.273831 -0.018710 -0.018581
-0.263480 -0.028837 -0.024660
-0.232878 -0.038729 -0.029921
-0.270891 -0.032826 -0.025895
-0.270457 -0.025677 -0.023302
-0.223207 -0.035495 -0.028979
-0.160533 -0.076766 0.013334
-0.178598 -0.074471 0.016854
-0.172173 -0.075946 0.013817
-0.163190 -0.071555 0.021569
-0.145813 -0.076926 0.013690
-0.182710 -0.075884 0.013988
-0.149475 -0.076953 0.014038
-0.159524 -0.078838 0.005437
-0.156747 -0.076845 0.013049
-0.153441 -0.077466 0.011684
-0.163039 -0.076303 0.014579
-0.150249 -0.078645 0.008061
-0.165943 -0.075193 0.016549
-0.165265 -0.077388 0.011677
-0.153444 -0.071471 0.021019
-0.173344 -0.074418 0.016300
-0.143474 -0.075091 0.018225
-0.177725 -0.077021 0.010335
-0.151682 -0.076148 0.017626
-0.166583 -0.077732 0.006969
-0.160117 -0.073781 0.018656
-0.170121 -0.072080 0.019676
-0.159448 -0.076946 0.009193
-0.156562 -0.073754 0.018415
-0.162566 -0.073384 0.016599
-0.154911 -0.075810 0.016244
-0.173236 -0.074644 0.016750
-0.171454 -0.077859 0.006596
-0.148567 -0.074469 0.017730
-0.168542 -0.076576 0.013402
-0.168965 -0.073981 0.017430
-0.140162 -0.076984 0.014384
-0.170566 -0.021318 0.028095
-0.181517 -0.030840 0.032517
-0.185590 -0.025539 0.030589
-0.173331 -0.025122 0.029930
-0.154963 -0.041565 0.034937
-0.189022 -0.031157 0.032588
-0.155537 -0.023980 0.030200
-0.172064 -0.034795 0.033610
-0.164312 -0.036113 0.034195
-0.155818 -0.031171 0.032556
-0.174796 -0.037927 0.034179
-0.160377 -0.038867 0.034339
-0.167129 -0.027902 0.031474
-0.159494 -0.033866 0.033486
-0.162921 -0.029855 0.031771
-0.180821 -0.040372 0.033960
-0.150772 -0.026859 0.031444
-0.186750 -0.036887 0.033682
-0.161567 -0.021262 0.028899
-0.173667 -0.043273 0.034521
-0.165360 -0.024620 0.030346
-0.179381 -0.034675 0.032762
-0.163590 -0.042898 0.034686
-0.166900 -0.032408 0.033025
-0.168198 -0.038596 0.033283
-0.159689 -0.027120 0.030940
-0.179224 -0.022820 0.029368
-0.172000 -0.028931 0.032059
-0.153129 -0.036048 0.033712
-0.175787 -0.032835 0.032731
-0.178162 -0.027935 0.031368
-0.148013 -0.033821 0.033273
-0.181805 -0.019431 0.027490
-0.196045 -0.030445 0.033287
-0.200728 -0.024584 0.030652
-0.185068 -0.023777 0.030904
-0.159076 -0.042932 0.035232
-0.205721 -0.030564 0.033404
-0.160488 -0.022147 0.030519
-0.183250 -0.035121 0.034028
-0.172022 -0.036967 0.034839
-0.162796 -0.030397 0.032712
-0.187078 -0.038740 0.035075
-0.167737 -0.039665 0.034742
-0.178016 -0.027015 0.032312
-0.168041 -0.033594 0.033623
-0.170925 -0.029052 0.032361
-0.194205 -0.042027 0.033874
-0.154727 -0.026570 0.032552
-0.203193 -0.038041 0.034404
-0.168509 -0.020014 0.029163
-0.185866 -0.045295 0.034838
-0.174450 -0.023021 0.030218
-0.192636 -0.035510 0.033585
-0.172051 -0.045150 0.034871
-0.176465 -0.031854 0.033464
-0.178678 -0.039499 0.033665
-0.166988 -0.026096 0.031689
-0.193353 -0.021429 0.029313
-0.184271 -0.027932 0.032324
-0.158747 -0.036609 0.034392
-0.188249 -0.032611 0.032963
-0.191716 -0.027438 0.031794
-0.149501 -0.034057 0.034291
0.014681 -0.044339 0.150083
-0.007260 -0.043814 0.173410
0.003506 -0.043701 0.159113
0.003881 -0.045022 0.172249
0.016469 -0.052051 0.159360
-0.009285 -0.043017 0.166275
0.019718 -0.046387 0.152311
0.019300 -0.044313 0.144155
0.015654 -0.044611 0.156782
0.019288 -0.045208 0.151166
0.011196 -0.046107 0.162981
0.023712 -0.046234 0.146336
0.004653 -0.044714 0.166594
0.011074 -0.043897 0.157187
0.009224 -0.047855 0.171945
-0.000908 -0.047544 0.172035
0.015737 -0.048731 0.161899
-0.001690 -0.042911 0.157872
0.015610 -0.045443 0.158054
0.015801 -0.049900 0.154455
0.009319 -0.044663 0.164529
0.000620 -0.045089 0.176519
0.011634 -0.053281 0.161608
0.010819 -0.045536 0.168096
0.007338 -0.049097 0.170251
0.012491 -0.045364 0.163692
-0.001245 -0.044004 0.164688
0.008202 -0.042610 0.150436
0.014159 -0.047170 0.163776
0.007468 -0.044733 0.162496
0.001291 -0.044024 0.168799
0.021355 -0.048906 0.153724
-0.165195 -0.068620 0.013017
-0.189521 -0.070469 0.022271
-0.181841 -0.073840 0.015835
-0.167310 -0.063817 0.029260
-0.134996 -0.075486 0.012900
-0.196239 -0.073217 0.017073
-0.138219 -0.074696 0.016469
-0.160301 -0.077922 -0.002094
-0.151033 -0.075890 0.014362
-0.149645 -0.077322 0.007959
-0.166063 -0.074643 0.017214
-0.139907 -0.078241 -0.000064
-0.170115 -0.072763 0.021679
-0.166070 -0.077185 0.010731
-0.150107 -0.065503 0.026674
-0.180505 -0.072829 0.017960
-0.131158 -0.071107 0.022429
-0.189826 -0.076897 0.007946
-0.148054 -0.065200 0.024592
-0.172298 -0.078751 0.001456
-0.160280 -0.069715 0.024425
-0.176269 -0.066967 0.024927
-0.156554 -0.077253 0.004854
-0.154729 -0.070880 0.023224
-0.165048 -0.071217 0.019234
-0.149648 -0.073535 0.021582
-0.184409 -0.063337 0.023558
-0.180183 -0.077841 -0.000265
-0.141254 -0.071721 0.020035
-0.173964 -0.074999 0.015879
-0.176136 -0.069176 0.022764
-0.122256 -0.075864 0.015713
-0.224279 -0.014739 -0.019286
-0.257912 -0.013423 -0.016352
-0.248402 -0.015737 -0.021002
-0.230824 -0.008434 -0.005984
-0.187264 -0.018390 -0.024630
-0.264614 -0.016327 -0.021344
-0.199113 -0.014328 -0.020182
-0.223228 -0.025366 -0.032670
-0.214077 -0.017245 -0.023799
-0.205892 -0.017053 -0.025650
-0.232174 -0.016073 -0.022090
-0.201158 -0.025290 -0.030508
-0.232650 -0.012960 -0.017295
-0.226427 -0.018162 -0.024179
-0.211670 -0.008827 -0.009612
-0.246799 -0.015927 -0.020241
-0.183997 -0.011916 -0.016810
-0.256279 -0.021013 -0.026676
-0.203399 -0.011110 -0.013606
-0.235713 -0.025797 -0.031206
-0.222423 -0.010066 -0.011043
-0.243245 -0.010751 -0.012040
-0.217699 -0.022266 -0.029853
-0.216260 -0.011160 -0.014858
-0.227628 -0.013615 -0.017485
-0.212162 -0.013587 -0.019183
-0.248106 -0.011147 -0.013577
-0.242936 -0.021671 -0.028791
-0.195409 -0.011737 -0.018020
-0.241050 -0.015866 -0.021800
-0.238364 -0.010437 -0.014648
-0.174073 -0.017352 -0.022439
-0.154985 -0.022994 0.030073
-0.166600 -0.033328 0.033061
-0.170123 -0.027859 0.031647
-0.157492 -0.027471 0.031206
-0.138057 -0.044499 0.034457
-0.173218 -0.033794 0.033104
-0.138751 -0.026102 0.031728
-0.156443 -0.038239 0.034165
-0.148422 -0.039214 0.034206
-0.139226 -0.033805 0.033437
-0.159528 -0.041248 0.033949
-0.144153 -0.042043 0.034376
-0.151561 -0.030518 0.032281
-0.143290 -0.037020 0.033882
-0.146614 -0.032377 0.032317
-0.165520 -0.043399 0.033605
-0.133983 -0.029653 0.032602
-0.171224 -0.039811 0.033710
-0.145359 -0.023159 0.030283
-0.157727 -0.046463 0.033905
-0.149519 -0.026708 0.031716
-0.164207 -0.037795 0.032913
-0.147750 -0.045696 0.033866
-0.151011 -0.035187 0.033399
-0.152335 -0.041750 0.033079
-0.143006 -0.029576 0.032076
-0.163958 -0.025165 0.030994
-0.156454 -0.031693 0.033183
-0.136636 -0.039035 0.033867
-0.160356 -0.035611 0.033237
-0.162436 -0.030145 0.032339
-0.130737 -0.036472 0.033553
-0.146871 -0.057415 0.031709
-0.161672 -0.063717 0.027958
-0.160257 -0.060492 0.029496
-0.150194 -0.058853 0.030519
-0.128066 -0.071174 0.022064
-0.166437 -0.065440 0.026915
-0.133547 -0.059514 0.031025
-0.147100 -0.070539 0.023068
-0.139332 -0.069357 0.023701
-0.134141 -0.066369 0.026756
-0.151401 -0.069298 0.023374
-0.135806 -0.071713 0.022729
-0.147488 -0.063345 0.028282
-0.139902 -0.067967 0.025440
-0.139832 -0.061634 0.028469
-0.156157 -0.071323 0.021188
-0.128193 -0.062620 0.029245
-0.162828 -0.069718 0.023271
-0.138194 -0.057637 0.031728
-0.150131 -0.072606 0.019729
-0.142232 -0.059844 0.029844
-0.157098 -0.065575 0.025608
-0.139612 -0.072279 0.019351
-0.143177 -0.065165 0.026568
-0.143805 -0.068436 0.023154
-0.135802 -0.063422 0.028620
-0.156177 -0.058128 0.031081
-0.150544 -0.065539 0.026510
-0.130903 -0.067378 0.025205
-0.153981 -0.066951 0.025712
-0.153096 -0.061771 0.028927
-0.124365 -0.068070 0.026256
-0.147087 -0.033924 0.034132
-0.157597 -0.044466 0.033467
-0.160193 -0.038909 0.033904
-0.149379 -0.038916 0.033865
-0.131206 -0.054858 0.032399
-0.163546 -0.045089 0.033748
-0.133150 -0.037097 0.034584
-0.148433 -0.049899 0.033308
-0.141092 -0.049793 0.033183
-0.133442 -0.045045 0.033832
-0.151573 -0.051416 0.032927
-0.137240 -0.053111 0.032962
-0.143966 -0.041855 0.033741
-0.136872 -0.048102 0.033942
-0.139468 -0.043646 0.033179
-0.155845 -0.054376 0.031784
-0.128937 -0.041168 0.034179
-0.161732 -0.050854 0.032586
-0.139067 -0.034509 0.034128
-0.148988 -0.056253 0.031650
-0.141768 -0.038157 0.034220
-0.155715 -0.048728 0.032578
-0.140417 -0.056405 0.031588
-0.143939 -0.045949 0.033563
-0.144147 -0.052517 0.031855
-0.136357 -0.040976 0.034232
-0.154087 -0.036182 0.034185
-0.148327 -0.043535 0.034053
-0.131072 -0.049564 0.032972
-0.152145 -0.046726 0.033297
-0.153011 -0.041664 0.033864
-0.125804 -0.047455 0.033742
-0.204166 -0.009771 -0.010402
-0.224508 -0.007647 -0.001190
-0.218287 -0.008712 -0.007618
-0.206257 -0.008941 0.006471
-0.188954 -0.008273 -0.003092
-0.228078 -0.008190 -0.005463
-0.190531 -0.009888 -0.008478
-0.202639 -0.011746 -0.017110
-0.202738 -0.008116 -0.005632
-0.197465 -0.008751 -0.008055
-0.207197 -0.007644 -0.002067
-0.193246 -0.011048 -0.013710
-0.211644 -0.007779 -0.000529
-0.212601 -0.008996 -0.008298
-0.197897 -0.009326 0.006445
-0.220752 -0.007906 0.004044
-0.185554 -0.008677 0.000508
-0.223330 -0.009270 -0.011171
-0.195420 -0.008836 -0.002321
-0.210617 -0.009698 -0.013504
-0.205846 -0.007891 0.002045
-0.214657 -0.009373 0.006292
-0.207945 -0.008911 -0.007183
-0.201127 -0.007773 0.003824
-0.211357 -0.007244 0.003342
-0.200428 -0.008210 -0.000862
-0.219316 -0.008148 -0.002820
-0.216877 -0.010690 -0.015096
-0.192445 -0.008439 0.002886
-0.213267 -0.008227 -0.003945
-0.215936 -0.007807 0.000966
-0.180268 -0.009183 -0.004600
-0.259686 -0.018067 -0.033466
-0.280214 -0.036285 -0.026632
-0.285216 -0.025265 -0.029455
-0.263631 -0.024273 -0.032670
-0.228124 -0.053184 -0.020583
-0.293900 -0.034477 -0.025111
-0.229473 -0.024305 -0.033122
-0.258256 -0.039068 -0.028441
-0.243963 -0.045583 -0.025881
-0.233554 -0.034169 -0.031481
-0.262688 -0.046403 -0.024087
-0.236864 -0.045906 -0.026294
-0.255174 -0.032997 -0.030955
-0.238745 -0.040447 -0.029217
-0.244620 -0.037627 -0.030611
-0.278710 -0.051003 -0.020280
-0.222091 -0.033430 -0.031947
-0.286973 -0.043606 -0.021800
-0.241093 -0.019284 -0.032697
-0.264081 -0.052678 -0.016101
-0.249830 -0.024059 -0.033071
-0.274534 -0.045685 -0.024834
-0.244037 -0.053861 -0.015658
-0.252406 -0.041097 -0.028618
-0.253948 -0.051224 -0.022371
-0.239210 -0.028456 -0.032082
-0.275628 -0.021237 -0.029822
-0.264197 -0.029793 -0.031499
-0.228933 -0.046342 -0.027511
-0.268537 -0.038163 -0.027661
-0.272896 -0.029969 -0.029625
-0.214594 -0.042982 -0.027452
-0.187541 -0.008357 -0.000225
-0.207765 -0.010187 0.011505
-0.201391 -0.008368 0.001678
-0.188417 -0.013548 0.017936
-0.174584 -0.009661 0.010551
-0.210950 -0.009197 0.006088
-0.173332 -0.008757 0.002695
-0.185150 -0.008513 -0.006259
-0.186428 -0.008498 0.005134
-0.182102 -0.008406 0.003790
-0.190370 -0.008943 0.009564
-0.177828 -0.007328 -0.002887
-0.195659 -0.010491 0.012369
-0.194513 -0.008231 0.002679
-0.181181 -0.014208 0.018967
-0.204660 -0.012398 0.017450
-0.170287 -0.010541 0.013415
-0.205886 -0.007941 -0.001293
-0.179339 -0.009824 0.007689
-0.192355 -0.007651 -0.000716
-0.188567 -0.010704 0.012761
-0.196963 -0.014743 0.019454
-0.192419 -0.008758 0.008714
-0.183563 -0.011301 0.015491
-0.194610 -0.011845 0.016103
-0.182274 -0.010025 0.010949
-0.203083 -0.009735 0.008050
-0.197809 -0.007772 -0.004429
-0.176432 -0.011974 0.015511
-0.196516 -0.009121 0.007211
-0.201260 -0.011117 0.013079
-0.167233 -0.009061 0.007596
-0.198555 -0.009836 -0.014394
-0.225363 -0.007485 -0.002937
-0.217909 -0.009545 -0.012736
-0.200530 -0.008312 0.007392
-0.173599 -0.008856 -0.006883
-0.229631 -0.008418 -0.010178
-0.177801 -0.009776 -0.012489
-0.194842 -0.014842 -0.020137
-0.193889 -0.008837 -0.009451
-0.188149 -0.008982 -0.012332
-0.202936 -0.007935 -0.006029
-0.182190 -0.013123 -0.017012
-0.207296 -0.008046 -0.003520
-0.207389 -0.009963 -0.012505
-0.187874 -0.009078 0.007792
-0.219570 -0.008098 0.001859
-0.168620 -0.008153 -0.001074
-0.223603 -0.011046 -0.015588
-0.184671 -0.007676 -0.006249
-0.206450 -0.012168 -0.018510
-0.199305 -0.007699 -0.000949
-0.212190 -0.008922 0.007591
-0.199758 -0.009850 -0.013086
-0.192516 -0.007689 0.002663
-0.206563 -0.006911 0.003016
-0.191241 -0.008013 -0.003753
-0.218872 -0.007745 -0.007408
-0.214426 -0.012140 -0.018861
-0.179558 -0.007941 0.001231
-0.211146 -0.008718 -0.008504
-0.213701 -0.007391 -0.001635
-0.161098 -0.009485 -0.008817
-0.034895 -0.055753 0.079291
-0.070174 -0.058839 0.110096
-0.053471 -0.059212 0.085424
-0.033563 -0.057168 0.120382
-0.012324 -0.061146 0.100341
-0.076982 -0.058734 0.094654
-0.013040 -0.060045 0.086298
-0.030560 -0.059327 0.063675
-0.024934 -0.059424 0.091920
-0.025286 -0.060126 0.083102
-0.036626 -0.060272 0.099025
-0.014834 -0.059491 0.072435
-0.043092 -0.060173 0.104125
-0.040835 -0.060454 0.086449
-0.019129 -0.058253 0.123455
-0.055074 -0.058438 0.114193
-0.004733 -0.059447 0.112057
-0.069162 -0.058255 0.080650
-0.020939 -0.055576 0.096692
-0.043359 -0.059362 0.076429
-0.034255 -0.058355 0.106526
-0.048174 -0.058069 0.124158
-0.032393 -0.059173 0.091685
-0.025987 -0.059088 0.111848
-0.039576 -0.059016 0.113236
-0.025538 -0.059792 0.102172
-0.060006 -0.055908 0.096177
-0.055855 -0.058785 0.066395
-0.017810 -0.060089 0.109483
-0.047339 -0.060367 0.094437
-0.052051 -0.058724 0.104332
0.000166 -0.060116 0.094201
-0.165943 -0.011530 0.008022
-0.185352 -0.017098 0.020590
-0.179895 -0.011962 0.009506
-0.163228 -0.017444 0.020288
-0.147907 -0.017630 0.022740
-0.191229 -0.014625 0.016457
-0.143489 -0.012107 0.012457
-0.161160 -0.010560 0.005959
-0.156241 -0.013435 0.017290
-0.157323 -0.011691 0.011644
-0.167675 -0.014308 0.018722
-0.150804 -0.010407 0.009381
-0.172284 -0.016020 0.019663
-0.165748 -0.012419 0.013062
-0.154375 -0.022390 0.025649
-0.182756 -0.019515 0.024144
-0.141898 -0.015959 0.020188
-0.186222 -0.012191 0.013006
-0.150498 -0.013175 0.011847
-0.170911 -0.013527 0.017980
-0.161219 -0.014538 0.016674
-0.173699 -0.021671 0.024835
-0.165296 -0.016895 0.023154
-0.158274 -0.017358 0.021752
-0.167158 -0.018815 0.024138
-0.151493 -0.014630 0.017312
-0.180131 -0.013882 0.014707
-0.173560 -0.010278 0.006625
-0.146864 -0.018992 0.023177
-0.173932 -0.012755 0.015463
-0.179051 -0.015612 0.018974
-0.137288 -0.014762 0.018160
-0.139471 -0.080140 0.001656
-0.157260 -0.078749 0.008907
-0.151597 -0.079457 0.003882
-0.141673 -0.077304 0.014647
-0.127604 -0.079485 0.006446
-0.160992 -0.079343 0.005562
-0.128412 -0.080154 0.003048
-0.139006 -0.079560 -0.004616
-0.137569 -0.079514 0.004851
-0.134013 -0.079552 0.002781
-0.141284 -0.079351 0.007502
-0.130413 -0.079624 -0.001454
-0.145607 -0.079269 0.009117
-0.146589 -0.079658 0.002459
-0.133144 -0.076780 0.014516
-0.153984 -0.078254 0.011946
-0.124262 -0.079002 0.010378
-0.157116 -0.079265 0.000947
-0.131872 -0.080237 0.007909
-0.145755 -0.079092 -0.001331
-0.140359 -0.078735 0.010879
-0.148390 -0.077245 0.014044
-0.141957 -0.078806 0.002603
-0.135760 -0.078036 0.011967
-0.144416 -0.077133 0.010678
-0.135600 -0.079207 0.008698
-0.152829 -0.079295 0.006891
-0.151072 -0.079464 -0.003974
-0.129407 -0.078147 0.011555
-0.147008 -0.079829 0.006011
-0.149824 -0.078653 0.009636
-0.121466 -0.079668 0.006140
-0.008884 -0.056226 0.116246
-0.039184 -0.055683 0.129369
-0.025240 -0.058227 0.117896
-0.009401 -0.054513 0.137336
0.002894 -0.057562 0.124247
-0.046907 -0.056413 0.119320
0.000964 -0.058384 0.119574
-0.008384 -0.058960 0.107616
-0.004340 -0.056764 0.121919
-0.002902 -0.058139 0.118406
-0.009279 -0.057335 0.124591
0.000066 -0.058171 0.111760
-0.013606 -0.056949 0.126577
-0.014747 -0.058265 0.117660
-0.001291 -0.054436 0.138652
-0.026350 -0.054298 0.134201
0.005491 -0.056387 0.130919
-0.037770 -0.056383 0.113830
-0.002893 -0.054893 0.125639
-0.014973 -0.057717 0.112368
-0.008309 -0.056286 0.130344
-0.018481 -0.054087 0.138882
-0.007808 -0.057154 0.117685
-0.003783 -0.055556 0.132675
-0.013170 -0.055141 0.131749
-0.004653 -0.057738 0.126285
-0.029087 -0.054229 0.125089
-0.023878 -0.058245 0.108946
0.001424 -0.056102 0.129566
-0.018174 -0.057251 0.122788
-0.019761 -0.055972 0.128169
0.008680 -0.057350 0.122258
-0.165865 -0.010112 0.009759
-0.182038 -0.015943 0.022600
-0.177545 -0.010225 0.011267
-0.163373 -0.015958 0.021365
-0.149990 -0.017050 0.024759
-0.188313 -0.013128 0.018205
-0.145857 -0.011062 0.014905
-0.159585 -0.009108 0.007049
-0.157046 -0.013021 0.019280
-0.158439 -0.010740 0.013713
-0.167100 -0.013368 0.020981
-0.150558 -0.009361 0.011802
-0.171124 -0.015221 0.021728
-0.164597 -0.011270 0.015958
-0.155227 -0.020909 0.026459
-0.179545 -0.018873 0.026254
-0.145278 -0.015279 0.021947
-0.183439 -0.010482 0.014110
-0.152593 -0.011632 0.012888
-0.169590 -0.012843 0.019838
-0.160491 -0.013113 0.018073
-0.171087 -0.020902 0.026203
-0.163851 -0.016610 0.025637
-0.159060 -0.016398 0.023322
-0.166503 -0.018516 0.025264
-0.152282 -0.013811 0.019147
-0.178113 -0.011826 0.015709
-0.172801 -0.008883 0.008426
-0.149603 -0.017656 0.024076
-0.172149 -0.012161 0.017174
-0.177672 -0.014811 0.020606
-0.140663 -0.013570 0.019953
-0.143329 -0.015520 0.022732
-0.154549 -0.024610 0.030174
-0.158620 -0.019302 0.026574
-0.146356 -0.018521 0.025729
-0.128260 -0.034787 0.034451
-0.162040 -0.024132 0.029820
-0.127194 -0.017936 0.026064
-0.144256 -0.026562 0.031554
-0.136533 -0.029777 0.032794
-0.127979 -0.024312 0.030168
-0.147249 -0.031116 0.032934
-0.132026 -0.031245 0.033472
-0.139974 -0.021789 0.028656
-0.131329 -0.026554 0.031408
-0.135649 -0.023515 0.029319
-0.154835 -0.033300 0.033316
-0.122885 -0.020703 0.028319
-0.159862 -0.029475 0.032396
-0.133758 -0.015650 0.023613
-0.147445 -0.036479 0.034306
-0.138280 -0.018210 0.025942
-0.151954 -0.028370 0.030760
-0.136634 -0.036104 0.034601
-0.139871 -0.025896 0.030860
-0.141248 -0.031493 0.032345
-0.132564 -0.020798 0.027252
-0.152521 -0.016851 0.024708
-0.145388 -0.022057 0.029048
-0.124982 -0.029406 0.032155
-0.148720 -0.025987 0.030684
-0.152020 -0.021256 0.028038
-0.119243 -0.027202 0.031609
-0.201065 -0.055605 -0.030961
-0.221217 -0.067183 -0.015716
-0.218495 -0.057617 -0.028122
-0.197760 -0.066010 -0.019694
-0.172264 -0.072844 -0.012282
-0.232178 -0.061112 -0.021538
-0.168095 -0.063168 -0.027323
-0.190768 -0.056537 -0.027670
-0.183996 -0.067167 -0.020075
-0.181929 -0.062091 -0.026551
-0.198727 -0.066506 -0.019176
-0.174353 -0.061980 -0.023770
-0.203806 -0.067303 -0.019857
-0.190693 -0.063857 -0.024034
-0.183897 -0.072146 -0.013268
-0.217172 -0.070064 -0.011039
-0.167194 -0.070203 -0.020232
-0.225913 -0.059700 -0.022091
-0.179475 -0.059435 -0.030224
-0.204039 -0.065996 -0.012837
-0.191161 -0.063047 -0.025201
-0.208119 -0.070988 -0.010985
-0.189486 -0.072137 -0.007570
-0.188866 -0.069885 -0.016461
-0.198364 -0.071627 -0.010391
-0.179337 -0.065530 -0.023633
-0.217924 -0.057310 -0.026860
-0.207123 -0.054752 -0.029252
-0.173918 -0.071294 -0.016305
-0.208038 -0.064086 -0.023713
-0.215807 -0.063759 -0.022189
-0.156870 -0.067983 -0.019947
0.034436 -0.045930 0.132008
0.011153 -0.050906 0.158620
0.023822 -0.045690 0.143322
0.019175 -0.045069 0.154494
0.027557 -0.051947 0.143471
0.007802 -0.053020 0.153508
0.030979 -0.045308 0.137153
0.037279 -0.052463 0.127320
0.032138 -0.051686 0.139721
0.035971 -0.052049 0.135685
0.025511 -0.053321 0.146254
0.037494 -0.053333 0.130927
0.024915 -0.051807 0.150462
0.030044 -0.051280 0.141021
0.020406 -0.050000 0.155859
0.017260 -0.054507 0.151874
0.027503 -0.051095 0.144678
0.018196 -0.053263 0.144600
0.028802 -0.045769 0.143846
0.029173 -0.053317 0.135793
0.026532 -0.045942 0.143633
0.015240 -0.051574 0.159516
0.026049 -0.052673 0.141333
0.025606 -0.051312 0.149879
0.021352 -0.051764 0.153906
0.025503 -0.047377 0.149445
0.018486 -0.045375 0.147550
0.026628 -0.053130 0.136457
0.028999 -0.051343 0.143761
0.021509 -0.052500 0.148070
0.020221 -0.046170 0.152570
0.032552 -0.050774 0.137098
0.017543 -0.044826 0.128214
-0.006898 -0.044872 0.145799
0.002732 -0.044272 0.135042
0.010543 -0.046341 0.153353
0.025770 -0.046192 0.138028
-0.008896 -0.044979 0.138306
0.025907 -0.046733 0.130786
0.019036 -0.044245 0.120688
0.018065 -0.044596 0.134499
0.021566 -0.044492 0.130918
0.014823 -0.044246 0.139945
0.026541 -0.044487 0.123408
0.006006 -0.044832 0.144164
0.008344 -0.043877 0.132171
0.018315 -0.047477 0.151962
-0.003417 -0.044552 0.152069
0.025256 -0.048117 0.142566
-0.002611 -0.043959 0.130941
0.021114 -0.045368 0.139088
0.014048 -0.043088 0.128822
0.011364 -0.045077 0.146812
0.004182 -0.046671 0.154900
0.013035 -0.043907 0.136878
0.016717 -0.045689 0.147916
0.007297 -0.043869 0.149142
0.016534 -0.044860 0.142904
0.000216 -0.044453 0.140682
0.006001 -0.043557 0.124204
0.021149 -0.046640 0.145777
0.008734 -0.044776 0.139637
0.001818 -0.044982 0.145970
0.030081 -0.048743 0.133887
0.010475 -0.045735 0.119125
-0.015808 -0.046106 0.134101
-0.006364 -0.045866 0.123933
0.006209 -0.046124 0.144549
0.021106 -0.046110 0.129152
-0.019789 -0.046832 0.125864
0.021061 -0.046778 0.121894
0.010335 -0.045709 0.110368
0.010581 -0.045538 0.125053
0.015034 -0.045223 0.123310
0.008220 -0.045099 0.130338
0.019117 -0.045095 0.114376
0.000912 -0.045868 0.134084
0.000274 -0.045126 0.121723
0.015075 -0.046595 0.143731
-0.011355 -0.046080 0.142241
0.023361 -0.046986 0.135461
-0.013354 -0.045767 0.118578
0.015626 -0.045816 0.131369
0.004179 -0.044339 0.116626
0.006079 -0.045789 0.138122
-0.002221 -0.046878 0.145161
0.004364 -0.044845 0.125305
0.012276 -0.045725 0.139107
0.000446 -0.044596 0.139325
0.010756 -0.045478 0.133844
-0.007936 -0.045885 0.130392
-0.003619 -0.045330 0.112193
0.018068 -0.046227 0.137835
0.001223 -0.045681 0.129279
-0.005191 -0.045672 0.135842
0.026810 -0.047372 0.126731
-0.119941 -0.072958 0.021329
-0.138018 -0.072619 0.020724
-0.132472 -0.073276 0.020105
-0.124168 -0.069211 0.023831
-0.102952 -0.075922 0.016664
-0.142354 -0.074413 0.019062
-0.108770 -0.073571 0.020837
-0.119450 -0.077691 0.013311
-0.114619 -0.075664 0.016880
-0.110896 -0.075799 0.017595
-0.123778 -0.075166 0.017451
-0.109307 -0.077613 0.014420
-0.124696 -0.073229 0.020657
-0.120586 -0.075967 0.017211
-0.113726 -0.069611 0.022698
-0.131649 -0.074527 0.016896
-0.102576 -0.072822 0.021557
-0.137123 -0.076105 0.015902
-0.110840 -0.072447 0.023061
-0.125367 -0.077203 0.012557
-0.118304 -0.071107 0.022293
-0.130632 -0.070993 0.021056
-0.115956 -0.076675 0.012997
-0.116534 -0.072195 0.020468
-0.119794 -0.072820 0.018409
-0.112570 -0.074101 0.020133
-0.131966 -0.071531 0.022192
-0.128381 -0.076075 0.015203
-0.106417 -0.073334 0.019591
-0.128571 -0.074982 0.017905
-0.127670 -0.071984 0.021185
-0.098554 -0.075383 0.018511
-0.126387 -0.020845 0.028360
-0.137129 -0.030734 0.032683
-0.140766 -0.025564 0.030896
-0.129295 -0.024838 0.030270
-0.110402 -0.042351 0.035271
-0.143988 -0.031287 0.032741
-0.110929 -0.023703 0.030586
-0.127793 -0.035064 0.033817
-0.120203 -0.036546 0.034376
-0.111049 -0.031291 0.032976
-0.130958 -0.038343 0.034411
-0.115736 -0.039332 0.034678
-0.122642 -0.027900 0.031705
-0.114731 -0.034200 0.033895
-0.118506 -0.029855 0.032012
-0.136849 -0.041046 0.034378
-0.106328 -0.026812 0.031869
-0.142125 -0.037098 0.033849
-0.117336 -0.020900 0.029105
-0.129309 -0.044085 0.034852
-0.121425 -0.024307 0.030678
-0.135122 -0.035109 0.033025
-0.119460 -0.043931 0.035142
-0.122869 -0.032359 0.033209
-0.123806 -0.039254 0.033625
-0.115641 -0.026936 0.031231
-0.134662 -0.022618 0.029784
-0.127755 -0.029163 0.032365
-0.108566 -0.036236 0.034026
-0.131561 -0.033104 0.033091
-0.133803 -0.027754 0.031487
-0.102874 -0.033744 0.033700
-0.128171 -0.022718 0.030295
-0.141523 -0.035126 0.033997
-0.144964 -0.029393 0.032728
-0.131652 -0.027765 0.032609
-0.106954 -0.048557 0.034990
-0.148774 -0.035735 0.034208
-0.108309 -0.025891 0.032598
-0.129601 -0.040966 0.034603
-0.119887 -0.042291 0.034901
-0.109751 -0.035480 0.034041
-0.133897 -0.044018 0.035152
-0.114587 -0.045594 0.035327
-0.123971 -0.031617 0.033332
-0.114431 -0.039267 0.034825
-0.117850 -0.033967 0.033251
-0.140073 -0.047703 0.034308
-0.103275 -0.030909 0.033699
-0.147343 -0.043322 0.034502
-0.116569 -0.023292 0.031454
-0.131416 -0.050921 0.034828
-0.121696 -0.027119 0.032361
-0.138506 -0.040743 0.034204
-0.119394 -0.051066 0.034995
-0.123902 -0.036710 0.034148
-0.124886 -0.045642 0.034200
-0.114687 -0.030319 0.033097
-0.138100 -0.025281 0.031881
-0.130134 -0.033298 0.033773
-0.106635 -0.041805 0.034592
-0.134198 -0.038076 0.033905
-0.136965 -0.031358 0.032962
-0.098332 -0.038392 0.034794
-0.122436 -0.078466 0.010936
-0.148220 -0.074891 0.018320
-0.138214 -0.078311 0.012099
-0.125779 -0.070225 0.025517
-0.100292 -0.077131 0.012330
-0.153304 -0.077010 0.013422
-0.104503 -0.078886 0.012606
-0.120696 -0.080704 0.001899
-0.116019 -0.078066 0.012192
-0.111813 -0.079229 0.009320
-0.124992 -0.077225 0.014599
-0.106937 -0.080350 0.004504
-0.129147 -0.076081 0.017563
-0.128380 -0.079414 0.009311
-0.110926 -0.070279 0.024028
-0.139689 -0.075015 0.017705
-0.096792 -0.075171 0.020034
-0.146790 -0.079128 0.007897
-0.108873 -0.076526 0.018793
-0.130580 -0.079689 0.002710
-0.121008 -0.073392 0.020481
-0.134620 -0.071351 0.023105
-0.120105 -0.078528 0.006067
-0.116010 -0.073754 0.020603
-0.125123 -0.073520 0.018370
-0.113899 -0.076746 0.016826
-0.140250 -0.074548 0.017556
-0.137244 -0.080125 0.002821
-0.105161 -0.074518 0.018148
-0.133131 -0.077713 0.012892
-0.134334 -0.074117 0.018817
-0.091827 -0.077782 0.014009
-0.117989 -0.031345 0.034145
-0.129469 -0.042891 0.033464
-0.132143 -0.036943 0.033905
-0.120405 -0.036837 0.033879
-0.100768 -0.053821 0.032741
-0.135686 -0.043582 0.033851
-0.102770 -0.034836 0.034743
-0.119430 -0.048681 0.033530
-0.111575 -0.048620 0.033395
-0.103199 -0.043408 0.034031
-0.122786 -0.050332 0.033115
-0.107446 -0.052091 0.033400
-0.114729 -0.040011 0.033766
-0.106914 -0.046869 0.034133
-0.109764 -0.042129 0.033224
-0.127636 -0.053330 0.031979
-0.098225 -0.039348 0.034381
-0.133844 -0.049743 0.032824
-0.109293 -0.031939 0.034138
-0.120118 -0.055277 0.032130
-0.112303 -0.035978 0.034323
-0.127289 -0.047594 0.032626
-0.110781 -0.055225 0.031951
-0.114468 -0.044586 0.033688
-0.114937 -0.051440 0.031994
-0.106365 -0.039014 0.034342
-0.125832 -0.033853 0.034232
-0.119460 -0.041938 0.034171
-0.100744 -0.048427 0.033266
-0.123467 -0.045389 0.033366
-0.124552 -0.039788 0.033966
-0.094923 -0.046163 0.034016
-0.025408 -0.050334 0.066556
-0.062084 -0.054680 0.092226
-0.048694 -0.052192 0.070769
-0.027094 -0.052670 0.109267
-0.008092 -0.049707 0.084860
-0.068838 -0.055956 0.078050
-0.005775 -0.049106 0.070474
-0.025934 -0.048842 0.050508
-0.025161 -0.049869 0.075620
-0.016749 -0.049129 0.072439
-0.028518 -0.050881 0.084200
-0.012867 -0.047587 0.056423
-0.037155 -0.052222 0.089632
-0.037440 -0.050580 0.069028
-0.011945 -0.051993 0.111033
-0.052173 -0.056249 0.103340
0.000153 -0.049849 0.095656
-0.062590 -0.053503 0.063184
-0.013715 -0.052144 0.082500
-0.040199 -0.049480 0.059342
-0.028095 -0.051920 0.096863
-0.043535 -0.055082 0.112524
-0.035668 -0.053001 0.077427
-0.019292 -0.051255 0.100490
-0.038527 -0.052221 0.100672
-0.021173 -0.050585 0.088416
-0.053016 -0.054825 0.081273
-0.050351 -0.050904 0.051428
-0.010332 -0.050925 0.096872
-0.039650 -0.051692 0.081535
-0.046104 -0.052773 0.091207
0.002702 -0.048119 0.080356
-0.000434 -0.059642 0.098367
-0.020950 -0.059018 0.112390
-0.012591 -0.060629 0.102561
-0.001278 -0.057623 0.119949
0.013451 -0.060173 0.107751
-0.025843 -0.059757 0.104842
0.012424 -0.061046 0.101424
0.000778 -0.060642 0.087632
0.002638 -0.059911 0.104475
0.005171 -0.060677 0.100777
-0.001525 -0.060065 0.108160
0.010924 -0.060374 0.092829
-0.005496 -0.060164 0.109996
-0.007073 -0.060853 0.100946
0.008283 -0.057623 0.120846
-0.014176 -0.058211 0.116669
0.019481 -0.059323 0.114761
-0.020575 -0.059498 0.098034
0.007196 -0.058404 0.108578
-0.006080 -0.059988 0.094945
-0.000828 -0.059382 0.113589
-0.008362 -0.057501 0.121503
-0.002064 -0.059429 0.102474
0.004071 -0.058680 0.115073
-0.004824 -0.058133 0.114662
0.003813 -0.060277 0.109986
-0.014487 -0.058378 0.107873
-0.013527 -0.060179 0.089981
0.010845 -0.058992 0.113681
-0.007863 -0.060229 0.106272
-0.010052 -0.059353 0.111274
0.024290 -0.060080 0.105339
-0.178713 -0.055160 -0.033030
-0.198049 -0.071764 -0.017571
-0.196853 -0.061599 -0.029385
-0.173132 -0.069901 -0.020277
-0.150528 -0.075907 -0.013167
-0.208061 -0.065887 -0.023671
-0.145258 -0.065112 -0.028601
-0.169884 -0.061521 -0.028013
-0.161436 -0.071243 -0.020983
-0.159477 -0.066157 -0.027957
-0.177096 -0.069975 -0.021218
-0.153090 -0.065738 -0.024391
-0.180570 -0.071099 -0.021740
-0.167913 -0.067717 -0.026014
-0.160180 -0.076930 -0.012175
-0.193577 -0.074791 -0.011138
-0.142692 -0.073279 -0.022216
-0.201155 -0.064859 -0.022565
-0.156467 -0.058389 -0.032346
-0.182531 -0.070739 -0.013015
-0.167629 -0.066425 -0.027370
-0.185926 -0.074710 -0.011908
-0.166852 -0.074998 -0.009495
-0.166029 -0.073671 -0.018079
-0.175928 -0.075958 -0.011556
