-0.194923 -0.417967 0.178445
-0.194874 -0.417570 0.141496
-0.177678 -0.317871 0.194931
-0.194898 -0.361359 0.159806
-0.137234 -0.387571 0.188621
-0.194923 -0.300580 0.178445
-0.194934 -0.262039 0.183153
-0.194844 -0.385359 0.119058
-0.194874 -0.302258 0.141496
-0.188890 -0.334775 0.127631
-0.194934 -0.201431 0.183153
-0.194792 -0.405045 0.079882
-0.103128 -0.324873 0.184179
-0.194821 -0.351185 0.101458
-0.129726 -0.411493 0.114647
-0.138995 -0.250500 0.180545
-0.194868 -0.242319 0.136969
-0.194934 -0.140824 0.183153
-0.178662 -0.203813 0.164242
-0.037951 -0.395293 0.173097
-0.194753 -0.382363 0.050441
-0.064392 -0.301491 0.187043
-0.194940 -0.080397 0.187886
-0.194781 -0.325691 0.071380
-0.185724 -0.266916 0.105458
-0.194809 -0.271208 0.092772
-0.177594 -0.360788 0.058975
-0.179803 -0.104696 0.175075
-0.194826 -0.211169 0.105829
-0.186004 -0.307572 0.066625
0.002760 -0.340159 0.190712
-0.183333 -0.150126 0.138390
-0.194923 -0.040907 0.178445
-0.127164 -0.151448 0.175924
-0.194850 -0.154135 0.123506
-0.194726 -0.345324 0.029938
-0.194684 -0.388402 -0.001989
-0.194923 -0.001779 0.178445
-0.045066 -0.363155 0.123080
-0.154378 -0.046143 0.187420
-0.194748 -0.281586 0.046306
0.043180 -0.403424 0.168168
-0.062248 -0.207138 0.177771
-0.016205 -0.250016 0.186955
-0.194844 -0.101956 0.119058
0.070833 -0.357149 0.191673
-0.194934 0.058825 0.183153
-0.195715 -0.341134 -0.006147
-0.183802 -0.188725 0.071588
-0.194844 -0.060482 0.119058
-0.194798 -0.130776 0.084160
-0.194684 -0.310396 -0.001989
-0.194721 -0.245675 0.025889
-0.194940 0.108983 0.187886
-0.194748 -0.201609 0.046306
-0.181395 -0.009592 0.143166
-0.161487 0.056893 0.183672
-0.194648 -0.344445 -0.029077
-0.194874 0.019219 0.141496
-0.194844 -0.022465 0.119058
0.113910 -0.394373 0.172626
-0.032904 -0.139760 0.182347
-0.186777 -0.253673 0.012595
-0.074871 -0.086646 0.173194
0.061088 -0.273834 0.187618
-0.194748 -0.161620 0.046306
-0.194679 -0.270837 -0.005907
0.109630 -0.324489 0.196174
-0.194608 -0.376790 -0.059110
-0.183670 -0.063103 0.093827
-0.194792 -0.069485 0.079882
-0.194868 0.057529 0.136969
-0.194934 0.169345 0.183153
-0.194694 -0.210504 0.005894
-0.185483 -0.315090 -0.038370
-0.136704 -0.406877 -0.045554
-0.083332 0.003311 0.184187
-0.191797 -0.117807 0.046134
-0.182517 0.109871 0.156759
-0.053609 -0.371170 0.025127
-0.194868 0.099368 0.136969
-0.085606 0.012167 0.179399
0.039447 -0.193152 0.177651
-0.194821 0.025697 0.101458
-0.194792 -0.011863 0.079882
-0.194594 -0.314999 -0.070126
-0.194868 0.137721 0.136969
-0.141782 0.164307 0.188497
0.058625 -0.355479 0.099606
-0.174878 0.239062 0.193890
-0.194726 -0.090875 0.029938
-0.194923 0.240109 0.178445
-0.194753 -0.035064 0.050441
0.000476 -0.061173 0.182556
-0.194613 -0.251168 -0.055408
-0.188424 0.056153 0.091312
-0.194653 -0.184612 -0.025255
0.167887 -0.346935 0.170013
-0.194880 0.197865 0.146043
-0.194669 -0.150210 -0.013693
-0.194528 -0.364442 -0.119852
-0.194826 0.115027 0.105829
-0.189326 -0.011389 0.052522
0.052779 -0.120583 0.184068
-0.163325 -0.384312 -0.105453
0.125242 -0.233623 0.184078
0.133549 -0.404834 0.107239
-0.186273 -0.179047 -0.028078
-0.084418 0.123759 0.185813
-0.194781 0.065813 0.071380
-0.186529 -0.259931 -0.077186
-0.027212 0.054715 0.189891
-0.194753 0.025046 0.050441
-0.194528 -0.324796 -0.119852
-0.194916 0.317652 0.173754
-0.194658 -0.110993 -0.021417
0.166436 -0.284051 0.166302
-0.194821 0.162744 0.101458
-0.187258 -0.299243 -0.112519
-0.194546 -0.271998 -0.105921
-0.170330 0.303764 0.175789
-0.194684 -0.050378 -0.001989
0.018560 0.009855 0.185864
-0.194856 0.237784 0.127974
-0.194832 0.197863 0.110220
-0.186396 0.195101 0.114722
-0.193021 -0.058297 -0.008848
-0.194874 0.277797 0.141496
-0.194575 -0.209903 -0.084613
0.124045 -0.158125 0.176041
-0.171143 0.358922 0.186431
0.162871 -0.324647 0.125295
-0.194916 0.377988 0.173754
-0.194726 0.067743 0.029938
0.079846 -0.051051 0.178716
-0.183835 -0.136378 -0.059347
-0.194584 -0.154536 -0.077398
-0.194700 0.034339 0.009860
-0.194923 0.417967 0.178445
-0.179325 0.144083 0.068297
-0.194787 0.187715 0.075622
-0.194450 -0.352220 -0.179975
-0.194764 0.152587 0.058763
-0.193305 -0.189355 -0.100491
-0.194479 -0.300133 -0.157079
-0.043703 -0.370892 -0.076769
-0.194658 -0.011260 -0.021417
-0.194804 0.233180 0.088457
-0.178138 -0.354417 -0.175332
-0.091028 0.272282 0.180139
-0.059889 0.234068 0.182807
-0.133855 -0.408683 -0.175211
0.163845 -0.197509 0.152104
-0.017360 0.172343 0.185512
-0.193508 0.348294 0.129665
0.171100 -0.351530 0.080069
0.148674 -0.101999 0.180112
-0.194492 -0.241774 -0.147080
0.122871 -0.368377 0.034268
-0.194868 0.378297 0.136969
0.044802 -0.366611 -0.025888
-0.194826 0.317611 0.105829
-0.186812 0.286385 0.095601
0.088448 0.041746 0.189707
-0.193576 0.026591 -0.028511
-0.183574 0.085599 0.005321
-0.194874 0.417570 0.141496
0.016106 0.126540 0.170404
-0.194694 0.112595 0.005894
-0.127973 0.408193 0.185656
-0.173336 -0.317189 -0.183470
-0.194528 -0.150961 -0.119852
-0.194551 -0.112398 -0.102404
-0.194658 0.069169 -0.021417
-0.194594 -0.029776 -0.070126
-0.194618 0.014246 -0.051692
-0.194492 -0.181706 -0.147080
-0.062252 0.321435 0.183087
0.162630 -0.258994 0.084955
-0.194775 0.287951 0.067157
-0.122093 -0.359541 -0.181504
-0.172489 0.410428 0.134895
-0.193920 -0.251243 -0.186172
-0.192510 0.250356 0.047143
-0.156872 -0.309537 -0.188979
-0.194705 0.188436 0.013842
0.144807 -0.014135 0.172753
-0.067674 0.366750 0.184185
-0.083777 -0.393027 -0.179676
-0.194726 0.232970 0.029938
0.172614 -0.081706 0.159044
-0.149781 -0.270173 -0.174052
-0.180929 -0.207381 -0.167982
0.164605 -0.151597 0.117638
-0.194608 0.048872 -0.059110
-0.166295 -0.055918 -0.087736
-0.189488 -0.016752 -0.088583
-0.194770 0.327668 0.062951
-0.194442 -0.209960 -0.186407
-0.195939 -0.122851 -0.146263
-0.191811 0.182378 -0.002430
0.165603 -0.318573 0.031540
-0.194792 0.377929 0.079882
-0.194658 0.149599 -0.021417
0.034663 0.234018 0.184415
-0.102970 -0.347734 -0.191520
-0.129916 -0.290274 -0.184767
-0.194618 0.093387 -0.051692
-0.194501 -0.094968 -0.140351
-0.194528 -0.050320 -0.119852
-0.148816 -0.256989 -0.186028
-0.090795 -0.340932 -0.182489
0.006662 0.286769 0.181355
-0.037028 -0.403207 -0.173507
-0.074130 -0.003664 -0.009766
0.123500 0.123652 0.192113
-0.035616 -0.410951 -0.178731
-0.194442 -0.174722 -0.186407
0.076963 0.185247 0.184323
-0.194551 0.007699 -0.102404
-0.188576 0.397914 0.076552
-0.194716 0.287944 0.021857
-0.194653 0.187823 -0.025255
0.163931 -0.362507 -0.016026
-0.152240 -0.216060 -0.187484
0.111150 -0.409003 -0.083562
-0.194721 0.328116 0.025889
0.044656 -0.128353 -0.003019
-0.054800 -0.342404 -0.182469
0.157621 -0.041432 0.119754
-0.194436 -0.124570 -0.189605
-0.194542 0.047546 -0.109424
-0.191013 0.342754 0.025304
-0.187209 -0.045904 -0.150230
-0.194604 0.152619 -0.062796
0.169437 -0.187786 0.052271
0.166811 0.084067 0.174723
-0.184061 0.074471 -0.094794
-0.173632 0.124988 -0.065066
-0.069668 -0.294164 -0.184668
-0.110236 -0.234843 -0.186870
0.166575 -0.106311 0.079908
0.049975 -0.367696 -0.131490
-0.194628 0.217720 -0.044214
-0.194565 0.113058 -0.091771
-0.194488 -0.010492 -0.150426
0.025871 -0.419150 -0.178351
-0.092320 -0.236544 -0.181120
-0.081991 -0.261054 -0.185973
0.165289 -0.256940 0.002531
0.056588 0.321238 0.185324
-0.194461 -0.040014 -0.170235
0.159994 0.036022 0.131274
-0.034917 -0.308192 -0.176178
-0.141059 -0.159439 -0.188609
0.009412 -0.380699 -0.180493
0.010184 -0.371396 -0.177629
-0.191825 0.292820 -0.020110
-0.194700 0.367918 0.009860
-0.131556 -0.167249 -0.188814
0.153631 0.175628 0.182137
-0.015805 0.411059 0.158668
-0.149603 -0.127366 -0.189676
-0.149031 0.412758 0.056895
-0.194633 0.275484 -0.040453
0.111547 0.282785 0.188276
-0.194556 0.152728 -0.098874
-0.194854 0.032091 -0.158928
-0.174662 -0.061302 -0.190561
-0.152258 -0.075868 -0.180948
0.149771 0.240104 0.187856
0.048843 0.391383 0.180673
-0.072355 0.409286 0.098392
0.000971 -0.320681 -0.183543
0.164552 -0.314501 -0.058215
-0.068595 -0.210940 -0.187780
-0.194561 0.190124 -0.095329
-0.194584 0.232585 -0.077398
0.052152 -0.379880 -0.180595
-0.189374 0.362005 -0.017168
-0.013675 -0.284886 -0.185170
-0.180889 0.180772 -0.093681
-0.078798 0.202687 -0.007258
-0.195000 0.238164 -0.081254
-0.194492 0.094607 -0.147080
-0.134890 -0.094962 -0.190191
-0.173427 0.401101 0.007424
-0.194628 0.322607 -0.044214
0.035255 -0.341331 -0.182640
0.146297 -0.278042 -0.070362
0.082186 -0.398431 -0.180026
0.160333 -0.363799 -0.105607
-0.192961 0.107850 -0.149456
-0.182723 0.004448 -0.190843
-0.071267 -0.170563 -0.188808
0.105144 -0.420239 -0.178394
-0.194579 0.272632 -0.081013
0.164859 0.147029 0.129213
-0.004070 -0.252030 -0.182954
-0.091829 -0.121755 -0.189838
-0.007711 -0.244038 -0.186681
0.169208 0.006959 0.063374
-0.127866 -0.054851 -0.190655
-0.031301 -0.204467 -0.187998
-0.189422 0.054480 -0.190577
0.170095 -0.140107 -0.010443
-0.198993 0.326302 -0.073667
0.058767 -0.320302 -0.181311
-0.071568 -0.118125 -0.184331
-0.022050 -0.186508 -0.181738
0.165635 -0.198009 -0.047258
-0.144601 -0.004624 -0.190892
-0.194474 0.147548 -0.160387
0.139405 -0.395389 -0.167420
0.168154 0.083691 0.076170
0.167150 -0.047410 0.015717
-0.194575 0.328070 -0.084613
0.049441 -0.282258 -0.185376
0.107384 -0.362266 -0.181659
0.161103 0.223218 0.129454
-0.114662 -0.000963 -0.179121
-0.024251 -0.164177 -0.189033
0.155424 -0.420929 -0.178421
0.162538 0.310039 0.166179
-0.194510 0.237571 -0.133570
0.089465 -0.322453 -0.183581
0.034198 -0.242076 -0.186807
-0.194479 0.192623 -0.157079
0.008925 -0.201146 -0.188136
-0.029861 0.383326 0.051157
0.151036 0.357232 0.170828
-0.187436 0.122527 -0.189700
-0.179997 0.164143 -0.165448
-0.146925 0.076827 -0.182443
0.135536 0.406334 0.174655
0.165540 -0.295908 -0.123590
-0.158939 0.083578 -0.190333
-0.185686 0.412203 -0.061811
-0.194570 0.367773 -0.088199
-0.076379 -0.044453 -0.190776
-0.094546 -0.014565 -0.190906
-0.037210 -0.104142 -0.190179
0.163599 0.177863 0.088042
-0.114008 0.413962 -0.013551
0.153158 -0.338009 -0.167554
0.095748 -0.281664 -0.185465
-0.194519 0.314434 -0.126738
-0.119609 0.055296 -0.190665
0.158540 -0.364919 -0.181577
-0.038655 -0.046474 -0.177796
0.094894 0.411868 0.127199
0.127027 -0.297520 -0.178127
-0.186879 0.230934 -0.167998
0.052436 -0.201327 -0.188191
0.015155 -0.141279 -0.189671
0.035404 -0.148422 -0.179278
0.091440 -0.242347 -0.186874
0.037803 0.404652 0.069264
-0.184039 0.296484 -0.146243
0.168948 0.045329 0.003874
-0.193363 0.377065 -0.118188
-0.068361 0.037558 -0.178115
-0.169462 0.185129 -0.188307
0.164303 -0.156739 -0.096454
0.150657 -0.314295 -0.184038
0.169096 -0.081052 -0.060665
-0.067532 0.024899 -0.190890
0.012837 -0.087675 -0.184479
0.089707 -0.210905 -0.185715
-0.187818 0.237997 -0.186653
-0.109877 0.100506 -0.190138
-0.039361 -0.015329 -0.190973
0.166870 -0.233236 -0.141462
-0.132925 0.145125 -0.189379
-0.186862 0.274539 -0.172968
0.060833 -0.161742 -0.189208
0.177119 0.286271 0.099028
0.149714 0.143195 0.013536
0.172112 0.237403 0.068294
0.034940 -0.100004 -0.190337
0.011923 -0.062384 -0.190802
-0.096335 0.128345 -0.184542
0.157840 -0.271531 -0.185919
-0.194470 0.352557 -0.163682
0.173947 0.365294 0.114749
-0.177201 0.279725 -0.185178
-0.057668 0.068687 -0.190678
0.176937 -0.002373 -0.050240
0.069905 -0.121703 -0.190051
-0.129209 0.205344 -0.187844
-0.082691 0.129367 -0.189733
-0.187748 0.318443 -0.183393
0.006301 0.005323 -0.181000
-0.124302 0.214602 -0.185058
0.095399 -0.151054 -0.189526
0.164214 -0.064269 -0.098553
-0.188558 0.333718 -0.182551
0.137177 -0.203686 -0.188245
-0.097729 0.172833 -0.188719
0.140879 0.013151 -0.083998
-0.134001 0.245125 -0.186470
-0.019125 0.053772 -0.190806
0.178768 0.107000 -0.023745
0.158284 0.415237 0.097648
0.054914 0.398480 0.012991
0.151363 -0.159246 -0.174794
-0.182631 0.401015 -0.168733
-0.027816 0.094687 -0.190335
0.043965 -0.020147 -0.191057
-0.092579 0.403522 -0.100405
0.021986 0.019775 -0.191032
-0.149864 0.324876 -0.183148
-0.009892 0.405489 -0.041843
-0.129917 0.290274 -0.184767
0.079156 -0.062235 -0.190891
0.118584 -0.094458 -0.180549
-0.035933 0.135059 -0.189708
0.158686 0.226772 -0.002880
0.173291 -0.107880 -0.148524
0.145113 -0.141176 -0.189844
0.004622 0.107546 -0.178239
-0.068827 0.207564 -0.187869
0.161353 0.074796 -0.079445
-0.098634 0.269955 -0.185632
0.022565 0.059359 -0.190832
0.090007 -0.027026 -0.180912
-0.042992 0.175055 -0.188736
0.130276 -0.104148 -0.190399
0.045180 0.043952 -0.184656
-0.025307 0.188616 -0.172082
-0.097359 0.295300 -0.181999
0.165206 0.296873 0.008899
0.055536 0.038838 -0.190980
-0.128347 0.373254 -0.180724
-0.108108 0.338552 -0.182575
0.090189 -0.001903 -0.191211
0.115448 -0.040775 -0.191047
0.175774 0.353843 0.031799
-0.046747 0.245868 -0.186561
0.167716 -0.037484 -0.161455
-0.002617 0.185003 -0.188536
0.168429 0.182742 -0.062870
-0.110205 0.369432 -0.188519
-0.099561 0.390300 -0.173845
0.165522 0.034849 -0.137939
0.076303 0.096222 -0.176466
0.057287 0.098189 -0.190394
0.026510 0.149899 -0.189467
-0.038872 0.261319 -0.188893
0.154545 -0.054052 -0.191032
-0.065984 0.325423 -0.183236
0.153528 0.413318 0.014511
-0.041731 0.294961 -0.184670
0.023450 0.194330 -0.186473
0.123630 0.034770 -0.187220
0.103292 0.059614 -0.190937
-0.070086 0.364454 -0.181296
0.011581 0.230258 -0.187197
0.164313 0.138758 -0.117703
0.060300 0.396989 -0.078480
0.014178 0.248539 -0.181171
0.070777 0.140546 -0.189763
-0.037551 0.337176 -0.181213
0.153755 0.006001 -0.191273
0.104797 0.098214 -0.190456
0.051584 0.190084 -0.188479
0.167397 0.257522 -0.072797
0.005666 0.275469 -0.185574
-0.034197 0.355834 -0.181829
0.169780 0.359468 -0.030675
-0.055392 0.403591 -0.179117
0.170915 0.298731 -0.060738
0.162922 0.084884 -0.165515
-0.008637 0.325064 -0.183330
0.171653 0.195536 -0.115660
0.154743 0.066075 -0.190972
0.028325 0.307303 -0.178317
0.097352 0.190896 -0.180739
0.097516 0.178181 -0.188842
0.149029 0.264655 -0.111606
0.057335 0.250559 -0.186533
-0.022315 0.391221 -0.183076
0.163693 0.407100 -0.039760
0.088256 0.264085 -0.159022
0.144345 0.132358 -0.183794
-0.000211 0.384677 -0.180252
0.144495 0.129173 -0.190035
0.042055 0.310038 -0.184088
0.162171 0.321928 -0.095918
0.088837 0.287453 -0.170679
0.072958 0.287830 -0.185151
0.103388 0.240824 -0.186943
0.147425 0.169368 -0.189131
0.137141 0.411169 -0.087484
0.047148 0.348495 -0.182326
0.172995 0.201814 -0.162975
0.041514 0.414749 -0.170510
0.036579 0.419297 -0.178356
0.150746 0.209848 -0.188107
0.090568 0.330433 -0.183216
0.120028 0.279333 -0.185589
0.090553 0.353263 -0.175412
0.160567 0.280033 -0.167963
0.155456 0.250881 -0.186654
0.096776 0.370817 -0.181162
0.079412 0.407721 -0.179062
0.168743 0.378396 -0.127903
0.160005 0.288181 -0.185251
0.174938 0.310611 -0.164900
0.153817 0.327938 -0.184003
0.119921 0.397500 -0.179041
0.147541 0.342430 -0.188319
