-0.119978 -0.000500 -0.190851
-0.120919 -0.025826 -0.190235
-0.103227 0.018681 -0.189987
-0.148352 0.035645 -0.189479
-0.131206 0.009999 -0.190398
-0.092283 -0.013985 -0.190123
-0.139263 -0.001100 -0.190516
-0.142670 0.017896 -0.189484
-0.082244 -0.003477 -0.190302
-0.031333 -0.126487 -0.188558
-0.048093 -0.152264 -0.188542
-0.054445 -0.139582 -0.188517
-0.034761 -0.138099 -0.188751
-0.007747 -0.178356 -0.188004
-0.058428 -0.155145 -0.188696
-0.009294 -0.132369 -0.187958
-0.033925 -0.164528 -0.188287
-0.024311 -0.165047 -0.188440
-0.010200 -0.152384 -0.188050
-0.039174 -0.171340 -0.188214
-0.016518 -0.173569 -0.187647
-0.025515 -0.144551 -0.188347
-0.015026 -0.162285 -0.188052
-0.020090 -0.151868 -0.188804
-0.047208 -0.177714 -0.188256
-0.002411 -0.143377 -0.188678
-0.056042 -0.168038 -0.188531
-0.019600 -0.124100 -0.187767
-0.035384 -0.182533 -0.188171
-0.022774 -0.134529 -0.187866
-0.044793 -0.162618 -0.189131
-0.021367 -0.183291 -0.188117
-0.027178 -0.156739 -0.188063
-0.027486 -0.174553 -0.189021
-0.014876 -0.141708 -0.188502
-0.045265 -0.129383 -0.188130
-0.032954 -0.149236 -0.188229
-0.006936 -0.166814 -0.188336
-0.038951 -0.156827 -0.188665
-0.041622 -0.143713 -0.188056
0.000139 -0.158658 -0.188441
0.152804 -0.403518 -0.181262
0.125278 -0.427555 -0.143197
0.134630 -0.416581 -0.177104
0.157229 -0.401748 -0.126994
0.153702 -0.420538 -0.163417
0.111402 -0.424468 -0.170763
0.156437 -0.396686 -0.177334
0.146711 -0.418619 -0.180193
0.155345 -0.421020 -0.176779
0.155353 -0.415066 -0.181439
0.151997 -0.421829 -0.174405
0.154190 -0.418604 -0.180942
0.153673 -0.420993 -0.163386
0.152161 -0.420926 -0.178493
0.158646 -0.417913 -0.107644
0.141349 -0.422359 -0.143235
0.155137 -0.421804 -0.145704
0.123468 -0.423770 -0.179254
0.158627 -0.387664 -0.170498
0.143329 -0.421409 -0.177488
0.158554 -0.411501 -0.171643
0.144868 -0.423350 -0.092592
0.146490 -0.424547 -0.176223
0.153978 -0.423660 -0.136269
0.148588 -0.423192 -0.125821
0.158191 -0.411280 -0.154119
0.139443 -0.394564 -0.179529
0.142235 -0.417032 -0.178684
0.156233 -0.417874 -0.162164
0.141215 -0.423032 -0.171153
0.146088 -0.410387 -0.163351
0.157095 -0.410940 -0.174775
0.153905 0.342060 0.149742
0.137323 0.324263 0.185767
0.139183 0.331119 0.173017
0.156043 0.350563 0.183586
0.158094 0.274190 0.182483
0.123791 0.308541 0.183766
0.158443 0.352090 0.163410
0.155520 0.305559 0.141694
0.157823 0.285517 0.173830
0.158654 0.324712 0.151446
0.154217 0.293652 0.185541
0.158663 0.292842 0.157179
0.156297 0.327917 0.183001
0.156565 0.307658 0.165289
0.157349 0.319528 0.183846
0.143056 0.284291 0.185905
0.159681 0.321392 0.177450
0.140858 0.294207 0.170117
0.157933 0.363645 0.181100
0.157029 0.277437 0.157162
0.158254 0.337452 0.169879
0.146769 0.302224 0.184655
0.156128 0.264391 0.179638
0.157414 0.307119 0.183859
0.154848 0.282725 0.184684
0.158597 0.339453 0.182978
0.142180 0.355426 0.182025
0.151012 0.311230 0.153499
0.159272 0.301025 0.177601
0.151922 0.315486 0.181812
0.147992 0.339682 0.185032
0.158530 0.320566 0.163797
-0.193045 0.254426 -0.169766
-0.193201 0.247164 -0.126552
-0.193192 0.248223 -0.149375
-0.193625 0.265452 -0.123079
-0.193192 0.214043 -0.132902
-0.193383 0.230753 -0.139109
-0.193892 0.264838 -0.163054
-0.193812 0.242227 -0.174723
-0.193281 0.220357 -0.152178
-0.193096 0.246650 -0.161161
-0.193438 0.221449 -0.141140
-0.194050 0.236895 -0.164975
-0.193440 0.249379 -0.138214
-0.193158 0.238970 -0.154432
-0.193395 0.243345 -0.114815
-0.193520 0.226834 -0.130157
-0.193267 0.240283 -0.133490
-0.193404 0.227885 -0.160272
-0.193660 0.270619 -0.136850
-0.193148 0.215494 -0.163101
-0.193146 0.259885 -0.144068
-0.193567 0.230102 -0.114467
-0.193320 0.209592 -0.146773
-0.193001 0.236879 -0.123966
-0.193509 0.219724 -0.122104
-0.192978 0.254376 -0.119286
-0.193248 0.269368 -0.150409
-0.193238 0.226864 -0.173518
-0.192439 0.230397 -0.149317
-0.193352 0.239746 -0.143859
-0.193662 0.257974 -0.131863
-0.193430 0.255846 -0.155900
0.090494 -0.296104 -0.182859
0.074125 -0.321455 -0.183004
0.067764 -0.309229 -0.182339
0.087344 -0.308072 -0.183259
0.116046 -0.349868 -0.182081
0.064156 -0.323294 -0.182355
0.114427 -0.302622 -0.182301
0.087801 -0.333700 -0.181946
0.098451 -0.334965 -0.182820
0.113902 -0.322188 -0.182832
0.081780 -0.342006 -0.182582
0.106651 -0.343981 -0.182376
0.097066 -0.314042 -0.182963
0.108290 -0.331806 -0.182383
0.103355 -0.321053 -0.183319
0.073785 -0.348240 -0.182714
0.121744 -0.313315 -0.182622
0.065463 -0.337108 -0.182216
0.103989 -0.294488 -0.182212
0.085951 -0.354662 -0.182545
0.099722 -0.304211 -0.182863
0.076670 -0.332113 -0.182914
0.100882 -0.356029 -0.182051
0.095420 -0.325569 -0.182937
0.094967 -0.345469 -0.183121
0.108245 -0.312193 -0.182942
0.077130 -0.299524 -0.182574
0.088901 -0.318140 -0.182507
0.117734 -0.336409 -0.182875
0.082633 -0.326025 -0.183187
0.079953 -0.313514 -0.182819
0.124950 -0.327598 -0.182262
0.031037 -0.215088 -0.186399
0.016224 -0.238332 -0.186416
0.009936 -0.226847 -0.186199
0.028178 -0.226023 -0.186722
0.053542 -0.263040 -0.185764
0.006229 -0.240192 -0.186232
0.052181 -0.220935 -0.185784
0.028664 -0.249151 -0.185827
0.038058 -0.249894 -0.186266
0.051382 -0.238607 -0.186258
0.023731 -0.255971 -0.186042
0.045555 -0.257818 -0.185959
0.036702 -0.231542 -0.186309
0.046700 -0.247233 -0.185976
0.042036 -0.238021 -0.186687
0.016482 -0.261729 -0.186213
0.058683 -0.230574 -0.186430
0.008371 -0.252305 -0.186263
0.042563 -0.213550 -0.185751
0.027240 -0.267106 -0.186100
0.039173 -0.222684 -0.186076
0.018880 -0.247614 -0.186733
0.040331 -0.268139 -0.185861
0.035177 -0.241918 -0.186118
0.034972 -0.259054 -0.186664
0.046615 -0.229453 -0.186338
0.018833 -0.218087 -0.186098
0.029746 -0.235146 -0.186143
0.055107 -0.251397 -0.186339
0.024176 -0.242063 -0.186582
0.021648 -0.230808 -0.186152
0.061868 -0.243803 -0.186164
-0.193386 0.211363 -0.180700
-0.193367 0.204099 -0.147268
-0.193454 0.204280 -0.165206
-0.193740 0.222225 -0.144490
-0.193572 0.170421 -0.151728
-0.193633 0.187813 -0.156568
-0.194083 0.221222 -0.175154
-0.193876 0.198011 -0.184006
-0.193268 0.176054 -0.166607
-0.193355 0.202689 -0.174238
-0.193554 0.178414 -0.157973
-0.193970 0.192719 -0.175837
-0.193573 0.206479 -0.156833
-0.193290 0.194843 -0.168493
-0.193499 0.199651 -0.137736
-0.193400 0.183389 -0.149529
-0.193404 0.197242 -0.152373
-0.193665 0.183503 -0.172912
-0.194010 0.228611 -0.154684
-0.193249 0.171647 -0.175526
-0.193508 0.215969 -0.161556
-0.193350 0.186710 -0.137779
-0.193338 0.165015 -0.162542
-0.193278 0.193394 -0.145344
-0.193531 0.175898 -0.143247
-0.193226 0.211185 -0.141263
-0.193628 0.226523 -0.165845
-0.193356 0.183889 -0.182866
-0.192816 0.186647 -0.164410
-0.193492 0.196575 -0.160789
-0.193872 0.215148 -0.151924
-0.193671 0.211761 -0.170056
0.003145 -0.173145 -0.187883
-0.011697 -0.195574 -0.187750
-0.018063 -0.184259 -0.187645
0.000118 -0.183453 -0.187993
0.024506 -0.217925 -0.187130
-0.022023 -0.197256 -0.187615
0.023053 -0.178636 -0.187134
0.000746 -0.205616 -0.187336
0.009762 -0.206100 -0.187599
0.022148 -0.195697 -0.187433
-0.003822 -0.211610 -0.187265
0.016782 -0.213566 -0.187084
0.008492 -0.188856 -0.187518
0.017919 -0.203878 -0.187304
0.013397 -0.195004 -0.188011
-0.011093 -0.217091 -0.187467
0.029247 -0.187881 -0.187780
-0.019477 -0.208690 -0.187637
0.013878 -0.171357 -0.187107
-0.000587 -0.221669 -0.187431
0.010836 -0.180468 -0.187323
-0.008883 -0.204184 -0.188130
0.012157 -0.222402 -0.187259
0.006979 -0.198878 -0.187355
0.006808 -0.214463 -0.188043
0.017904 -0.186651 -0.187640
-0.009138 -0.175779 -0.187445
0.001757 -0.192507 -0.187446
0.025647 -0.207670 -0.187592
-0.003573 -0.199121 -0.187872
-0.006200 -0.188072 -0.187384
0.032092 -0.200669 -0.187596
-0.029826 0.421639 0.010375
-0.095906 0.416451 0.068277
-0.070194 0.419029 0.020596
-0.030713 0.420879 0.100845
0.018698 0.415028 0.052202
-0.102744 0.414300 0.041683
0.017187 0.419448 0.018454
-0.024469 0.415427 -0.011428
-0.015608 0.416016 0.032552
-0.008638 0.419067 0.013718
-0.040152 0.416429 0.050671
0.007027 0.415898 -0.002540
-0.050532 0.418048 0.066890
-0.048176 0.418054 0.020397
-0.000039 0.419405 0.097642
-0.079826 0.413993 0.082404
0.030450 0.419020 0.075218
-0.092857 0.414527 0.009156
-0.000571 0.424255 0.043489
-0.051895 0.415318 -0.001208
-0.031309 0.421556 0.070535
-0.062188 0.417177 0.102360
-0.033520 0.414001 0.032927
-0.014386 0.417423 0.082498
-0.047852 0.416044 0.086063
-0.012266 0.419921 0.060212
-0.080298 0.419969 0.039446
-0.071121 0.417076 -0.013512
0.006103 0.418432 0.071140
-0.059423 0.416322 0.041756
-0.070239 0.419933 0.060319
0.037405 0.418640 0.036706
0.131383 0.397559 0.175836
0.107695 0.364816 0.180267
0.095763 0.382500 0.179389
0.130909 0.388417 0.182336
0.150444 0.321026 0.181260
0.089072 0.361409 0.179583
0.152504 0.394530 0.178172
0.132471 0.345762 0.171686
0.139781 0.338776 0.180999
0.150043 0.369180 0.171569
0.123013 0.336866 0.182298
0.148102 0.332765 0.177015
0.135123 0.373994 0.180797
0.145862 0.350660 0.178865
0.145075 0.364696 0.182233
0.109373 0.322891 0.180460
0.154264 0.376086 0.180354
0.096794 0.341525 0.180326
0.142964 0.403735 0.181957
0.126964 0.317505 0.179748
0.140842 0.386824 0.178888
0.116912 0.350157 0.180913
0.141536 0.310949 0.181655
0.135359 0.355499 0.182066
0.135577 0.327976 0.182262
0.147629 0.381711 0.181257
0.108019 0.397200 0.180802
0.125097 0.370730 0.176353
0.151871 0.343070 0.181029
0.121290 0.359169 0.180508
0.116224 0.380412 0.181150
0.155138 0.357198 0.176378
-0.188641 0.155750 -0.188721
-0.194025 0.127221 -0.185434
-0.192971 0.134982 -0.187553
-0.192816 0.145239 -0.187808
-0.171713 0.081427 -0.189049
-0.192498 0.113073 -0.186445
-0.172596 0.152493 -0.188109
-0.190940 0.106118 -0.187794
-0.183021 0.099578 -0.188860
-0.174235 0.125004 -0.188280
-0.191820 0.095143 -0.188033
-0.175465 0.093746 -0.187905
-0.183813 0.134533 -0.189433
-0.178301 0.111933 -0.189271
-0.185566 0.122115 -0.188903
-0.193781 0.086891 -0.187140
-0.167207 0.134467 -0.188791
-0.193521 0.101156 -0.188308
-0.182209 0.166125 -0.188569
-0.191285 0.079585 -0.188777
-0.182332 0.146513 -0.188726
-0.192816 0.108613 -0.186441
-0.183951 0.071915 -0.189222
-0.188345 0.115364 -0.188912
-0.187292 0.089113 -0.188997
-0.177415 0.138631 -0.189668
-0.193776 0.158381 -0.187041
-0.189295 0.128542 -0.188777
-0.170455 0.105598 -0.189757
-0.192416 0.119221 -0.188421
-0.192205 0.138462 -0.188209
-0.165300 0.114832 -0.187918
-0.194030 0.190465 -0.184619
-0.194707 0.180412 -0.149516
-0.194735 0.179154 -0.169779
-0.194500 0.204998 -0.146627
-0.194588 0.128847 -0.155463
-0.194879 0.156646 -0.159454
-0.194686 0.203209 -0.179540
-0.194512 0.168817 -0.186461
-0.194044 0.137399 -0.170942
-0.193821 0.175925 -0.179077
-0.194217 0.142975 -0.161400
-0.194151 0.160737 -0.179319
-0.193801 0.184200 -0.160813
-0.193719 0.164819 -0.173121
-0.192822 0.173597 -0.139033
-0.194465 0.148092 -0.151185
-0.193944 0.171531 -0.155344
-0.194504 0.147504 -0.177225
-0.195344 0.214099 -0.158992
-0.194019 0.131096 -0.180517
-0.194433 0.195655 -0.167205
-0.193625 0.155267 -0.139580
-0.193436 0.120023 -0.167551
-0.193746 0.164468 -0.147670
-0.193722 0.137297 -0.145439
-0.193803 0.190689 -0.143442
-0.195263 0.209464 -0.170018
-0.194241 0.152851 -0.186760
-0.193460 0.154033 -0.166456
-0.194067 0.168714 -0.164810
-0.194392 0.195494 -0.155503
-0.194738 0.188520 -0.175220
-0.159529 0.120912 -0.189687
-0.179676 0.086503 -0.190587
-0.186887 0.102828 -0.190314
-0.163638 0.106048 -0.189269
-0.130944 0.047826 -0.190156
-0.189349 0.081921 -0.190934
-0.132262 0.113468 -0.189596
-0.163314 0.068407 -0.189557
-0.152130 0.065441 -0.190632
-0.133552 0.085079 -0.189603
-0.168816 0.057872 -0.190789
-0.142950 0.056096 -0.189794
-0.152444 0.095379 -0.190258
-0.140494 0.071194 -0.190300
-0.145328 0.085974 -0.188660
-0.179788 0.050026 -0.190776
-0.123378 0.097043 -0.190819
-0.187130 0.064312 -0.190352
-0.144649 0.124478 -0.189356
-0.165177 0.042124 -0.190303
-0.149212 0.109678 -0.189569
-0.175987 0.070885 -0.189661
-0.148026 0.039759 -0.190369
-0.154068 0.078984 -0.190666
-0.155205 0.053085 -0.190026
-0.139044 0.099329 -0.190481
-0.176483 0.116965 -0.189747
-0.162256 0.090186 -0.190129
-0.129782 0.065252 -0.190325
-0.169400 0.078867 -0.190817
-0.171946 0.098406 -0.189743
-0.121329 0.076828 -0.190523
0.087290 0.423141 0.169003
0.046087 0.412173 0.178201
0.037383 0.421451 0.171717
0.081720 0.423265 0.178922
0.136141 0.387242 0.181872
0.022118 0.416705 0.176934
0.138580 0.423304 0.173811
0.090887 0.407871 0.161808
0.112051 0.401594 0.180009
0.122472 0.418128 0.166727
0.078039 0.398355 0.180176
0.126251 0.400810 0.173127
0.085395 0.416697 0.178428
0.112527 0.411687 0.177057
0.111841 0.416618 0.178600
0.052376 0.388010 0.178733
0.146578 0.420768 0.178927
0.034882 0.403292 0.178167
0.120756 0.424911 0.176253
0.071763 0.384847 0.181664
0.103797 0.422992 0.175419
0.061141 0.403200 0.175677
0.110679 0.381709 0.181298
0.096829 0.410135 0.178671
0.096026 0.394991 0.178910
0.123922 0.420585 0.178684
0.052391 0.422920 0.176260
0.071077 0.420415 0.164563
0.135631 0.405152 0.180452
0.070669 0.413132 0.177017
0.061600 0.419419 0.177495
0.153999 0.409816 0.178664
0.155480 -0.262552 -0.169732
0.149962 -0.279840 -0.102257
0.149161 -0.273781 -0.145995
0.155218 -0.250412 -0.093283
0.164898 -0.321857 -0.119701
0.140393 -0.294966 -0.121847
0.159769 -0.254036 -0.154430
0.158089 -0.286435 -0.180655
0.159888 -0.314786 -0.144103
0.158395 -0.279053 -0.162640
0.156343 -0.308972 -0.126782
0.163793 -0.297210 -0.163827
0.157966 -0.276971 -0.120740
0.157271 -0.289538 -0.149389
0.157327 -0.278054 -0.081852
0.153942 -0.308600 -0.108921
0.168952 -0.289484 -0.109451
0.150446 -0.304715 -0.150004
0.157486 -0.239774 -0.122150
0.157253 -0.318324 -0.163155
0.157324 -0.263071 -0.132595
0.155659 -0.299965 -0.079248
0.155705 -0.329598 -0.135580
0.157982 -0.294270 -0.099313
0.159180 -0.315808 -0.094133
0.159560 -0.266234 -0.101914
0.150360 -0.245070 -0.139154
0.152244 -0.298244 -0.171459
0.160520 -0.296930 -0.134515
0.155001 -0.284225 -0.132676
0.152995 -0.259642 -0.114883
0.174244 -0.276131 -0.145834
-0.168169 0.112936 -0.189903
-0.183216 0.085459 -0.190211
-0.189496 0.098943 -0.189578
-0.171439 0.101066 -0.190018
-0.146948 0.053435 -0.189545
-0.191801 0.082364 -0.189985
-0.147545 0.107132 -0.189161
-0.171305 0.071464 -0.188919
-0.162095 0.069709 -0.189577
-0.148381 0.084718 -0.189424
-0.175594 0.062694 -0.189576
-0.154303 0.060631 -0.189178
-0.162149 0.093909 -0.189746
-0.153368 0.073588 -0.189623
-0.157929 0.085287 -0.189987
-0.183436 0.055933 -0.189776
-0.141044 0.094421 -0.190030
-0.190265 0.067197 -0.189733
-0.157329 0.116210 -0.189159
-0.172488 0.048745 -0.189669
-0.159683 0.104417 -0.189128
-0.180391 0.073442 -0.190214
-0.159799 0.045590 -0.189725
-0.164553 0.080203 -0.189987
-0.164824 0.058311 -0.190332
-0.152761 0.096018 -0.189993
-0.180854 0.110382 -0.189400
-0.169466 0.089079 -0.189486
-0.144994 0.068582 -0.190237
-0.175461 0.080253 -0.190204
-0.177840 0.094998 -0.189387
-0.138750 0.078741 -0.189620
-0.163147 0.422414 -0.110763
-0.186894 0.417751 -0.042140
-0.182243 0.420819 -0.095118
-0.166667 0.425475 -0.014148
-0.117570 0.418626 -0.067523
-0.185927 0.410860 -0.063970
-0.115487 0.422785 -0.093690
-0.155390 0.420058 -0.128717
-0.144527 0.420419 -0.085217
-0.139771 0.421587 -0.100892
-0.163256 0.418890 -0.068654
-0.125070 0.420991 -0.118569
-0.174962 0.419281 -0.054268
-0.169132 0.421398 -0.095437
-0.134674 0.422847 -0.011805
-0.185836 0.410262 -0.038911
-0.103678 0.420376 -0.040973
-0.186926 0.414760 -0.102083
-0.135284 0.422963 -0.073109
-0.178458 0.417578 -0.114178
-0.161136 0.425351 -0.049962
-0.185666 0.420433 -0.007716
-0.167101 0.415707 -0.083741
-0.151142 0.421139 -0.032752
-0.172030 0.419007 -0.028179
-0.141690 0.423642 -0.052172
-0.186043 0.422187 -0.078969
-0.186073 0.417570 -0.127232
-0.123863 0.420084 -0.046465
-0.179422 0.420542 -0.072637
-0.183103 0.425000 -0.051895
-0.100012 0.420552 -0.075273
-0.194130 0.403751 -0.121970
-0.193617 0.395352 -0.071417
-0.193784 0.396727 -0.097044
-0.194488 0.415702 -0.067410
-0.193442 0.363085 -0.079548
-0.194172 0.377495 -0.086415
-0.194247 0.414722 -0.112988
-0.194562 0.391259 -0.126893
-0.194124 0.368219 -0.101077
-0.193978 0.396155 -0.111035
-0.193844 0.368804 -0.089022
-0.194804 0.385086 -0.116166
-0.194144 0.397287 -0.084773
-0.193779 0.386844 -0.103301
-0.194070 0.391607 -0.058389
-0.194244 0.374740 -0.076297
-0.193964 0.387665 -0.080102
-0.193889 0.375856 -0.109555
-0.194358 0.419088 -0.083247
-0.193859 0.364193 -0.113712
-0.194189 0.408672 -0.090923
-0.194055 0.377685 -0.057528
-0.193713 0.359146 -0.093798
-0.193832 0.384266 -0.069169
-0.194038 0.369243 -0.066678
-0.193879 0.403297 -0.063481
-0.194187 0.419222 -0.098073
-0.193893 0.373589 -0.126011
-0.193205 0.377637 -0.098020
-0.194163 0.387731 -0.091480
-0.194591 0.406230 -0.076905
-0.194561 0.406340 -0.104725
-0.081653 -0.018085 -0.190221
-0.100308 -0.042916 -0.190689
-0.107038 -0.030637 -0.190127
-0.085408 -0.029755 -0.189894
-0.053356 -0.069143 -0.189845
-0.112136 -0.044214 -0.190347
-0.055612 -0.025054 -0.189228
-0.084214 -0.054662 -0.189737
-0.072522 -0.056097 -0.190159
-0.056359 -0.043538 -0.190111
-0.090191 -0.061810 -0.189952
-0.063276 -0.064292 -0.189650
-0.074841 -0.035582 -0.190175
-0.062610 -0.052320 -0.189917
-0.067826 -0.042298 -0.189825
-0.100025 -0.068468 -0.190297
-0.047622 -0.034777 -0.190461
-0.109550 -0.057766 -0.190196
-0.067025 -0.017645 -0.189326
-0.086625 -0.074060 -0.190348
-0.071828 -0.026172 -0.189676
-0.097090 -0.053420 -0.190284
-0.070107 -0.074654 -0.189998
-0.076520 -0.046584 -0.190261
-0.076876 -0.065534 -0.190163
-0.062695 -0.033547 -0.190030
-0.096429 -0.021660 -0.189627
-0.083973 -0.039688 -0.189968
-0.052246 -0.056456 -0.190342
-0.090717 -0.047147 -0.190430
-0.093651 -0.034524 -0.189792
-0.043194 -0.048992 -0.189777
-0.100659 0.012272 -0.190408
-0.117073 -0.010862 -0.190888
-0.123401 0.000822 -0.190365
-0.104070 0.001605 -0.190376
-0.076461 -0.035120 -0.189944
-0.127831 -0.012351 -0.190615
-0.078284 0.006256 -0.189526
-0.102966 -0.021573 -0.190061
-0.093014 -0.022720 -0.190304
-0.078924 -0.011178 -0.190213
-0.108119 -0.027990 -0.190182
-0.084942 -0.030349 -0.189840
-0.094707 -0.003907 -0.190340
-0.084140 -0.019479 -0.190107
-0.089080 -0.010147 -0.190314
-0.116756 -0.034467 -0.190379
-0.071139 -0.002990 -0.190725
-0.125144 -0.024636 -0.190507
-0.088383 0.013370 -0.189528
-0.104971 -0.039437 -0.190403
-0.091950 0.004790 -0.189736
-0.114196 -0.020282 -0.190948
-0.090711 -0.040502 -0.190220
-0.096409 -0.014234 -0.190367
-0.096684 -0.031561 -0.190642
-0.084130 -0.001839 -0.190243
-0.113843 0.009345 -0.189940
-0.102439 -0.007647 -0.190108
-0.075252 -0.023324 -0.190637
-0.108437 -0.014598 -0.190615
-0.111172 -0.002997 -0.189986
-0.067556 -0.016280 -0.190053
-0.043108 -0.070718 -0.189747
-0.060969 -0.097379 -0.189998
-0.067675 -0.084333 -0.189678
-0.046631 -0.083110 -0.189786
-0.016389 -0.124485 -0.189219
-0.072199 -0.099558 -0.189802
-0.018289 -0.077559 -0.188945
-0.045657 -0.109942 -0.189314
-0.034730 -0.110846 -0.189578
-0.019126 -0.097748 -0.189395
-0.051384 -0.117160 -0.189367
-0.026009 -0.119592 -0.189017
-0.036494 -0.089549 -0.189592
-0.024748 -0.107557 -0.189325
-0.030079 -0.097031 -0.189793
-0.060249 -0.123844 -0.189589
-0.010763 -0.088548 -0.189863
-0.069768 -0.113230 -0.189690
-0.029568 -0.069232 -0.188975
-0.047497 -0.129294 -0.189609
-0.033375 -0.079303 -0.189105
-0.057634 -0.108189 -0.190162
-0.031959 -0.129864 -0.189410
-0.038258 -0.101648 -0.189497
-0.038541 -0.120631 -0.190028
-0.024669 -0.087026 -0.189650
-0.057672 -0.074214 -0.189211
-0.044851 -0.094138 -0.189391
-0.015369 -0.111974 -0.189785
-0.051423 -0.101827 -0.189822
-0.054344 -0.088636 -0.189195
-0.007041 -0.103911 -0.189410
0.158023 0.209739 0.068255
0.151252 0.195665 0.141887
0.152369 0.200648 0.096343
0.157002 0.221911 0.146903
0.162139 0.150501 0.126022
0.128659 0.179788 0.119891
0.160600 0.220627 0.085862
0.161357 0.191537 0.054028
0.161152 0.159325 0.098730
0.160694 0.195636 0.078274
0.159082 0.165010 0.120175
0.163956 0.178975 0.077200
0.160415 0.197364 0.125149
0.159167 0.186102 0.093075
0.159586 0.195247 0.156795
0.157382 0.166977 0.135228
0.164869 0.182655 0.130573
0.152485 0.169682 0.090009
0.159430 0.230527 0.122864
0.160045 0.155502 0.076522
0.160182 0.211314 0.112388
0.159713 0.175653 0.159577
0.158485 0.146304 0.106810
0.160134 0.182801 0.143975
0.161105 0.159652 0.148033
0.161233 0.206674 0.145519
0.150318 0.227681 0.106947
0.155588 0.173514 0.062990
0.161154 0.176388 0.107883
0.158355 0.191846 0.111507
0.155280 0.212566 0.130059
0.167558 0.205307 0.096384
-0.093409 0.421218 -0.044777
-0.156174 0.420843 0.007593
-0.132214 0.421514 -0.036330
-0.096824 0.423355 0.034443
-0.046976 0.417804 -0.009021
-0.161776 0.418884 -0.016719
-0.046210 0.422064 -0.037208
-0.088153 0.418807 -0.062357
-0.080976 0.420135 -0.024432
-0.070897 0.421017 -0.039099
-0.103422 0.419722 -0.009383
-0.059493 0.419489 -0.057788
-0.114586 0.420647 0.004326
-0.108521 0.421759 -0.033975
-0.063856 0.422302 0.033945
-0.141822 0.417647 0.016152
-0.033354 0.422555 0.011547
-0.154732 0.418981 -0.044550
-0.062034 0.421647 -0.017683
-0.114681 0.419019 -0.053914
-0.094474 0.423856 0.007655
-0.128648 0.421881 0.035559
-0.096471 0.413408 -0.023314
-0.078330 0.420635 0.017808
-0.110578 0.419186 0.020797
-0.076487 0.421790 -0.002049
-0.145146 0.419743 -0.019122
-0.133795 0.419945 -0.064954
-0.056907 0.420720 0.010292
-0.122197 0.419415 -0.018423
-0.133629 0.423128 -0.001579
-0.030010 0.421543 -0.019230
0.156707 -0.320863 -0.182745
0.156169 -0.332384 -0.142974
0.153360 -0.330270 -0.169970
0.157937 -0.307362 -0.132218
0.159531 -0.376824 -0.152416
0.150007 -0.349518 -0.158946
0.157495 -0.309905 -0.176780
0.156095 -0.343178 -0.185988
0.159815 -0.369867 -0.170842
0.158342 -0.334256 -0.180797
0.158521 -0.364661 -0.160270
0.158567 -0.351470 -0.178504
0.159571 -0.328480 -0.157128
0.159263 -0.344827 -0.172991
0.158781 -0.332915 -0.122150
0.157950 -0.361588 -0.144233
0.159004 -0.341920 -0.150933
0.154971 -0.360217 -0.175362
0.157852 -0.297970 -0.154179
0.158207 -0.375382 -0.180371
0.159755 -0.319570 -0.165191
0.158711 -0.354357 -0.117972
0.159102 -0.385267 -0.167296
0.159520 -0.346399 -0.135851
0.159414 -0.370383 -0.131073
0.159595 -0.322517 -0.137882
0.155289 -0.303195 -0.168475
0.156317 -0.351698 -0.183441
0.160131 -0.352676 -0.165221
0.158973 -0.339153 -0.163876
0.157806 -0.314864 -0.150942
0.159397 -0.327496 -0.173837
0.099447 -0.248518 -0.184276
0.084010 -0.274427 -0.184750
0.077955 -0.262374 -0.184462
0.096032 -0.261140 -0.184291
0.123241 -0.301423 -0.184274
0.074663 -0.277354 -0.184474
0.122060 -0.254711 -0.184151
0.097032 -0.286978 -0.184066
0.106603 -0.288137 -0.184850
0.121419 -0.275144 -0.184785
0.090933 -0.294336 -0.184674
0.114457 -0.295934 -0.184171
0.105583 -0.267448 -0.184990
0.115906 -0.284366 -0.184243
0.111404 -0.274628 -0.184063
0.083692 -0.300676 -0.184966
0.129526 -0.265806 -0.184555
0.076230 -0.289924 -0.184153
0.111995 -0.246337 -0.183967
0.094947 -0.306053 -0.184437
0.107814 -0.256830 -0.184420
0.086725 -0.284984 -0.184210
0.108908 -0.307232 -0.184165
0.103708 -0.278957 -0.185065
0.103206 -0.297024 -0.184125
0.116172 -0.264871 -0.184828
0.086216 -0.251508 -0.184383
0.097729 -0.271702 -0.184283
0.124627 -0.288790 -0.184641
0.091417 -0.279565 -0.185025
0.089681 -0.266603 -0.184808
0.132124 -0.280832 -0.184150
-0.193715 0.343203 -0.163975
-0.193655 0.334697 -0.121785
-0.193860 0.336337 -0.143200
-0.194256 0.354536 -0.119111
-0.193918 0.302784 -0.127792
-0.194053 0.318051 -0.133679
-0.194647 0.354135 -0.156654
-0.194377 0.329393 -0.167988
-0.194366 0.307891 -0.146020
-0.194105 0.334622 -0.155287
-0.193942 0.309107 -0.135523
-0.195183 0.323778 -0.158080
-0.194332 0.337501 -0.132490
-0.193878 0.326740 -0.148041
-0.194127 0.330581 -0.111038
-0.194252 0.314577 -0.125582
-0.194435 0.327286 -0.128730
-0.194138 0.315014 -0.153476
-0.194376 0.360308 -0.130994
-0.194036 0.303442 -0.157153
-0.194080 0.348460 -0.138409
-0.194207 0.317399 -0.110907
-0.194072 0.298608 -0.140065
-0.193603 0.323553 -0.119761
-0.194524 0.308246 -0.117866
-0.193736 0.342416 -0.114884
-0.193991 0.359331 -0.144706
-0.193797 0.314140 -0.167103
-0.193405 0.317767 -0.143676
-0.194064 0.327760 -0.137928
-0.194453 0.346811 -0.126795
-0.194476 0.344289 -0.149789
-0.127573 0.079908 -0.190144
-0.146153 0.055658 -0.190744
-0.152945 0.067982 -0.189928
-0.131214 0.068562 -0.189895
-0.100388 0.030449 -0.189791
-0.157915 0.054904 -0.190273
-0.102464 0.073282 -0.188966
-0.130530 0.044907 -0.189369
-0.118824 0.043420 -0.190109
-0.103470 0.055310 -0.189890
-0.135765 0.037619 -0.189869
-0.110062 0.035218 -0.189444
-0.121020 0.063165 -0.189953
-0.109460 0.046715 -0.189984
-0.114533 0.056718 -0.190118
-0.145629 0.031068 -0.190243
-0.094651 0.063837 -0.190263
-0.155236 0.041479 -0.190122
-0.113352 0.080613 -0.189019
-0.132646 0.025569 -0.190380
-0.117817 0.072088 -0.189391
-0.142857 0.045744 -0.190457
-0.116370 0.024747 -0.189955
-0.122513 0.052456 -0.190148
-0.123071 0.033973 -0.190530
-0.109281 0.064945 -0.189823
-0.142052 0.076505 -0.189454
-0.129870 0.059242 -0.189828
-0.099293 0.042840 -0.190334
-0.136317 0.051867 -0.190469
-0.139401 0.064052 -0.189692
-0.090674 0.050277 -0.189676
0.153347 -0.338323 -0.181985
0.156205 -0.354161 -0.176955
0.146194 -0.348706 -0.182791
0.158301 -0.336980 -0.158675
0.158245 -0.390619 -0.176148
0.140160 -0.363999 -0.182830
0.156788 -0.333692 -0.180101
0.149181 -0.366706 -0.182117
0.156991 -0.383700 -0.181135
0.155315 -0.356552 -0.183325
0.155970 -0.378271 -0.181049
0.157084 -0.371475 -0.182373
0.157527 -0.349198 -0.179840
0.155768 -0.365998 -0.181286
0.157741 -0.354607 -0.152549
0.156030 -0.380214 -0.175716
0.157562 -0.355137 -0.174744
0.147249 -0.375213 -0.182870
0.156879 -0.320211 -0.177010
0.155330 -0.389340 -0.183737
0.157141 -0.344418 -0.180965
0.160827 -0.368125 -0.151093
0.157019 -0.399824 -0.181871
0.158841 -0.362205 -0.170053
0.158584 -0.384042 -0.157808
0.157840 -0.345249 -0.170870
0.150670 -0.327251 -0.182564
0.153255 -0.358684 -0.182321
0.157364 -0.370953 -0.177560
0.156011 -0.361081 -0.182298
0.158151 -0.339181 -0.178239
0.158415 -0.358079 -0.180219
-0.050241 -0.003011 -0.189768
-0.076030 -0.041074 -0.191448
-0.086212 -0.021765 -0.189990
-0.054787 -0.019382 -0.190241
-0.014123 -0.081483 -0.189791
-0.092334 -0.043099 -0.190126
-0.017404 -0.012417 -0.189431
-0.054400 -0.058512 -0.190243
-0.040572 -0.061289 -0.190757
-0.018942 -0.041369 -0.190516
-0.061651 -0.070316 -0.190446
-0.029796 -0.071940 -0.190092
-0.042104 -0.031153 -0.190335
-0.026454 -0.056573 -0.190343
-0.031642 -0.040487 -0.190196
-0.076255 -0.079756 -0.190651
-0.006804 -0.029004 -0.190421
-0.087544 -0.062335 -0.189545
-0.031788 -0.000546 -0.189257
-0.056974 -0.087097 -0.189996
-0.037805 -0.015720 -0.189835
-0.071510 -0.057192 -0.190805
-0.035239 -0.089743 -0.189689
-0.042931 -0.047325 -0.190641
-0.043412 -0.075787 -0.190964
-0.025226 -0.026471 -0.190079
-0.071761 -0.008184 -0.189746
-0.053671 -0.036157 -0.190443
-0.013988 -0.062700 -0.190105
-0.062272 -0.047616 -0.190443
-0.066297 -0.027879 -0.189585
-0.004420 -0.050774 -0.190439
0.062362 0.418372 0.097107
-0.007999 0.420032 0.143861
0.017370 0.418935 0.102523
0.062562 0.420871 0.169545
0.115396 0.418467 0.134692
-0.018656 0.418580 0.119945
0.114346 0.418924 0.105650
0.069988 0.417665 0.077963
0.078723 0.419013 0.118352
0.085825 0.419755 0.100367
0.051697 0.418287 0.133280
0.103024 0.417971 0.086568
0.038556 0.419086 0.143686
0.044915 0.419921 0.107424
0.093445 0.420354 0.163750
0.011235 0.419477 0.156511
0.127760 0.420199 0.152506
-0.005791 0.419349 0.094079
0.097706 0.420507 0.126448
0.038791 0.418690 0.087027
0.063135 0.420534 0.145590
0.031866 0.419945 0.165849
0.064408 0.420483 0.116275
0.079772 0.419241 0.156295
0.044471 0.419520 0.155835
0.082301 0.419501 0.138823
0.005682 0.418886 0.122555
0.020635 0.419715 0.075393
0.102021 0.420196 0.147988
0.031609 0.418384 0.122464
0.019204 0.420779 0.139473
0.134899 0.420194 0.120863
0.131843 -0.250380 -0.182438
0.116046 -0.286097 -0.184980
0.104657 -0.268049 -0.183318
0.132783 -0.265229 -0.174358
0.147053 -0.332753 -0.182168
0.100406 -0.293091 -0.184057
0.148306 -0.256973 -0.181309
0.131349 -0.308653 -0.182697
0.136575 -0.316398 -0.183784
0.148411 -0.286672 -0.184097
0.124639 -0.319539 -0.184093
0.143532 -0.318997 -0.183419
0.138671 -0.278065 -0.184963
0.144837 -0.303153 -0.182990
0.144555 -0.289214 -0.171471
0.114426 -0.330501 -0.185630
0.152130 -0.276302 -0.179802
0.107514 -0.311782 -0.182885
0.141108 -0.243537 -0.182669
0.128881 -0.337920 -0.182806
0.139397 -0.262856 -0.183453
0.123298 -0.303601 -0.174636
0.140212 -0.344757 -0.183581
0.136911 -0.296385 -0.183854
0.138204 -0.324593 -0.174748
0.145558 -0.273009 -0.182580
0.112411 -0.251159 -0.183326
0.130175 -0.282410 -0.183105
0.149226 -0.311223 -0.180243
0.123636 -0.296452 -0.184481
0.124382 -0.271213 -0.184839
0.150719 -0.296520 -0.181244
-0.193532 0.256877 -0.187589
-0.194485 0.246920 -0.155905
-0.194552 0.246031 -0.174059
-0.194703 0.270644 -0.153446
-0.194638 0.201340 -0.160808
-0.194518 0.224802 -0.164291
-0.194468 0.268985 -0.182898
-0.194309 0.236637 -0.188757
-0.194024 0.207956 -0.174496
-0.193628 0.243319 -0.182661
-0.194368 0.213347 -0.166245
-0.194033 0.229404 -0.182320
-0.193710 0.251177 -0.165869
-0.193677 0.233424 -0.176920
-0.193320 0.240707 -0.146782
-0.194671 0.218196 -0.157250
-0.194141 0.239113 -0.161150
-0.194608 0.216984 -0.180240
-0.195329 0.279582 -0.163473
-0.193915 0.202986 -0.183608
-0.194429 0.262196 -0.171327
-0.193997 0.223732 -0.147462
-0.193877 0.193113 -0.171379
-0.193829 0.232149 -0.154156
-0.194350 0.208406 -0.151916
-0.193792 0.256907 -0.150194
-0.195097 0.275495 -0.174344
-0.193934 0.221084 -0.188961
-0.193416 0.223224 -0.171577
-0.194093 0.236724 -0.169508
-0.194373 0.261778 -0.161190
-0.194539 0.255048 -0.178852
0.053591 -0.171388 -0.187380
0.037363 -0.195743 -0.187841
0.031286 -0.184149 -0.187442
0.050067 -0.183408 -0.187884
0.079731 -0.220600 -0.187302
0.027325 -0.197848 -0.187601
0.077789 -0.177745 -0.187075
0.051311 -0.206982 -0.187071
0.062009 -0.207873 -0.187623
0.076974 -0.196260 -0.187601
0.045418 -0.213960 -0.187507
0.070303 -0.215964 -0.187204
0.059892 -0.188927 -0.187731
0.071375 -0.204778 -0.187291
0.066309 -0.195438 -0.187826
0.037663 -0.220044 -0.187702
0.085350 -0.187744 -0.187915
0.029178 -0.209956 -0.187461
0.067044 -0.170284 -0.187000
0.049531 -0.225149 -0.187497
0.062547 -0.179292 -0.187313
0.040010 -0.205444 -0.187905
0.064328 -0.225656 -0.187164
0.058372 -0.199522 -0.187704
0.058001 -0.216734 -0.187833
0.071370 -0.186609 -0.187667
0.040279 -0.174817 -0.187207
0.051975 -0.192928 -0.187266
0.080672 -0.208798 -0.187864
0.045602 -0.200009 -0.187727
0.043356 -0.188358 -0.187410
0.089279 -0.201675 -0.187496
0.009831 -0.106868 -0.189112
-0.006017 -0.131648 -0.189172
-0.012192 -0.119502 -0.189091
0.006640 -0.118339 -0.189333
0.033062 -0.156605 -0.188532
-0.016025 -0.134217 -0.189200
0.031570 -0.112798 -0.188505
0.007587 -0.143298 -0.188770
0.017050 -0.143820 -0.188972
0.030665 -0.131935 -0.188706
0.002473 -0.149871 -0.188820
0.024629 -0.151967 -0.188387
0.015633 -0.124449 -0.188989
0.025884 -0.141199 -0.188678
0.021019 -0.131352 -0.189343
-0.005132 -0.155924 -0.188906
0.038305 -0.123347 -0.189237
-0.013595 -0.146517 -0.189113
0.021441 -0.104729 -0.188386
0.006277 -0.160750 -0.188769
0.018258 -0.114793 -0.188570
-0.002977 -0.141469 -0.189684
0.019699 -0.161454 -0.188658
0.013955 -0.135899 -0.188747
0.013747 -0.152856 -0.189481
0.026077 -0.121747 -0.189055
-0.003401 -0.109789 -0.188712
0.008463 -0.128769 -0.188788
0.034033 -0.145414 -0.189018
0.002675 -0.135911 -0.189195
0.000132 -0.123640 -0.188704
0.041247 -0.137771 -0.188945
0.026802 -0.097181 -0.188005
-0.002993 -0.139970 -0.189401
-0.015609 -0.118750 -0.187664
0.022956 -0.116195 -0.183241
0.068970 -0.187296 -0.188052
-0.023610 -0.144098 -0.188280
0.064926 -0.107991 -0.187647
0.024657 -0.162208 -0.189189
0.039996 -0.166814 -0.189541
0.063328 -0.141246 -0.189404
0.015438 -0.173927 -0.189699
0.052560 -0.175179 -0.188494
0.037208 -0.130488 -0.189729
0.054190 -0.157019 -0.189382
0.050619 -0.141010 -0.181461
-0.002622 -0.186774 -0.189588
0.076831 -0.127509 -0.188259
-0.014473 -0.165263 -0.187806
0.049778 -0.094443 -0.186845
0.020947 -0.194433 -0.188089
0.041023 -0.112016 -0.188629
0.003564 -0.159202 -0.182685
0.046503 -0.196685 -0.188164
0.036006 -0.149374 -0.189717
0.036593 -0.181220 -0.184441
0.055470 -0.124572 -0.188618
-0.001372 -0.101562 -0.187307
0.023502 -0.135858 -0.189379
0.068150 -0.165014 -0.188119
0.012757 -0.149568 -0.189247
0.010465 -0.124556 -0.188503
0.078567 -0.152509 -0.188186
0.095761 -0.209894 -0.185686
0.078448 -0.236252 -0.186120
0.072057 -0.224096 -0.185688
0.091991 -0.222926 -0.186139
0.124073 -0.263457 -0.185813
0.067991 -0.238713 -0.185863
0.122085 -0.216829 -0.185572
0.093286 -0.248806 -0.185348
0.104961 -0.249816 -0.186122
0.121438 -0.236962 -0.186171
0.086493 -0.256300 -0.185939
0.113851 -0.258381 -0.185700
0.102583 -0.229029 -0.186301
0.115183 -0.246091 -0.185666
0.109778 -0.236183 -0.186304
0.078264 -0.262931 -0.186288
0.130277 -0.227832 -0.186223
0.069463 -0.251830 -0.185652
0.110635 -0.208927 -0.185391
0.090899 -0.268394 -0.185907
0.105572 -0.218504 -0.185840
0.081028 -0.247039 -0.186051
0.107320 -0.268925 -0.185691
0.101067 -0.240581 -0.186295
0.100360 -0.259171 -0.186181
0.115061 -0.226549 -0.186190
0.081501 -0.213620 -0.185684
0.093711 -0.233421 -0.185646
0.125115 -0.250487 -0.186443
0.086891 -0.241193 -0.186227
0.084658 -0.228352 -0.186007
0.134050 -0.242868 -0.185777
0.028934 0.420416 0.046528
-0.039272 0.420020 0.097771
-0.011244 0.420163 0.054235
0.027953 0.421737 0.125576
0.078913 0.417850 0.083806
-0.047662 0.417936 0.072902
0.077747 0.419866 0.054466
0.036506 0.418772 0.026332
0.043671 0.419250 0.067951
0.050612 0.420207 0.049602
0.019029 0.419294 0.084322
0.067750 0.418896 0.034106
0.006613 0.419537 0.096773
0.011198 0.420322 0.056644
0.057950 0.420999 0.119938
-0.021587 0.418726 0.110422
0.090238 0.420096 0.103369
-0.036934 0.419133 0.045395
0.061400 0.421803 0.076332
0.007427 0.419138 0.036531
0.027833 0.422041 0.100934
-0.002738 0.420581 0.124033
0.028145 0.418416 0.066691
0.044887 0.419651 0.110202
0.009673 0.419077 0.111259
0.046138 0.421066 0.090743
-0.024787 0.419418 0.074363
-0.011851 0.420266 0.024693
0.065264 0.420562 0.100043
-0.000465 0.418823 0.074063
-0.012491 0.421235 0.091541
0.098439 0.420318 0.069353
-0.193595 0.329545 -0.170632
-0.193692 0.319645 -0.120993
-0.193785 0.319954 -0.147739
-0.194101 0.343556 -0.116933
-0.194035 0.274816 -0.128739
-0.193906 0.296652 -0.135622
-0.193932 0.342386 -0.162986
-0.194894 0.311870 -0.174522
-0.193940 0.282061 -0.150995
-0.193531 0.318331 -0.161305
-0.193955 0.284470 -0.137854
-0.194596 0.305200 -0.164960
-0.193697 0.322815 -0.135265
-0.193796 0.306686 -0.153414
-0.193541 0.313713 -0.105843
-0.194197 0.291756 -0.123568
-0.194180 0.309431 -0.128748
-0.194141 0.291983 -0.160294
-0.194553 0.348893 -0.133828
-0.194115 0.276442 -0.164278
-0.193727 0.335447 -0.142030
-0.193906 0.296871 -0.104889
-0.193862 0.268369 -0.145590
-0.193853 0.305035 -0.117276
-0.194228 0.282773 -0.114802
-0.193570 0.328713 -0.112028
-0.193838 0.348369 -0.148492
-0.193865 0.292676 -0.174854
-0.193182 0.295678 -0.146513
-0.193744 0.308818 -0.141720
-0.193752 0.333203 -0.127516
-0.194885 0.331357 -0.156103
0.156370 0.078101 -0.019856
0.147885 0.063590 0.055852
0.148128 0.069715 0.005479
0.155391 0.089865 0.063317
0.164632 0.019645 0.035932
0.129636 0.049013 0.032687
0.161355 0.087517 -0.002626
0.159812 0.058413 -0.034235
0.160565 0.028086 0.009093
0.159592 0.063425 -0.011260
0.157815 0.033605 0.030018
0.165351 0.045582 -0.013730
0.159422 0.064805 0.036755
0.158172 0.054415 0.002650
0.158392 0.064270 0.073902
0.154749 0.033698 0.047303
0.169059 0.051662 0.045604
0.149283 0.038554 0.001179
0.158925 0.098798 0.033025
0.158089 0.024304 -0.012692
0.158880 0.078753 0.023528
0.157521 0.044647 0.077750
0.156778 0.014776 0.017545
0.158883 0.049900 0.058156
0.159991 0.027623 0.063299
0.160167 0.075227 0.056964
0.148492 0.095371 0.016858
0.152743 0.043936 -0.024908
0.160860 0.045562 0.019346
0.156189 0.059969 0.022146
0.153452 0.081484 0.041955
0.174959 0.069194 0.007816
-0.194357 0.412086 -0.160967
-0.193966 0.404667 -0.105624
-0.193982 0.406419 -0.133931
-0.194499 0.423932 -0.099633
-0.193910 0.372748 -0.113800
-0.194209 0.387199 -0.121881
-0.194854 0.422833 -0.152208
-0.195122 0.400508 -0.165695
-0.194188 0.378085 -0.138383
-0.194247 0.405142 -0.149656
-0.193862 0.378317 -0.124951
-0.195739 0.394738 -0.154832
-0.194395 0.407218 -0.120190
-0.194164 0.396223 -0.141101
-0.194187 0.402099 -0.089972
-0.194375 0.384671 -0.109703
-0.193858 0.397068 -0.114443
-0.193951 0.385687 -0.147002
-0.193982 0.425971 -0.119905
-0.193893 0.374379 -0.151965
-0.194113 0.417438 -0.126889
-0.194407 0.387225 -0.088427
-0.193839 0.369570 -0.130505
-0.193948 0.394042 -0.102085
-0.194274 0.378914 -0.099259
-0.193845 0.412506 -0.096589
-0.194106 0.426047 -0.135358
-0.194171 0.382607 -0.164794
-0.193386 0.387377 -0.134909
-0.194293 0.397583 -0.127088
-0.194412 0.415506 -0.111372
-0.194787 0.415166 -0.142982
-0.082379 0.087121 -0.189377
-0.107650 0.049379 -0.190746
-0.117041 0.068121 -0.190081
-0.086995 0.071094 -0.189779
-0.047402 0.010613 -0.189465
-0.122745 0.046441 -0.190235
-0.050328 0.078394 -0.188928
-0.086030 0.031706 -0.189857
-0.072978 0.029139 -0.190564
-0.052053 0.049004 -0.189662
-0.093185 0.020737 -0.190458
-0.062910 0.018782 -0.189711
-0.074780 0.059200 -0.190039
-0.059440 0.034070 -0.189975
-0.064952 0.050043 -0.189506
-0.107343 0.011976 -0.190617
-0.040135 0.061143 -0.189806
-0.118052 0.027902 -0.189650
-0.064702 0.090514 -0.188728
-0.088954 0.005103 -0.190109
-0.069990 0.074439 -0.189524
-0.103036 0.033339 -0.190604
-0.067843 0.003185 -0.189930
-0.075537 0.042742 -0.190246
-0.076098 0.016073 -0.190733
-0.057848 0.064133 -0.189712
-0.103383 0.082148 -0.189387
-0.085600 0.053676 -0.190044
-0.047660 0.027987 -0.189633
-0.094020 0.042578 -0.190288
-0.098026 0.062520 -0.189305
-0.038047 0.039495 -0.189997
-0.172818 0.215920 -0.187925
-0.186544 0.185624 -0.188510
-0.191820 0.198894 -0.187976
-0.176089 0.202780 -0.188551
-0.152667 0.147858 -0.188283
-0.193006 0.179923 -0.188258
-0.152704 0.209801 -0.187478
-0.176246 0.168648 -0.187420
-0.167062 0.165684 -0.188258
-0.153570 0.184184 -0.187977
-0.180274 0.158157 -0.188434
-0.159480 0.156902 -0.187812
-0.166951 0.194190 -0.188356
-0.158850 0.171573 -0.188381
-0.163293 0.183747 -0.188520
-0.187031 0.151291 -0.188602
-0.146364 0.194504 -0.188168
-0.192158 0.164055 -0.188262
-0.162716 0.220790 -0.187701
-0.176882 0.143116 -0.188527
-0.164425 0.206569 -0.187717
-0.183936 0.171245 -0.188362
-0.165746 0.138880 -0.188336
-0.169589 0.177914 -0.188761
-0.169982 0.153577 -0.188959
-0.157549 0.196633 -0.188522
-0.185089 0.213683 -0.187794
-0.174228 0.188675 -0.188121
-0.150353 0.165656 -0.188664
-0.179509 0.178971 -0.188766
-0.181210 0.195660 -0.188031
-0.144105 0.177525 -0.187962
0.156413 -0.133262 -0.154030
0.145584 -0.151051 -0.079478
0.147188 -0.144230 -0.129764
0.156280 -0.121789 -0.070655
0.164782 -0.190194 -0.099529
0.123107 -0.163712 -0.105505
0.161142 -0.125552 -0.137098
0.159077 -0.154576 -0.167131
0.161250 -0.181761 -0.125533
0.159712 -0.149540 -0.145752
0.157844 -0.177716 -0.105413
0.164690 -0.167278 -0.147715
0.159116 -0.147636 -0.098861
0.158904 -0.158694 -0.132617
0.159309 -0.147500 -0.058889
0.154446 -0.177284 -0.087274
0.169850 -0.161920 -0.090592
0.145317 -0.173907 -0.133729
0.158801 -0.112303 -0.101995
0.157405 -0.185740 -0.146962
0.158350 -0.132902 -0.112062
0.157880 -0.168904 -0.055073
0.156306 -0.196095 -0.117608
0.159518 -0.163001 -0.076171
0.159822 -0.184028 -0.072197
0.161251 -0.137824 -0.079705
0.146310 -0.116206 -0.118731
0.152344 -0.169159 -0.158735
0.161942 -0.165764 -0.115118
0.155403 -0.153923 -0.113170
0.153263 -0.130366 -0.093703
0.173983 -0.144593 -0.127563
0.149184 -0.276331 -0.184140
0.142986 -0.303185 -0.184749
0.136862 -0.291332 -0.184278
0.151027 -0.283349 -0.177630
0.154755 -0.341674 -0.183034
0.134990 -0.311185 -0.184020
0.155060 -0.275694 -0.182048
0.149088 -0.318915 -0.183810
0.151130 -0.328834 -0.184904
0.153489 -0.302766 -0.184853
0.146381 -0.328134 -0.184642
0.153817 -0.326952 -0.183876
0.152241 -0.295130 -0.184793
0.152918 -0.316610 -0.184052
0.154429 -0.305043 -0.175673
0.142176 -0.335006 -0.184855
0.156213 -0.295456 -0.179270
0.138049 -0.323858 -0.183481
0.151930 -0.260338 -0.183282
0.148705 -0.342967 -0.184838
0.152369 -0.285362 -0.184232
0.149815 -0.316596 -0.177171
0.152083 -0.353164 -0.184472
0.152398 -0.310461 -0.183867
0.153408 -0.333973 -0.177581
0.155066 -0.291359 -0.182586
0.139989 -0.270043 -0.184332
0.149061 -0.301323 -0.184291
0.154944 -0.322055 -0.180645
0.145998 -0.310124 -0.185512
0.146482 -0.289280 -0.185115
0.155793 -0.309286 -0.181784
0.155617 -0.054445 -0.098004
0.146542 -0.070949 -0.021568
0.146470 -0.064156 -0.072642
0.155020 -0.042683 -0.012875
0.165751 -0.113750 -0.042262
0.130618 -0.085589 -0.045268
0.161783 -0.046080 -0.080152
0.158901 -0.076380 -0.111839
0.160781 -0.105416 -0.068746
0.159282 -0.070405 -0.089641
0.156803 -0.100330 -0.048291
0.165763 -0.088861 -0.092204
0.158592 -0.068926 -0.041302
0.157745 -0.079926 -0.075831
0.158333 -0.068794 -0.001083
0.153210 -0.100591 -0.030088
0.171074 -0.082031 -0.030814
0.147111 -0.096076 -0.076164
0.158622 -0.033529 -0.045221
0.156882 -0.109378 -0.090581
0.157789 -0.054257 -0.054818
0.156200 -0.089997 0.002361
0.155795 -0.119422 -0.059876
0.158502 -0.084924 -0.018351
0.159536 -0.106859 -0.013476
0.160215 -0.057797 -0.021420
0.147451 -0.037167 -0.061745
0.151446 -0.090024 -0.102140
0.161313 -0.087960 -0.058127
0.154489 -0.074559 -0.056035
0.151915 -0.051419 -0.035870
0.177352 -0.066191 -0.070057
-0.075278 0.053937 -0.190590
-0.092130 0.029382 -0.190974
-0.098693 0.041677 -0.190538
-0.078603 0.042662 -0.190366
-0.050214 0.003835 -0.190085
-0.103296 0.027652 -0.190808
-0.052146 0.047734 -0.189577
-0.077566 0.018010 -0.190180
-0.067507 0.016808 -0.190438
-0.053041 0.029111 -0.190288
-0.082752 0.011366 -0.190299
-0.059069 0.008902 -0.189910
-0.069135 0.036672 -0.190489
-0.058339 0.020295 -0.190224
-0.063399 0.029993 -0.190264
-0.091623 0.004622 -0.190547
-0.044998 0.037647 -0.190760
-0.100361 0.014829 -0.190661
-0.062673 0.055441 -0.189673
-0.079617 -0.000545 -0.190533
-0.066178 0.045920 -0.189814
-0.088935 0.019365 -0.191043
-0.064928 -0.001598 -0.190420
-0.070947 0.025717 -0.190457
-0.071029 0.007572 -0.190660
-0.058214 0.039047 -0.190383
-0.088841 0.050958 -0.190013
-0.076904 0.032694 -0.190183
-0.049302 0.016276 -0.190619
-0.083196 0.025506 -0.190818
-0.085955 0.037773 -0.190094
-0.041262 0.023429 -0.190175
0.004580 -0.044697 -0.189784
-0.017802 -0.078627 -0.189951
-0.027335 -0.062523 -0.189871
0.000708 -0.060270 -0.185685
0.036861 -0.114552 -0.189584
-0.032473 -0.082464 -0.190215
0.035383 -0.052795 -0.189478
0.002103 -0.096185 -0.189894
0.013617 -0.099330 -0.190099
0.033901 -0.079453 -0.190060
-0.005933 -0.105171 -0.190105
0.024633 -0.106408 -0.189638
0.012803 -0.070246 -0.190365
0.025499 -0.091466 -0.189837
0.022249 -0.079256 -0.184124
-0.018577 -0.114090 -0.190288
0.044483 -0.067542 -0.190136
-0.027438 -0.098886 -0.189559
0.022177 -0.042177 -0.189406
-0.001609 -0.120847 -0.189922
0.015104 -0.056092 -0.189530
-0.013235 -0.093672 -0.185376
0.017633 -0.121284 -0.189978
0.010696 -0.085421 -0.190288
0.010393 -0.109900 -0.185807
0.026971 -0.065590 -0.190177
-0.015685 -0.048576 -0.189540
0.001261 -0.075088 -0.189828
0.037302 -0.097485 -0.189137
-0.007115 -0.085834 -0.190250
-0.009068 -0.066516 -0.189769
0.047296 -0.087816 -0.189802
0.093858 -0.181301 -0.186153
0.076613 -0.207424 -0.186603
0.069508 -0.195326 -0.186339
0.090847 -0.194667 -0.184173
0.123021 -0.235320 -0.186221
0.064982 -0.210049 -0.186321
0.120417 -0.188645 -0.185757
0.092415 -0.221017 -0.186011
0.103175 -0.222582 -0.186597
0.119818 -0.208812 -0.186698
0.084969 -0.227897 -0.186450
0.112443 -0.229560 -0.186157
0.101153 -0.201101 -0.187018
0.112942 -0.217310 -0.185866
0.109246 -0.208030 -0.183276
0.075845 -0.234763 -0.187151
0.128810 -0.199460 -0.186394
0.067755 -0.223059 -0.185841
0.109506 -0.180317 -0.185977
0.089045 -0.240360 -0.186309
0.103299 -0.190283 -0.186287
0.079792 -0.218745 -0.183817
0.105666 -0.240565 -0.186262
0.099474 -0.212014 -0.187130
0.099347 -0.230776 -0.183793
0.113453 -0.198464 -0.186778
0.078772 -0.184872 -0.186379
0.091667 -0.205042 -0.186097
0.123233 -0.221769 -0.186198
0.084467 -0.213154 -0.186746
0.083062 -0.199173 -0.186624
0.132608 -0.214867 -0.185861
-0.189260 0.279778 -0.187569
-0.194658 0.248742 -0.183450
-0.192767 0.256442 -0.186286
-0.193739 0.268990 -0.186615
-0.172392 0.198761 -0.188032
-0.192162 0.231776 -0.185034
-0.173411 0.277084 -0.187127
-0.191752 0.224925 -0.186686
-0.184065 0.217882 -0.187742
-0.175138 0.246604 -0.187200
-0.192462 0.213492 -0.186617
-0.176060 0.212168 -0.187025
-0.184836 0.256489 -0.188154
-0.179146 0.231858 -0.188258
-0.187036 0.242419 -0.187934
-0.194155 0.204604 -0.185388
-0.167898 0.256406 -0.187746
-0.193150 0.219628 -0.187524
-0.183560 0.292480 -0.187656
-0.192045 0.197201 -0.187690
-0.183246 0.269270 -0.187659
-0.193052 0.227339 -0.185223
-0.184941 0.189479 -0.188072
-0.189502 0.234838 -0.187264
-0.188112 0.207000 -0.187917
-0.178436 0.261564 -0.188746
-0.194070 0.283341 -0.185767
-0.189909 0.249666 -0.187642
-0.171414 0.224679 -0.188546
-0.193066 0.239838 -0.186966
-0.192960 0.261656 -0.186922
-0.166278 0.234334 -0.187058
-0.116990 0.126707 -0.189794
-0.134019 0.104007 -0.190386
-0.140317 0.115540 -0.189828
-0.120450 0.115941 -0.189325
-0.091882 0.080835 -0.189586
-0.144882 0.102809 -0.190083
-0.094007 0.120821 -0.188776
-0.119515 0.093784 -0.189299
-0.109044 0.092578 -0.189858
-0.094850 0.103630 -0.189609
-0.124506 0.087511 -0.189764
-0.101006 0.085292 -0.189187
-0.110944 0.110821 -0.189759
-0.100355 0.095860 -0.189670
-0.105187 0.104860 -0.189218
-0.133555 0.081222 -0.190058
-0.086584 0.111794 -0.190065
-0.142143 0.090851 -0.190002
-0.104103 0.127664 -0.188810
-0.121496 0.076419 -0.190106
-0.108132 0.119357 -0.189076
-0.130973 0.094751 -0.190060
-0.106701 0.075742 -0.189858
-0.112477 0.100807 -0.189912
-0.112907 0.084103 -0.189877
-0.100149 0.112798 -0.189551
-0.130408 0.123748 -0.189293
-0.118888 0.107121 -0.189438
-0.091127 0.092162 -0.189933
-0.125179 0.100270 -0.190205
-0.127681 0.111771 -0.189435
-0.082837 0.098751 -0.189466
-0.045169 0.014400 -0.190531
-0.063065 -0.011443 -0.190949
-0.069735 0.001224 -0.190459
-0.048781 0.002359 -0.190416
-0.018356 -0.037594 -0.190137
-0.074536 -0.013263 -0.190675
-0.020333 0.007699 -0.189608
-0.047656 -0.023308 -0.190156
-0.036681 -0.024556 -0.190412
-0.021231 -0.011773 -0.190311
-0.053387 -0.030327 -0.190213
-0.027831 -0.032722 -0.189933
-0.038586 -0.003833 -0.190438
-0.027031 -0.020966 -0.190232
-0.032240 -0.010862 -0.190391
-0.062579 -0.037076 -0.190465
-0.012762 -0.002783 -0.190763
-0.071764 -0.026532 -0.190580
-0.031516 0.015805 -0.189717
-0.049723 -0.042378 -0.190620
-0.035549 0.005972 -0.189888
-0.059758 -0.021901 -0.190856
-0.034239 -0.043111 -0.190320
-0.040488 -0.015320 -0.190496
-0.040663 -0.033939 -0.190636
-0.026856 -0.001401 -0.190384
-0.059593 0.011070 -0.189919
-0.047017 -0.008157 -0.190178
-0.017359 -0.025051 -0.190688
-0.053701 -0.015584 -0.190695
-0.056586 -0.002860 -0.190042
-0.008724 -0.017564 -0.190187
0.155652 -0.192928 -0.184260
0.150316 -0.211377 -0.129308
0.147677 -0.205615 -0.164587
0.155606 -0.180123 -0.119483
0.163310 -0.257323 -0.143519
0.144330 -0.229081 -0.144957
0.159890 -0.182912 -0.172381
0.157920 -0.221791 -0.191766
0.158679 -0.250584 -0.163712
0.158122 -0.210976 -0.179762
0.155080 -0.243359 -0.149916
0.162454 -0.232777 -0.179193
0.157127 -0.207897 -0.146035
0.157031 -0.223228 -0.168803
0.157701 -0.210378 -0.107576
0.152376 -0.244018 -0.134413
0.167009 -0.219866 -0.136104
0.150092 -0.239894 -0.166604
0.157244 -0.168802 -0.145616
0.156083 -0.254133 -0.179208
0.157018 -0.193778 -0.156922
0.155125 -0.234253 -0.106183
