-0.231560 -0.366683 0.212581
-0.210300 -0.385120 0.215365
-0.205127 -0.378812 0.197534
-0.183799 -0.379253 0.212642
-0.219653 -0.316988 0.205759
-0.216322 -0.287021 0.212046
-0.221951 -0.293992 0.197075
-0.181737 -0.347904 0.202612
-0.214821 -0.254536 0.212874
-0.125306 -0.380131 0.212174
-0.212232 -0.214742 0.207073
-0.202317 -0.221556 0.206563
-0.084992 -0.381064 0.211372
-0.195045 -0.180829 0.206248
-0.191406 -0.140199 0.212718
-0.049597 -0.372407 0.208740
-0.193352 -0.142996 0.188554
-0.180885 -0.100470 0.205516
-0.007954 -0.372255 0.207438
-0.177592 -0.072452 0.211806
-0.183491 -0.100909 0.188908
0.033600 -0.380087 0.211985
-0.169150 -0.021415 0.212291
-0.160200 -0.056426 0.197612
-0.186465 -0.036270 0.180554
-0.175823 -0.004999 0.189371
0.086434 -0.381565 0.210657
-0.163467 -0.005920 0.184618
-0.158623 0.021539 0.192041
-0.138998 -0.013581 0.186219
-0.146793 -0.025251 0.173952
-0.165479 -0.018047 0.160488
-0.163129 -0.018472 0.154174
-0.176212 0.047267 0.173826
0.136163 -0.373091 0.210138
-0.121995 -0.014757 0.176702
-0.152160 0.052959 0.182540
-0.130897 0.012282 0.178322
-0.175556 0.084127 0.174616
-0.193058 0.124869 0.172001
-0.102809 -0.027268 0.171113
-0.150842 0.095712 0.187843
-0.114341 -0.013535 0.165940
-0.103409 -0.001444 0.177708
-0.141486 0.037857 0.165732
-0.172626 0.015294 0.126666
-0.155367 0.038137 0.148279
-0.150650 0.123034 0.187961
-0.104170 0.016061 0.175020
-0.076911 -0.001861 0.186298
-0.154122 0.116389 0.179506
-0.159768 0.004029 0.123402
-0.148261 0.081001 0.166795
-0.072729 -0.013256 0.178362
-0.189085 0.192212 0.167714
-0.120915 -0.013950 0.124021
0.197797 -0.359079 0.196829
-0.036920 -0.005427 0.187277
-0.170475 -0.008109 0.082375
-0.033745 -0.014750 0.181281
-0.149355 0.070624 0.133283
-0.169728 0.191033 0.169079
-0.077280 -0.017313 0.143862
-0.194765 0.271283 0.181436
-0.155979 0.035044 0.104408
-0.153274 0.210115 0.181852
-0.148211 0.167921 0.166827
-0.058718 0.007299 0.161328
0.221556 -0.379737 0.185603
-0.130570 0.193790 0.186249
-0.165810 0.258400 0.187697
-0.046533 -0.009283 0.158261
-0.146239 0.129985 0.144853
-0.024799 -0.005437 0.174047
-0.150391 0.063536 0.108298
-0.126117 -0.014279 0.090853
-0.111276 0.014091 0.114462
-0.002613 -0.005302 0.185652
-0.157462 -0.033772 0.054826
-0.146916 0.095424 0.120482
-0.174586 0.284562 0.182324
0.236187 -0.306256 0.215209
-0.195220 0.166245 0.109523
-0.149846 0.043561 0.088459
-0.195474 0.330907 0.178909
-0.011095 -0.003468 0.168332
0.007770 0.009037 0.185553
-0.157159 0.233281 0.161128
0.237559 -0.349626 0.184826
0.022804 -0.001733 0.187164
-0.049740 -0.009487 0.128161
-0.185125 0.338969 0.180596
-0.171088 0.293964 0.170841
-0.198904 0.234206 0.122963
-0.147795 0.163652 0.129540
-0.195346 0.316812 0.157835
-0.163285 0.262838 0.157227
0.032528 -0.009878 0.180273
-0.146199 0.132643 0.111215
-0.183901 0.007442 0.024597
0.231709 -0.300819 0.187212
-0.153860 0.044364 0.060158
-0.206300 0.378904 0.167896
-0.228854 -0.376443 -0.201505
-0.153597 0.212802 0.130437
-0.058439 0.023821 0.116600
0.059788 -0.015957 0.184560
-0.147696 0.085550 0.075047
0.054384 -0.001695 0.185608
0.021249 0.017732 0.169300
-0.190109 0.352619 0.159083
-0.032894 0.009683 0.124383
-0.146108 0.113893 0.086379
-0.179872 0.323502 0.151388
-0.076624 -0.025348 0.071650
-0.125253 0.031774 0.060686
-0.211042 0.204465 0.072568
-0.215499 -0.360029 -0.198523
-0.161404 0.254639 0.130027
-0.197352 -0.384942 -0.199130
0.046947 0.009019 0.173841
-0.228960 -0.336053 -0.201604
-0.196084 0.343874 0.139715
0.231709 -0.250927 0.187212
-0.167176 0.081552 0.044519
-0.187676 0.283262 0.119206
-0.150976 0.194825 0.107891
-0.147678 0.162891 0.095310
-0.155541 0.036525 0.032375
-0.030784 -0.013941 0.101760
0.008949 0.023381 0.148398
-0.137292 -0.014986 0.019591
-0.191262 -0.378382 -0.199000
0.236401 -0.238698 0.190367
0.082807 0.001657 0.186916
-0.170840 0.293274 0.128590
0.076114 -0.006990 0.174108
-0.055409 -0.009847 0.074951
-0.146152 0.135817 0.071048
-0.149874 0.066216 0.036741
0.014623 -0.005451 0.127027
0.019639 -0.016910 0.125110
-0.214064 0.377755 0.124883
-0.157053 0.233195 0.103661
0.237559 -0.220893 0.184826
-0.186362 0.342729 0.123224
-0.141267 -0.015237 -0.005756
-0.075487 0.013099 0.056132
0.098541 0.001739 0.179137
-0.164957 -0.379055 -0.201786
-0.173258 -0.024919 -0.037639
0.228683 -0.188452 0.185102
-0.153759 0.214349 0.085935
-0.077249 -0.000555 0.045040
-0.128727 -0.009060 0.001031
-0.220616 0.347895 0.090168
0.231709 -0.180491 0.187212
-0.146751 0.096102 0.033792
0.113870 0.008087 0.187213
0.074260 -0.001708 0.153725
-0.215144 -0.283640 -0.202381
-0.163606 0.264624 0.094089
-0.150329 0.062933 0.009180
-0.149500 0.182967 0.063399
-0.180142 0.324603 0.102700
-0.167270 0.032780 -0.018854
-0.181510 0.164706 0.029465
0.090956 0.022743 0.167339
0.128097 -0.005993 0.181257
0.129949 0.029646 0.198503
0.012799 -0.005567 0.096916
-0.146985 0.154518 0.049583
-0.198913 0.334045 0.086655
-0.059640 -0.010115 0.035235
-0.170580 0.292548 0.084123
-0.173384 -0.327232 -0.209925
-0.094654 0.023504 0.018148
-0.218368 0.375104 0.081842
-0.155205 0.037662 -0.022922
-0.194248 0.363178 0.093095
-0.146871 0.093270 0.006419
0.073748 -0.001743 0.125984
0.243919 -0.140377 0.184797
-0.146074 0.135277 0.023515
-0.127964 -0.372460 -0.205493
-0.161612 0.256121 0.064854
0.237559 -0.130195 0.184826
-0.148555 -0.015698 -0.052223
-0.184791 0.338461 0.079235
0.114162 -0.012886 0.143892
-0.207073 -0.227395 -0.201585
0.041701 0.029170 0.109354
-0.187516 0.284628 0.051494
-0.151945 0.202735 0.040497
0.158542 0.014078 0.184134
0.127617 0.001638 0.156069
0.011168 -0.019765 0.060189
0.231709 -0.092447 0.187212
0.010894 -0.005689 0.065485
0.175592 -0.015527 0.180013
-0.168148 0.283403 0.060067
0.143088 -0.004842 0.161040
0.169310 0.009201 0.186029
0.040372 -0.000023 0.087665
0.075072 0.010436 0.116544
-0.099022 -0.380371 -0.202536
0.209240 -0.044886 0.186467
-0.148529 0.174371 0.021582
-0.190834 -0.267874 -0.222198
-0.147907 0.081611 -0.022588
-0.177100 0.315140 0.058773
-0.140971 -0.030733 -0.070982
-0.204993 -0.215714 -0.210166
-0.150687 0.060105 -0.036458
-0.188925 0.104039 -0.047270
0.231709 -0.060164 0.187212
0.230892 -0.080773 0.175218
-0.157189 0.234585 0.031105
-0.204675 0.242280 -0.004114
-0.064768 -0.010441 -0.012892
-0.145936 0.120685 -0.015251
-0.199780 -0.181729 -0.201477
0.232566 -0.051589 0.181249
-0.163758 0.265690 0.031461
-0.194141 0.363074 0.051704
0.231709 -0.030816 0.187212
-0.215078 0.305093 0.006491
-0.171592 0.296491 0.036290
-0.067076 0.001669 -0.018774
-0.066701 -0.378243 -0.201775
0.176498 0.004704 0.162372
0.008904 -0.005817 0.032646
0.006520 0.013418 0.039102
0.217156 -0.012531 0.180948
-0.147259 0.159898 -0.010680
-0.153150 0.211116 0.006927
-0.152947 0.047615 -0.067972
-0.184492 0.337782 0.037395
-0.074014 -0.015116 -0.039364
-0.215120 0.354216 0.020169
0.195372 0.028761 0.179267
0.222875 -0.080909 0.147820
0.228813 -0.010747 0.182670
0.128433 0.001686 0.115894
0.223114 0.010351 0.186900
-0.157442 -0.016260 -0.108892
-0.168673 -0.005498 -0.112871
-0.148121 0.078708 -0.057777
0.230506 -0.028799 0.170919
-0.000228 0.008259 0.018474
0.236741 -0.030335 0.173299
0.072658 -0.001816 0.067009
-0.146161 0.139590 -0.032631
-0.182381 -0.150155 -0.200455
-0.135403 0.009798 -0.088318
0.157373 0.008026 0.129470
-0.031424 0.023440 -0.003449
-0.157973 0.239154 -0.002511
0.129594 0.006796 0.106394
-0.091345 0.009906 -0.057448
0.234111 -0.026688 0.165900
0.236246 -0.013329 0.171261
0.089358 0.011909 0.076872
-0.075335 -0.010621 -0.056950
-0.192999 0.360401 0.020150
-0.148935 0.179419 -0.029192
0.201116 -0.008942 0.144072
-0.069534 -0.010743 -0.057619
-0.187580 -0.136663 -0.210397
-0.034009 -0.372351 -0.206245
0.229364 0.022802 0.176061
0.186442 0.013094 0.138396
0.225987 -0.091881 0.119339
0.238493 -0.049759 0.146889
-0.163976 -0.102273 -0.180147
-0.145855 0.119291 -0.061760
-0.153028 0.210655 -0.026856
-0.168520 0.285211 -0.005346
-0.185673 -0.106279 -0.201574
-0.175403 0.002965 -0.141746
-0.180389 0.325894 0.002112
-0.174497 -0.020322 -0.153124
-0.179322 -0.078187 -0.187260
-0.147119 0.158988 -0.050983
-0.006937 -0.379400 -0.202178
0.142284 -0.022041 0.080474
0.231335 0.007524 0.156846
-0.147115 0.089046 -0.087097
0.238493 -0.019602 0.146889
-0.151637 0.053283 -0.109855
-0.177462 0.190477 -0.067760
0.208707 0.017488 0.139379
-0.182895 0.077577 -0.125208
-0.164762 -0.016769 -0.160958
-0.157932 0.239219 -0.036745
0.076131 -0.013648 0.022301
-0.067130 0.025738 -0.070627
-0.032474 -0.002468 -0.058082
-0.192335 0.358925 -0.018616
0.222095 -0.091347 0.086210
-0.168470 0.285196 -0.033900
-0.213409 0.268955 -0.076591
-0.073844 -0.011017 -0.098071
-0.146469 0.147826 -0.080401
0.004643 -0.006090 -0.037657
-0.177738 0.317613 -0.029917
0.026062 -0.381435 -0.203687
0.214973 0.017199 0.125704
-0.155495 0.035475 -0.145510
0.234507 -0.022412 0.116943
-0.144185 -0.025194 -0.167741
-0.099814 -0.020736 -0.131945
-0.145834 0.126236 -0.098283
0.235997 0.008242 0.129825
0.037672 0.014133 -0.012525
-0.152997 0.210875 -0.068016
-0.150051 0.063284 -0.133849
-0.172548 -0.056682 -0.209390
0.116592 0.002011 0.037444
-0.146551 0.095113 -0.117770
-0.172625 0.041756 -0.164880
0.036690 -0.019914 -0.035736
-0.187619 0.326834 -0.047852
-0.162466 0.260779 -0.058259
-0.044443 -0.024377 -0.100371
-0.148501 0.176061 -0.088346
0.206191 -0.015217 0.086897
-0.154528 -0.000745 -0.178503
0.238573 -0.042386 0.095873
0.232336 -0.009458 0.104843
-0.135700 0.006910 -0.165901
0.219471 -0.093846 0.052928
-0.192782 0.360132 -0.048087
0.051305 -0.372155 -0.206671
-0.157147 0.235310 -0.077713
-0.179505 0.153405 -0.132943
-0.164756 -0.017115 -0.201586
0.175082 0.025635 0.072647
-0.166907 0.054326 -0.171508
-0.173007 0.346054 -0.043191
0.239417 -0.013389 0.099875
0.057315 -0.005852 -0.029603
0.125797 0.033125 0.038771
0.236758 -0.001563 0.103354
-0.048636 0.011413 -0.104513
-0.172465 0.300095 -0.066833
-0.192714 0.231582 -0.113764
-0.146331 0.146116 -0.117565
0.185596 0.000797 0.062502
-0.209172 0.333891 -0.083606
-0.147607 0.082658 -0.151028
-0.081028 0.027566 -0.126202
-0.116366 -0.025482 -0.179171
-0.129653 -0.002259 -0.181632
-0.145762 0.124089 -0.136230
-0.155125 0.041016 -0.185119
-0.185509 0.123520 -0.170734
-0.185063 0.339950 -0.071560
-0.153584 0.215173 -0.105366
-0.125119 0.006633 -0.181436
-0.161415 0.256359 -0.093775
-0.218736 0.377652 -0.087787
0.238635 -0.050165 0.056055
0.218217 -0.085777 0.025090
-0.110340 0.016936 -0.174833
-0.148343 0.074272 -0.178373
0.119157 0.019834 -0.002543
0.238619 -0.020876 0.066238
-0.147621 0.166554 -0.138002
-0.157570 0.101581 -0.177292
0.231022 0.008073 0.067018
-0.171310 0.296279 -0.102629
-0.027842 0.005968 -0.128025
0.109149 -0.372179 -0.206628
-0.179948 0.324989 -0.097829
-0.146146 0.102788 -0.176188
-0.045907 -0.021387 -0.160423
-0.159201 0.245964 -0.123177
0.002542 0.024722 -0.102487
0.112683 0.003526 -0.030303
-0.069426 -0.010980 -0.177118
-0.190920 0.355780 -0.101236
0.028959 0.008213 -0.093482
0.217856 -0.090960 -0.002733
-0.146645 0.154400 -0.163301
-0.153463 0.214763 -0.143572
-0.166983 0.280053 -0.123980
0.238399 -0.029677 0.035869
-0.064035 0.015325 -0.172267
0.237955 -0.027354 0.032438
-0.158751 0.164476 -0.176654
0.238668 -0.021366 0.035211
-0.055495 -0.005107 -0.179126
-0.145853 0.136682 -0.182652
-0.132754 0.108392 -0.190099
0.177296 0.005554 -0.006838
0.109902 -0.025879 -0.071457
-0.185165 0.340505 -0.127786
-0.024035 -0.023798 -0.173608
-0.174852 0.218431 -0.176233
-0.013786 -0.000018 -0.154077
-0.195655 0.340626 -0.138908
-0.148262 0.174885 -0.178292
0.094024 0.013890 -0.070363
0.230017 0.005174 0.024983
0.221563 0.015111 0.023964
0.163207 -0.372202 -0.206588
0.225913 -0.014325 0.010968
-0.199693 0.301064 -0.164127
-0.163215 0.264597 -0.152870
-0.173109 0.302743 -0.142562
0.238719 -0.048810 0.002691
0.029774 -0.012078 -0.136268
-0.207172 0.371101 -0.141216
-0.175197 0.246090 -0.174050
0.193099 -0.008782 -0.014665
0.218676 -0.093046 -0.035916
0.195547 -0.382993 -0.199745
-0.153532 0.214380 -0.183534
0.028067 0.023406 -0.135458
0.054524 -0.023254 -0.138764
0.238719 -0.011782 0.002691
0.236429 -0.003594 0.001972
-0.013903 0.008000 -0.178593
0.193188 -0.372804 -0.207178
-0.179829 0.279434 -0.180794
0.006924 -0.009009 -0.172974
-0.203154 0.347698 -0.169232
-0.159827 0.248859 -0.182988
0.090793 0.005915 -0.109601
0.235750 -0.356506 -0.177707
-0.185908 0.342742 -0.167796
0.238763 -0.029198 -0.025627
0.220752 -0.091449 -0.068921
-0.173571 0.304185 -0.182896
0.032590 -0.010123 -0.173246
-0.202587 0.376837 -0.176811
0.230705 0.008601 -0.019475
0.228137 -0.372279 -0.204794
0.139168 0.029597 -0.078287
0.219453 -0.009139 -0.038541
0.231481 -0.315446 -0.177636
0.182587 0.013433 -0.057873
0.238735 0.004963 -0.030343
0.236945 -0.015191 -0.043259
0.053702 -0.008982 -0.176192
0.187092 0.001689 -0.071960
0.231481 -0.284857 -0.177636
0.095086 -0.019733 -0.152262
0.238809 -0.036820 -0.055127
0.240733 -0.352858 -0.210304
0.041581 0.013170 -0.182223
0.167249 -0.025134 -0.106325
0.236767 -0.298925 -0.189267
0.225161 -0.023929 -0.071316
0.224066 -0.085951 -0.101656
0.235750 -0.257371 -0.177707
0.046996 0.033053 -0.181080
0.072493 0.024801 -0.167155
0.237082 -0.001766 -0.063708
0.238857 -0.048350 -0.085885
0.096342 -0.015328 -0.178683
0.092520 0.028861 -0.166439
0.135729 -0.010162 -0.153137
0.223465 -0.026278 -0.097099
0.231481 -0.204562 -0.177636
0.227722 -0.090995 -0.128722
0.244136 -0.228279 -0.184123
0.105940 0.001465 -0.178382
0.197717 -0.080435 -0.149843
0.218440 0.016405 -0.090891
0.238129 -0.012072 -0.091641
0.163835 0.023660 -0.133484
0.220217 -0.172176 -0.186218
0.238897 -0.041901 -0.111453
0.137832 -0.005464 -0.172179
0.238732 -0.009033 -0.098781
0.234583 0.003074 -0.102526
0.235194 -0.131921 -0.174247
0.212531 0.034537 -0.112325
0.148072 -0.000653 -0.177550
0.238449 -0.146780 -0.180350
0.150256 0.008588 -0.175216
0.233230 -0.085006 -0.160764
0.231481 -0.116619 -0.177636
0.238939 -0.038933 -0.137923
0.170094 0.009084 -0.171319
0.182392 0.000941 -0.166561
0.216703 -0.072830 -0.176311
0.167480 -0.004409 -0.181003
0.234119 -0.024704 -0.141107
0.232803 -0.083539 -0.172580
0.230148 0.009287 -0.131620
0.222676 0.000470 -0.152449
0.197045 0.037513 -0.155788
0.181306 0.020277 -0.177321
0.238571 -0.034774 -0.163920
0.196024 0.018509 -0.171492
0.238449 -0.066718 -0.180350
0.234852 -0.022609 -0.162966
0.238301 -0.005618 -0.152576
0.221175 0.005126 -0.163408
0.209231 -0.019102 -0.184553
0.235702 0.002000 -0.156212
0.204322 -0.020291 -0.195841
0.179305 0.020493 -0.196607
0.228611 -0.051902 -0.195505
0.229392 -0.064282 -0.201092
0.216492 0.020389 -0.172838
0.239004 -0.024757 -0.179428
0.212045 0.031503 -0.174429
0.225023 0.013409 -0.174018
