-0.193967 -0.156888 0.207937
-0.190928 -0.130355 0.212070
-0.192686 -0.146613 0.209194
-0.191542 -0.139176 0.210571
-0.204439 -0.166914 0.212239
-0.189542 -0.130251 0.209591
-0.202099 -0.156095 0.207981
-0.188084 -0.097467 0.211429
-0.197960 -0.169323 0.207951
-0.188354 -0.122517 0.208941
-0.198948 -0.149407 0.210927
-0.200156 -0.182054 0.212632
-0.193913 -0.145660 0.211897
-0.196650 -0.163854 0.211624
-0.189867 -0.123940 0.211764
-0.194523 -0.109426 0.211805
-0.195108 -0.137016 0.206930
-0.192041 -0.152702 0.211613
-0.195778 -0.141626 0.212061
-0.194303 -0.124652 0.212185
-0.191192 -0.140577 0.208000
-0.050314 -0.374711 0.205160
-0.086477 -0.375687 0.212138
-0.079888 -0.375282 0.204047
-0.050783 -0.373970 0.213977
-0.010250 -0.380126 0.209442
-0.102639 -0.375292 0.208580
-0.012377 -0.373234 0.206514
-0.045586 -0.378309 0.206162
-0.034080 -0.376068 0.207760
-0.029224 -0.373289 0.205174
-0.056982 -0.376886 0.209089
-0.023624 -0.378704 0.206981
-0.059279 -0.373626 0.211332
-0.045314 -0.374433 0.207025
-0.031900 -0.375237 0.214179
-0.076466 -0.380293 0.208291
-0.002574 -0.373511 0.211998
-0.089312 -0.377987 0.206701
-0.023948 -0.373383 0.208975
-0.060674 -0.381057 0.207387
-0.041762 -0.372425 0.208818
-0.067109 -0.378104 0.214051
-0.039257 -0.379647 0.207904
-0.041153 -0.374758 0.213062
-0.050388 -0.378727 0.213164
-0.028780 -0.372884 0.211466
-0.078415 -0.373993 0.209322
-0.061075 -0.374516 0.206382
-0.017133 -0.375763 0.213307
-0.067516 -0.374274 0.207024
-0.069705 -0.372919 0.210427
0.009684 -0.375030 0.208075
-0.194353 -0.116537 0.202782
-0.200056 -0.145890 0.208321
-0.203166 -0.136147 0.204841
-0.194788 -0.120567 0.211614
-0.198927 -0.196037 0.206204
-0.205052 -0.159900 0.204967
-0.190836 -0.112709 0.206749
-0.198275 -0.166415 0.204495
-0.198033 -0.179813 0.204292
-0.194323 -0.146209 0.203504
-0.201408 -0.177521 0.206091
-0.196237 -0.176297 0.205210
-0.194285 -0.137599 0.205966
-0.195630 -0.160764 0.203884
-0.195369 -0.150001 0.211163
-0.205213 -0.186441 0.206681
-0.194617 -0.139791 0.208601
-0.205609 -0.173476 0.204095
-0.192885 -0.093649 0.206260
-0.201014 -0.194545 0.203850
-0.192957 -0.127514 0.204719
-0.197903 -0.164510 0.210642
-0.201069 -0.209156 0.204248
-0.196866 -0.156558 0.208673
-0.198722 -0.185220 0.210151
-0.193493 -0.131450 0.208638
-0.198999 -0.106733 0.205912
-0.197814 -0.148575 0.204258
-0.195456 -0.170469 0.207595
-0.199037 -0.154731 0.203956
-0.198102 -0.128380 0.205801
-0.195640 -0.151657 0.206625
-0.180610 -0.078673 0.202399
-0.184741 -0.093010 0.210549
-0.187491 -0.089756 0.203457
-0.179257 -0.075877 0.212409
-0.186332 -0.126329 0.207541
-0.192979 -0.104306 0.206377
-0.177766 -0.073262 0.205209
-0.187930 -0.107657 0.203909
-0.184947 -0.118050 0.204782
-0.182330 -0.094350 0.202910
-0.185868 -0.114214 0.206170
-0.184447 -0.111604 0.203866
-0.179742 -0.089535 0.206881
-0.182667 -0.104288 0.204124
-0.182583 -0.097569 0.211473
-0.190162 -0.120551 0.209259
-0.180735 -0.092300 0.208962
-0.189262 -0.114094 0.203069
-0.177036 -0.059937 0.206634
-0.187941 -0.124613 0.203694
-0.179022 -0.083881 0.203590
-0.186923 -0.108667 0.212367
-0.188927 -0.135736 0.205292
-0.183394 -0.103165 0.210706
-0.186467 -0.120652 0.211388
-0.180073 -0.084535 0.210226
-0.181975 -0.068824 0.204653
-0.184133 -0.098276 0.203080
-0.182656 -0.110124 0.208852
-0.183094 -0.101278 0.204894
-0.180995 -0.082627 0.207279
-0.182163 -0.096824 0.206262
-0.013368 -0.374886 0.204924
-0.055260 -0.375851 0.212009
-0.047271 -0.375477 0.203616
-0.014015 -0.373759 0.214303
0.032884 -0.379740 0.208795
-0.073849 -0.375477 0.207981
0.029938 -0.373297 0.206047
-0.007734 -0.378450 0.205650
0.005228 -0.376388 0.207255
0.010881 -0.373316 0.204327
-0.021166 -0.377340 0.208657
0.017545 -0.379159 0.206693
-0.024239 -0.373746 0.211392
-0.007906 -0.374571 0.207154
0.007556 -0.374735 0.213879
-0.043174 -0.379842 0.207614
0.040827 -0.373611 0.211600
-0.058421 -0.377944 0.206194
0.016866 -0.372996 0.208683
-0.025444 -0.381084 0.207033
-0.004108 -0.372099 0.208525
-0.033041 -0.378287 0.213722
0.000243 -0.378834 0.207419
-0.002939 -0.374950 0.213057
-0.013898 -0.378468 0.213085
0.010723 -0.372990 0.211483
-0.046379 -0.373918 0.209101
-0.026521 -0.374394 0.205885
0.023677 -0.375877 0.212747
-0.033052 -0.374248 0.206515
-0.036020 -0.372683 0.209957
0.055016 -0.375280 0.207266
-0.175673 -0.045394 0.200879
-0.183109 -0.064689 0.210310
-0.184541 -0.058350 0.205101
-0.172606 -0.043323 0.210773
-0.183906 -0.102699 0.210385
-0.190217 -0.078154 0.208106
-0.170700 -0.038613 0.207327
-0.182977 -0.080042 0.201990
-0.182155 -0.089932 0.209301
-0.176330 -0.062698 0.202424
-0.185375 -0.087128 0.210817
-0.180035 -0.086262 0.204997
-0.175927 -0.059631 0.210604
-0.179346 -0.076169 0.206093
-0.176117 -0.069590 0.208749
-0.192179 -0.098915 0.210506
-0.173722 -0.059984 0.208397
-0.189350 -0.087814 0.203051
-0.170829 -0.024678 0.210334
-0.187269 -0.101147 0.203307
-0.172892 -0.052180 0.206095
-0.185578 -0.081236 0.209264
-0.190208 -0.113908 0.210048
-0.180244 -0.076130 0.210880
-0.183783 -0.094749 0.210241
-0.173162 -0.052015 0.210649
-0.177574 -0.036668 0.209455
-0.182996 -0.068126 0.202997
-0.177258 -0.082157 0.210048
-0.182083 -0.072122 0.210358
-0.178977 -0.052835 0.210713
-0.176457 -0.069866 0.205740
-0.182785 -0.073481 0.201849
-0.188983 -0.101826 0.206562
-0.192768 -0.092014 0.203579
-0.183226 -0.077516 0.210832
-0.188652 -0.150149 0.204725
-0.195460 -0.115516 0.203347
-0.179655 -0.069580 0.205603
-0.187716 -0.121784 0.202894
-0.188227 -0.135109 0.202940
-0.183802 -0.102114 0.202054
-0.191208 -0.132331 0.204640
-0.186107 -0.130783 0.203770
-0.183557 -0.093721 0.204728
-0.185403 -0.116126 0.202839
-0.184374 -0.105806 0.210335
-0.194739 -0.141696 0.205313
-0.183542 -0.095114 0.206917
-0.195158 -0.128753 0.202630
-0.181257 -0.051494 0.205314
-0.190513 -0.149020 0.202589
-0.182234 -0.084069 0.203685
-0.186978 -0.120148 0.210067
-0.191234 -0.163143 0.203318
-0.185951 -0.112076 0.207026
-0.188708 -0.140088 0.209370
-0.182794 -0.087782 0.207064
-0.188040 -0.063709 0.204689
-0.186780 -0.104702 0.202868
-0.185084 -0.125388 0.206473
-0.188440 -0.110696 0.202734
-0.187008 -0.084666 0.204244
-0.184705 -0.106944 0.205036
0.041590 -0.376984 0.204888
-0.002776 -0.382026 0.212104
0.006796 -0.377869 0.204078
0.040714 -0.375523 0.211613
0.091208 -0.381909 0.210358
-0.020187 -0.381775 0.212212
0.087664 -0.375764 0.207595
0.048548 -0.382225 0.204026
0.065819 -0.382010 0.209215
0.066844 -0.377346 0.204056
0.034225 -0.382377 0.210684
0.076327 -0.381682 0.204643
0.029561 -0.378520 0.212293
0.046350 -0.379351 0.208091
0.061942 -0.377171 0.212565
0.009645 -0.382291 0.207261
0.099955 -0.378840 0.212050
-0.006168 -0.381923 0.207490
0.073897 -0.376299 0.208427
0.027823 -0.381744 0.207030
0.053385 -0.375036 0.208046
0.019376 -0.382127 0.211359
0.056608 -0.379859 0.205968
0.052128 -0.379697 0.212973
0.039294 -0.380749 0.211248
0.071839 -0.375564 0.213372
0.006230 -0.378092 0.210037
0.023840 -0.377812 0.203554
0.081437 -0.380530 0.212947
0.021675 -0.379983 0.208671
0.016947 -0.376279 0.211020
0.112367 -0.381115 0.209544
-0.168322 -0.014332 0.197099
-0.174767 -0.024219 0.210543
-0.174564 -0.020449 0.205494
-0.166676 -0.013062 0.209941
-0.174324 -0.042516 0.210527
-0.180158 -0.030126 0.208651
-0.164585 -0.009579 0.205699
-0.171875 -0.027158 0.194237
-0.172032 -0.034648 0.209286
-0.168898 -0.020095 0.201593
-0.174467 -0.031326 0.210426
-0.170849 -0.030177 0.202516
-0.169535 -0.022312 0.210990
-0.170529 -0.026958 0.206567
-0.169479 -0.023607 0.210353
-0.180444 -0.041221 0.210605
-0.168020 -0.019541 0.209206
-0.179009 -0.034458 0.204387
-0.165095 -0.001962 0.208772
-0.176233 -0.041738 0.202385
-0.166502 -0.016971 0.207034
-0.175585 -0.030876 0.210348
-0.178276 -0.051874 0.210259
-0.171510 -0.027297 0.210668
-0.173455 -0.036741 0.211556
-0.167963 -0.017824 0.210223
-0.169660 -0.010404 0.208270
-0.175438 -0.025935 0.199002
-0.169900 -0.028701 0.209472
-0.172452 -0.026208 0.210544
-0.170772 -0.018463 0.210045
-0.167839 -0.022825 0.206653
-0.170885 -0.025637 0.200899
-0.177295 -0.041031 0.209372
-0.179266 -0.036197 0.204270
-0.170227 -0.026241 0.211852
-0.178179 -0.071872 0.208423
-0.183701 -0.052003 0.206328
-0.167175 -0.021951 0.204583
-0.178113 -0.053371 0.203165
-0.177017 -0.063784 0.205203
-0.171965 -0.041215 0.202840
-0.178485 -0.060395 0.206507
-0.176970 -0.057667 0.205182
-0.171690 -0.036939 0.206891
-0.173978 -0.050592 0.203527
-0.172908 -0.044007 0.211089
-0.183847 -0.068353 0.208193
-0.170678 -0.037264 0.209358
-0.181681 -0.061047 0.204085
-0.166832 -0.012375 0.205926
-0.180788 -0.071434 0.203501
-0.170347 -0.031757 0.203672
-0.177248 -0.054082 0.211255
-0.181213 -0.081418 0.205249
-0.174790 -0.049176 0.209241
-0.178115 -0.065824 0.210868
-0.170221 -0.031557 0.209191
-0.173692 -0.020577 0.205426
-0.175912 -0.044890 0.202998
-0.173402 -0.055327 0.208951
-0.175786 -0.047467 0.204649
-0.174696 -0.031019 0.206278
-0.172072 -0.042902 0.207185
-0.169609 -0.000701 0.141820
-0.181289 -0.009714 0.197165
-0.172709 -0.005471 0.163783
-0.167924 -0.003067 0.198835
-0.157162 -0.010372 0.183829
-0.190815 -0.013624 0.183930
-0.156634 -0.002111 0.162117
-0.164829 -0.009455 0.107825
-0.162231 -0.010469 0.167003
-0.164714 -0.005696 0.149738
-0.169895 -0.010174 0.180813
-0.155312 -0.006469 0.137132
-0.168867 -0.009498 0.190348
-0.168362 -0.007739 0.163459
-0.161273 -0.009163 0.199840
-0.175537 -0.017850 0.194325
-0.152136 -0.007464 0.193775
-0.182917 -0.012594 0.154988
-0.162615 0.001191 0.181124
-0.173270 -0.011835 0.147805
-0.167044 -0.004771 0.183857
-0.173525 -0.013645 0.204022
-0.170311 -0.015925 0.178719
-0.166717 -0.010104 0.193778
-0.167148 -0.012562 0.198959
-0.163039 -0.004798 0.189675
-0.177446 -0.001423 0.177877
-0.179337 -0.009126 0.124193
-0.161941 -0.008542 0.185639
-0.173446 -0.009020 0.178910
-0.173819 -0.004355 0.189228
-0.146039 -0.007388 0.173890
-0.163636 0.026532 0.176652
-0.171728 -0.000111 0.197934
-0.173620 0.006811 0.189325
-0.159668 0.027082 0.198660
-0.164759 -0.024762 0.197216
-0.180149 -0.012180 0.194396
-0.156432 0.030773 0.191071
-0.165378 -0.010674 0.170359
-0.166527 -0.020189 0.192867
-0.162376 0.005568 0.179938
-0.170268 -0.015262 0.196056
-0.163510 -0.015398 0.185447
-0.163128 0.004676 0.197161
-0.165088 -0.008264 0.190003
-0.161627 -0.001432 0.198244
-0.176938 -0.025160 0.197611
-0.159948 0.002660 0.196297
-0.177751 -0.019144 0.187641
-0.159922 0.047780 0.196494
-0.171474 -0.025707 0.183501
-0.159927 0.014134 0.190262
-0.170274 -0.014000 0.198940
-0.173959 -0.031915 0.195601
-0.166134 -0.009890 0.198469
-0.166922 -0.021071 0.199957
-0.159138 0.013540 0.198139
-0.168080 0.037076 0.192883
-0.171616 -0.004498 0.179671
-0.162952 -0.011433 0.194995
-0.169840 -0.004975 0.194972
-0.167308 0.015725 0.195810
-0.160205 -0.003036 0.191414
0.096919 -0.375816 0.203928
0.052927 -0.381651 0.211506
0.063320 -0.377265 0.203242
0.096872 -0.374529 0.210862
0.145260 -0.381083 0.209475
0.036839 -0.381668 0.211348
0.142048 -0.374850 0.206310
0.103770 -0.381326 0.202651
0.120672 -0.381538 0.208396
0.121242 -0.377102 0.202658
0.089481 -0.381904 0.209848
0.131025 -0.380651 0.202754
0.084743 -0.378488 0.211727
0.100131 -0.379141 0.206735
0.117433 -0.376746 0.212271
0.065743 -0.381622 0.206500
0.154442 -0.378453 0.211585
0.050023 -0.381374 0.206049
0.128730 -0.375224 0.207437
0.083075 -0.380774 0.205455
0.108386 -0.374319 0.207231
0.075321 -0.381021 0.210622
0.110958 -0.378894 0.204587
0.107782 -0.379352 0.212191
0.094162 -0.379914 0.210644
0.126767 -0.375031 0.212692
0.062260 -0.377398 0.209201
0.078404 -0.377600 0.201931
0.136023 -0.379842 0.212454
0.076716 -0.380110 0.207697
0.072947 -0.375904 0.210401
0.166303 -0.380499 0.208241
-0.162610 0.009478 0.165913
-0.164778 -0.000164 0.191528
-0.163566 0.001575 0.185256
-0.161419 0.014066 0.191076
-0.167005 -0.016452 0.189765
-0.171802 -0.008154 0.188609
-0.162677 0.014480 0.179009
-0.164255 -0.004307 0.156566
-0.165881 -0.014652 0.183423
-0.163118 0.001468 0.172547
-0.165663 -0.010521 0.187738
-0.165787 -0.007013 0.173996
-0.162475 0.001517 0.188936
-0.163730 -0.005139 0.181913
-0.164301 -0.000828 0.192576
-0.166693 -0.013332 0.190802
-0.164874 -0.001307 0.188810
-0.165908 -0.012672 0.180641
-0.162053 0.022222 0.188800
-0.165626 -0.016340 0.173842
-0.162026 0.006756 0.184269
-0.165804 -0.009011 0.194023
-0.168046 -0.021700 0.186290
-0.163978 -0.005700 0.190558
-0.165975 -0.013843 0.192422
-0.163660 0.004537 0.191765
-0.162848 0.017428 0.185578
-0.164351 -0.008859 0.167231
-0.164911 -0.007744 0.184965
-0.163013 -0.003272 0.186652
-0.162922 0.008964 0.188475
-0.164626 0.002944 0.182191
-0.159167 0.040872 0.182214
-0.172020 0.024263 0.191487
-0.174655 0.036017 0.191019
-0.160053 0.039939 0.191456
-0.160579 0.002191 0.191298
-0.184958 0.020245 0.191562
-0.159312 0.046266 0.187765
-0.159065 0.018003 0.179533
-0.158973 0.011071 0.191400
-0.160367 0.029454 0.181440
-0.163415 0.012188 0.193058
-0.159779 0.010370 0.185473
-0.160477 0.028504 0.192609
-0.159372 0.017851 0.188777
-0.160280 0.026033 0.191105
-0.172045 0.003048 0.192638
-0.160163 0.028925 0.187971
-0.173402 0.011560 0.192018
-0.160710 0.053467 0.190146
-0.159109 0.002550 0.187405
-0.158710 0.036062 0.188662
-0.166046 0.017445 0.191110
-0.160493 -0.006176 0.191711
-0.159293 0.019370 0.191109
-0.161560 0.007858 0.191598
-0.160452 0.033805 0.190736
-0.171309 0.046968 0.191913
-0.159923 0.024593 0.185436
-0.160463 0.014373 0.190379
-0.163078 0.022110 0.192185
-0.164819 0.033992 0.191740
-0.160519 0.024282 0.184829
-0.143029 -0.006424 0.177081
-0.167794 -0.016661 0.189038
-0.161194 -0.012660 0.180335
-0.143932 -0.006933 0.188406
-0.121753 -0.013554 0.184340
-0.177745 -0.017590 0.185121
-0.120584 -0.006580 0.182243
-0.141599 -0.013938 0.168000
-0.133510 -0.013864 0.183867
-0.133523 -0.012980 0.177292
-0.146313 -0.014693 0.185539
-0.126043 -0.011126 0.173201
-0.147538 -0.014928 0.187480
-0.142753 -0.014240 0.181461
-0.133520 -0.010132 0.190222
-0.161058 -0.018007 0.186857
-0.112384 -0.009222 0.187882
-0.168752 -0.017056 0.178498
-0.129544 -0.002602 0.184941
-0.151544 -0.015476 0.177566
-0.137720 -0.008982 0.185043
-0.155873 -0.015184 0.190075
-0.141499 -0.016512 0.182728
-0.138174 -0.013406 0.186460
-0.144989 -0.014426 0.188235
-0.128859 -0.010548 0.186303
-0.159968 -0.006841 0.186788
-0.155393 -0.014934 0.170030
-0.124525 -0.011692 0.188050
-0.153659 -0.015520 0.184176
-0.154781 -0.011427 0.187192
-0.104748 -0.011272 0.183776
-0.149339 -0.011298 0.134688
-0.183380 -0.017334 0.173749
-0.171714 -0.014792 0.142442
-0.152513 -0.011159 0.188453
-0.124773 -0.013880 0.162574
-0.187352 -0.019271 0.158113
-0.125156 -0.008995 0.143516
-0.147769 -0.012941 0.119663
-0.142326 -0.014885 0.150917
-0.138995 -0.011805 0.140681
-0.154916 -0.015371 0.161274
-0.129876 -0.010604 0.127975
-0.159833 -0.014882 0.170196
-0.156556 -0.013881 0.144024
-0.135710 -0.010189 0.189400
-0.173316 -0.019697 0.179558
-0.116160 -0.008987 0.176896
-0.182190 -0.018509 0.136927
-0.134717 -0.008988 0.158159
-0.161113 -0.016591 0.131279
-0.150261 -0.011126 0.170664
-0.167283 -0.016758 0.190531
-0.154446 -0.014991 0.153140
-0.143606 -0.013350 0.178976
-0.156766 -0.016542 0.181961
-0.140823 -0.011654 0.168439
-0.175321 -0.014435 0.155931
-0.170981 -0.015497 0.120903
-0.131536 -0.011598 0.174333
-0.165090 -0.015441 0.157409
-0.170507 -0.013088 0.169460
-0.109836 -0.009163 0.154717
-0.163144 -0.016083 0.083258
-0.172527 -0.017493 0.156886
-0.170912 -0.016940 0.117255
-0.164796 -0.016411 0.172801
-0.152686 -0.015367 0.142548
-0.176138 -0.017654 0.139142
-0.152934 -0.015086 0.105554
-0.162477 -0.016214 0.045159
-0.160220 -0.015908 0.116390
-0.160306 -0.015397 0.097432
-0.162946 -0.016387 0.133747
-0.153202 -0.013217 0.073133
-0.165457 -0.017284 0.147476
-0.163256 -0.015403 0.108213
-0.155148 -0.013958 0.176337
-0.168597 -0.017991 0.164949
-0.149638 -0.013379 0.160096
-0.173226 -0.017821 0.097377
-0.159585 -0.015460 0.137743
-0.166957 -0.017386 0.085454
-0.165787 -0.015609 0.153700
-0.168035 -0.016148 0.184085
-0.164990 -0.016063 0.125651
-0.161284 -0.014745 0.164486
-0.164560 -0.016442 0.169018
-0.161711 -0.014927 0.154125
-0.170881 -0.016697 0.129572
-0.171547 -0.016156 0.061783
-0.156564 -0.014519 0.145896
-0.168109 -0.016536 0.135496
-0.169740 -0.015544 0.150997
-0.146798 -0.013733 0.125510
-0.160574 -0.016682 0.060858
-0.174552 -0.017532 0.145464
-0.172464 -0.016744 0.097000
-0.163452 -0.016650 0.165661
-0.147123 -0.015297 0.128521
-0.178539 -0.017824 0.124155
-0.147553 -0.015136 0.085250
-0.159875 -0.016083 0.018059
-0.157018 -0.015860 0.097848
-0.156857 -0.015329 0.076440
-0.160938 -0.016230 0.118337
-0.148476 -0.012769 0.046884
-0.164850 -0.017055 0.134121
-0.162048 -0.015402 0.086930
-0.151144 -0.013788 0.169462
-0.169503 -0.017956 0.156601
-0.143895 -0.012939 0.150169
-0.175221 -0.018084 0.074492
-0.156677 -0.016085 0.122056
-0.166810 -0.017320 0.060728
-0.164842 -0.015840 0.143578
-0.168518 -0.016514 0.177796
-0.164267 -0.015598 0.107751
-0.158543 -0.014542 0.154892
-0.164438 -0.016633 0.160070
-0.159533 -0.014870 0.141061
-0.172388 -0.017492 0.112557
-0.172812 -0.016374 0.034999
-0.152087 -0.014166 0.134858
-0.168085 -0.016652 0.119987
-0.171000 -0.015685 0.137723
-0.141153 -0.013321 0.108323
-0.169267 0.095594 0.154955
-0.175923 0.061466 0.191692
-0.181844 0.073149 0.170460
-0.161711 0.096478 0.192795
-0.151214 0.017947 0.186402
-0.188377 0.045092 0.183764
-0.155866 0.098026 0.177888
-0.163417 0.043719 0.141436
-0.159501 0.026828 0.176912
-0.159639 0.066077 0.157525
-0.167322 0.035289 0.184643
-0.154771 0.035385 0.164330
-0.161236 0.066998 0.187006
-0.162361 0.046836 0.173507
-0.156836 0.059657 0.192626
-0.176766 0.018651 0.187464
-0.150813 0.060410 0.188624
-0.180079 0.032434 0.168034
-0.164450 0.119749 0.188751
-0.167207 0.017023 0.159390
-0.160887 0.077971 0.175826
-0.169125 0.038949 0.193309
-0.166351 0.005977 0.181812
-0.162328 0.045381 0.190961
-0.157612 0.023585 0.193867
-0.153010 0.079380 0.189986
-0.178568 0.109899 0.181267
-0.173511 0.054995 0.154360
-0.155573 0.041208 0.185356
-0.171845 0.055568 0.181466
-0.172425 0.083606 0.185601
-0.152247 0.053659 0.178078
0.149515 -0.372811 0.202121
0.111881 -0.377504 0.209778
0.118368 -0.373606 0.202285
0.148460 -0.372083 0.208644
0.194690 -0.380161 0.207678
0.095013 -0.376944 0.209635
0.192987 -0.371466 0.204886
0.155624 -0.378693 0.202117
0.171740 -0.378191 0.207009
0.173709 -0.372879 0.201799
0.142909 -0.378494 0.208587
0.181863 -0.378542 0.202291
0.140574 -0.373481 0.209523
0.156239 -0.374472 0.205826
0.168250 -0.373855 0.210151
0.121089 -0.380441 0.205542
0.202297 -0.374289 0.209269
0.107333 -0.378952 0.205843
0.178948 -0.372316 0.205467
0.138049 -0.379678 0.205671
0.160812 -0.371211 0.205930
0.131077 -0.379292 0.209715
0.163511 -0.378341 0.204763
0.158605 -0.375058 0.210265
0.149449 -0.378615 0.209286
0.177257 -0.371561 0.209816
0.119675 -0.373914 0.207624
0.135186 -0.373913 0.201953
0.186690 -0.377068 0.210861
0.132400 -0.375395 0.206778
0.128339 -0.372503 0.208787
0.214454 -0.377169 0.206962
-0.122085 -0.012833 0.158786
-0.148081 -0.015118 0.179420
-0.138492 -0.014629 0.164923
-0.124801 -0.012414 0.187302
-0.104947 -0.011152 0.174275
-0.151786 -0.016026 0.171619
-0.105312 -0.010877 0.164070
-0.121686 -0.011627 0.148430
-0.118863 -0.012678 0.168547
-0.115202 -0.011602 0.163336
-0.124505 -0.012432 0.174660
-0.109479 -0.009518 0.154145
-0.129976 -0.013966 0.178877
-0.129482 -0.013059 0.164244
-0.113380 -0.010339 0.186575
-0.141245 -0.015370 0.185064
-0.099193 -0.009283 0.181846
-0.146167 -0.014335 0.159393
-0.111911 -0.011623 0.173878
-0.129081 -0.012805 0.156002
-0.122577 -0.012179 0.180894
-0.134522 -0.013974 0.187520
-0.126516 -0.011573 0.169616
-0.117371 -0.011318 0.182779
-0.128276 -0.013100 0.183300
-0.116198 -0.012101 0.177426
-0.141031 -0.015219 0.173620
-0.137173 -0.013673 0.149894
-0.108944 -0.010144 0.182225
-0.132116 -0.013473 0.172762
-0.137799 -0.013358 0.179367
-0.094466 -0.009361 0.171820
-0.151426 0.069102 0.170401
-0.159833 0.058446 0.188821
-0.156134 0.063210 0.184276
-0.153707 0.074547 0.187869
-0.154560 0.034904 0.186135
-0.172695 0.050640 0.186753
-0.152316 0.076591 0.178887
-0.152133 0.052592 0.165492
-0.153011 0.040256 0.182249
-0.152481 0.059920 0.172304
-0.154534 0.044790 0.186812
-0.153003 0.047211 0.175249
-0.152426 0.061491 0.186247
-0.152357 0.052543 0.180199
-0.154688 0.058678 0.188533
-0.158641 0.040435 0.188795
-0.153616 0.057857 0.183675
-0.157204 0.043340 0.181929
-0.152780 0.083513 0.185518
-0.151583 0.036387 0.175018
-0.151967 0.068445 0.181603
-0.157716 0.048201 0.189481
-0.154442 0.027387 0.183994
-0.153019 0.053192 0.186450
-0.155276 0.038656 0.188458
-0.154119 0.065557 0.187080
-0.156288 0.079297 0.185781
-0.150070 0.049390 0.171859
-0.153220 0.048416 0.183302
-0.153080 0.054848 0.184959
-0.153807 0.068986 0.186285
-0.153625 0.062505 0.177592
-0.154441 -0.013446 0.156588
-0.165457 -0.010890 0.182231
-0.159625 -0.013239 0.166256
-0.155802 -0.012625 0.185985
-0.127246 -0.015766 0.177122
-0.167927 -0.011915 0.174564
-0.131917 -0.015854 0.163713
-0.150861 -0.011965 0.137487
-0.145356 -0.013099 0.170685
-0.143871 -0.014051 0.158418
-0.152265 -0.013724 0.176779
-0.133621 -0.013207 0.148424
-0.157510 -0.013918 0.179860
-0.154803 -0.013168 0.165349
-0.143755 -0.015090 0.183033
-0.161137 -0.014750 0.184444
-0.121824 -0.014012 0.184120
-0.166209 -0.013230 0.160174
-0.142591 -0.012608 0.176060
-0.156840 -0.012870 0.154505
-0.152330 -0.012585 0.182074
-0.160272 -0.013399 0.183139
-0.152013 -0.012886 0.171198
-0.148473 -0.012739 0.183151
-0.155904 -0.013885 0.183412
-0.146376 -0.015014 0.178929
-0.163669 -0.010260 0.175355
-0.163975 -0.011893 0.143861
-0.137190 -0.013679 0.180961
-0.156885 -0.012695 0.173731
-0.162349 -0.011345 0.179592
-0.109723 -0.014497 0.171152
-0.169455 0.131486 0.161192
-0.170571 0.103337 0.192300
-0.176551 0.114459 0.173836
-0.164328 0.133621 0.193096
-0.145616 0.056585 0.189167
-0.179211 0.088853 0.186685
-0.160473 0.133890 0.180703
-0.159637 0.084716 0.152026
-0.154714 0.066940 0.181149
-0.159289 0.105374 0.163430
-0.161089 0.075479 0.187532
-0.152766 0.074490 0.171067
-0.161131 0.107861 0.189551
-0.159358 0.086938 0.177497
-0.156488 0.100226 0.191634
-0.166925 0.059924 0.189388
-0.150297 0.100145 0.189734
-0.169245 0.075157 0.173580
-0.169492 0.154654 0.190350
-0.158218 0.056456 0.166185
-0.162340 0.116673 0.178456
-0.162607 0.080779 0.191777
-0.155817 0.043488 0.185697
-0.159766 0.087963 0.191987
-0.152069 0.063448 0.193245
-0.154838 0.118356 0.191429
-0.178154 0.145168 0.183242
-0.165981 0.097362 0.162425
-0.153300 0.081178 0.188066
-0.165721 0.098126 0.183882
-0.170904 0.123393 0.187133
-0.151500 0.092029 0.180470
-0.172909 0.194983 0.156103
-0.166888 0.159384 0.187916
-0.175862 0.172579 0.171286
-0.165951 0.199454 0.189612
-0.143903 0.099133 0.185624
-0.176683 0.139995 0.182606
-0.165034 0.200266 0.175924
-0.159523 0.133990 0.146144
-0.153286 0.112787 0.177561
-0.162194 0.159912 0.159738
-0.158992 0.123060 0.184301
-0.154287 0.122679 0.168149
-0.163153 0.167184 0.185325
-0.159471 0.137500 0.174860
-0.156410 0.154272 0.187925
-0.161884 0.108033 0.184934
-0.151951 0.156738 0.185296
-0.166060 0.122922 0.169551
-0.174298 0.227770 0.186082
-0.154827 0.102813 0.162157
-0.164698 0.177525 0.173992
-0.157863 0.130983 0.187125
-0.150836 0.086125 0.180588
-0.158829 0.141612 0.188823
-0.148435 0.109478 0.189708
-0.156243 0.178171 0.188828
-0.181133 0.214837 0.177889
-0.164355 0.150930 0.158245
-0.152756 0.129429 0.184897
-0.164486 0.151286 0.180103
-0.171177 0.186774 0.182710
-0.152984 0.145264 0.176447
-0.101919 -0.003044 0.129670
-0.148691 -0.006687 0.169357
-0.134132 -0.004774 0.138177
-0.107164 -0.003328 0.187810
-0.073430 -0.003866 0.160662
-0.155390 -0.008401 0.153636
-0.073011 -0.001272 0.139406
-0.100160 -0.004108 0.112980
-0.093689 -0.005322 0.147832
-0.087625 -0.002313 0.135581
-0.109309 -0.006284 0.159675
-0.078773 -0.001951 0.120822
-0.118100 -0.005495 0.169828
-0.115165 -0.004738 0.139115
-0.086856 -0.001904 0.185300
-0.136265 -0.008937 0.179357
-0.064616 -0.001230 0.174309
-0.147559 -0.007487 0.129785
-0.084086 -0.001362 0.155524
-0.118467 -0.006462 0.123957
-0.103954 -0.002742 0.171478
-0.124371 -0.006461 0.186271
-0.108815 -0.003698 0.147333
-0.093904 -0.004854 0.177937
-0.114407 -0.005338 0.178982
-0.091350 -0.003430 0.166773
-0.138587 -0.005801 0.154198
-0.131370 -0.005641 0.112044
-0.080170 -0.002139 0.173836
-0.122686 -0.005999 0.154542
-0.131835 -0.003658 0.167833
-0.059474 -0.002332 0.152088
-0.153157 0.124754 0.181654
-0.166238 0.103498 0.187939
-0.171689 0.116656 0.187563
-0.155960 0.121699 0.187291
-0.150989 0.072601 0.187292
-0.175197 0.096910 0.187654
-0.153471 0.128748 0.184373
-0.150312 0.091514 0.179029
-0.150426 0.085046 0.187928
-0.151380 0.107403 0.178572
-0.157036 0.085423 0.189684
-0.150101 0.081798 0.182371
-0.153948 0.108983 0.188775
-0.149875 0.093114 0.185492
-0.152066 0.103726 0.187260
-0.165422 0.074502 0.188868
-0.153045 0.109643 0.182947
-0.168322 0.085783 0.188603
-0.155395 0.139708 0.187315
-0.151267 0.071869 0.185211
-0.151845 0.118606 0.185974
-0.159893 0.094119 0.187342
-0.151045 0.062383 0.187843
-0.151967 0.096093 0.188529
-0.153784 0.078591 0.188149
-0.153133 0.114384 0.187716
-0.167065 0.130956 0.188521
-0.154081 0.103447 0.184425
-0.151670 0.089045 0.185884
-0.157801 0.099653 0.188422
-0.160632 0.114433 0.188185
-0.152686 0.100072 0.180415
-0.108256 -0.011552 0.127772
-0.134958 -0.014513 0.162516
-0.127470 -0.013683 0.140126
-0.113324 -0.011625 0.180256
-0.095772 -0.009991 0.154036
-0.138219 -0.015535 0.150086
-0.094719 -0.009583 0.136961
-0.109622 -0.010232 0.109403
-0.108102 -0.011491 0.143099
-0.103032 -0.010032 0.136555
-0.109602 -0.011292 0.152667
-0.098012 -0.008367 0.119569
-0.117236 -0.012575 0.161106
-0.117674 -0.011572 0.134996
-0.101572 -0.009147 0.179921
-0.129381 -0.014704 0.174654
-0.090913 -0.008154 0.165727
-0.133252 -0.014231 0.128475
-0.102859 -0.010619 0.155380
-0.116788 -0.012400 0.122580
-0.112555 -0.011381 0.169400
-0.122686 -0.013282 0.182544
-0.117077 -0.011569 0.144462
-0.105768 -0.009980 0.171765
-0.118282 -0.012323 0.172785
-0.107782 -0.010774 0.162036
-0.127016 -0.014416 0.151752
-0.125720 -0.012966 0.113338
-0.098836 -0.008845 0.166509
-0.117830 -0.012120 0.153083
-0.125382 -0.012692 0.163462
-0.088138 -0.008366 0.148503
-0.099303 -0.003316 0.153133
-0.136448 -0.005437 0.179585
-0.122863 -0.004409 0.160132
-0.101648 -0.005622 0.188580
-0.076873 -0.002949 0.176746
-0.143000 -0.005424 0.170932
-0.074539 -0.001358 0.160027
-0.097687 -0.001936 0.138242
-0.094260 -0.001961 0.165862
-0.088163 -0.001840 0.158749
-0.103624 -0.002419 0.175297
-0.081879 0.000001 0.145125
-0.111022 -0.004171 0.180202
-0.108258 -0.002361 0.160717
-0.086555 -0.005767 0.187442
-0.126733 -0.007853 0.187544
-0.069246 -0.001355 0.183094
-0.134285 -0.003715 0.153467
-0.083218 -0.001962 0.172365
-0.109393 -0.002641 0.150891
-0.098348 -0.002900 0.181128
-0.116073 -0.008432 0.187592
-0.104869 -0.003403 0.170841
-0.092221 -0.002744 0.184551
-0.107546 -0.005877 0.185133
-0.088888 -0.002029 0.177857
-0.127535 -0.005584 0.173038
-0.119807 -0.003506 0.140915
-0.080144 -0.002144 0.182736
-0.113532 -0.002948 0.170834
-0.121618 -0.004434 0.179817
-0.063995 0.000128 0.170824
-0.156444 0.058005 0.143716
-0.158769 0.048307 0.180392
-0.157076 0.048884 0.167419
-0.156829 0.066475 0.180460
-0.158136 0.021700 0.177951
-0.159564 0.034436 0.175253
-0.157852 0.065913 0.156956
-0.157563 0.041997 0.135061
-0.157573 0.024746 0.164721
-0.156935 0.047839 0.151760
-0.157712 0.029332 0.173230
-0.159036 0.037921 0.152145
-0.156221 0.050311 0.174757
-0.156773 0.039363 0.161018
-0.157683 0.045425 0.183514
-0.158370 0.029430 0.179464
-0.157724 0.043775 0.177045
-0.157755 0.029346 0.159309
-0.157565 0.073871 0.175624
-0.157018 0.022849 0.151906
-0.156522 0.058311 0.168670
-0.157874 0.033748 0.183905
-0.157954 0.018444 0.168486
-0.156809 0.039224 0.180974
-0.157759 0.025209 0.182739
-0.156986 0.055608 0.184467
-0.156889 0.068505 0.168217
-0.157413 0.032571 0.143434
-0.157206 0.035431 0.167710
-0.156569 0.042333 0.170376
-0.157615 0.059152 0.177362
-0.159398 0.053592 0.162290
-0.167001 0.062927 0.076171
-0.175882 0.036834 0.158297
-0.177499 0.044981 0.107169
-0.164159 0.069774 0.166396
-0.155700 0.001034 0.138716
-0.181228 0.016491 0.136716
-0.157774 0.070461 0.103536
-0.162605 0.024863 0.055616
-0.158354 0.003906 0.109515
-0.159984 0.040610 0.087841
-0.167586 0.008807 0.127951
-0.157359 0.017744 0.086316
-0.161859 0.038651 0.138104
-0.163143 0.024743 0.106161
-0.161673 0.037658 0.175336
-0.173750 0.002925 0.150089
-0.156114 0.028738 0.147748
-0.177711 0.010170 0.101556
-0.161101 0.084649 0.136760
-0.168804 0.000050 0.087265
-0.162037 0.054805 0.123415
-0.171311 0.015038 0.179525
-0.167786 -0.006073 0.121320
-0.162880 0.019613 0.158521
-0.160288 0.003261 0.167213
-0.156364 0.053909 0.153355
-0.174709 0.076858 0.118862
-0.175777 0.022736 0.071998
-0.157995 0.019319 0.125157
-0.172641 0.030563 0.124103
-0.172029 0.058827 0.141495
-0.156536 0.040363 0.115421
-0.153658 0.051337 0.125772
-0.154231 0.044170 0.163173
-0.153906 0.045930 0.144711
-0.153890 0.058348 0.167235
-0.157359 0.025408 0.157835
-0.158480 0.034681 0.153552
-0.153543 0.057827 0.134565
-0.154503 0.042952 0.119388
-0.156806 0.029282 0.141768
-0.154364 0.045466 0.133171
-0.156614 0.030225 0.151296
-0.155739 0.039538 0.130440
-0.153844 0.045879 0.154189
-0.154825 0.040552 0.139887
-0.154707 0.044308 0.174549
-0.155459 0.032220 0.162120
-0.155961 0.038709 0.157656
-0.155433 0.033445 0.136585
-0.153063 0.062852 0.155722
-0.156186 0.026968 0.132295
-0.153487 0.053227 0.149164
-0.155752 0.034964 0.177606
-0.158007 0.023060 0.146309
-0.155344 0.038701 0.167011
-0.156821 0.029159 0.169793
-0.154075 0.049274 0.168799
-0.152211 0.061797 0.145035
-0.155347 0.032557 0.123478
-0.155366 0.036054 0.144284
-0.154610 0.041164 0.149195
-0.153618 0.053191 0.158511
-0.154669 0.051468 0.140098
-0.156780 0.155927 0.183333
-0.168966 0.131916 0.186757
-0.176123 0.145902 0.185804
-0.158877 0.150740 0.186512
-0.150326 0.097451 0.187086
-0.177113 0.125495 0.186113
-0.154262 0.158401 0.184927
-0.153047 0.118040 0.181520
-0.151077 0.112398 0.188073
-0.151067 0.135056 0.180605
-0.159344 0.111401 0.188892
-0.149967 0.107445 0.183319
-0.155527 0.137975 0.188536
-0.149538 0.119224 0.185919
-0.152674 0.131949 0.186417
-0.168188 0.100186 0.187544
-0.153193 0.138332 0.183079
-0.172272 0.112439 0.186825
-0.156961 0.170783 0.187329
-0.154560 0.096340 0.185694
-0.152742 0.148280 0.186211
-0.163182 0.121600 0.185576
-0.151451 0.086554 0.187253
-0.153404 0.123810 0.188419
-0.154527 0.104302 0.187082
-0.153336 0.143130 0.187685
-0.170902 0.161325 0.187619
-0.158127 0.133242 0.185260
-0.151335 0.115233 0.185590
-0.160792 0.127376 0.187955
-0.164562 0.143536 0.187698
-0.152629 0.126298 0.181333
-0.094766 -0.003846 0.134472
-0.134435 -0.005715 0.166735
-0.120902 -0.005121 0.142827
-0.098643 -0.005477 0.179849
-0.068476 -0.003399 0.159073
-0.140435 -0.005261 0.154275
-0.066508 -0.003525 0.139629
-0.093726 -0.003222 0.117605
-0.087742 -0.003508 0.148999
-0.081375 -0.003179 0.139699
-0.100107 -0.004188 0.158149
-0.074757 -0.002566 0.124231
-0.107484 -0.004701 0.164903
-0.105159 -0.003743 0.142258
-0.080607 -0.005211 0.179989
-0.123891 -0.006800 0.175265
-0.060750 -0.003016 0.169742
-0.132502 -0.005425 0.135980
-0.077866 -0.002544 0.156535
-0.107125 -0.004087 0.131745
-0.094693 -0.003175 0.167734
-0.114950 -0.007741 0.179241
-0.099603 -0.003067 0.150440
-0.087397 -0.003831 0.173256
-0.105245 -0.005982 0.174074
-0.084716 -0.003395 0.163816
-0.125030 -0.004895 0.155795
-0.118287 -0.005235 0.121091
-0.073900 -0.003519 0.168883
-0.111439 -0.004268 0.154407
-0.118980 -0.004380 0.164742
-0.053573 -0.002222 0.151806
-0.080925 -0.003005 0.173966
-0.114358 -0.006715 0.187583
-0.104930 -0.003632 0.175805
-0.081018 -0.003091 0.187760
-0.049878 -0.008668 0.187838
-0.126563 -0.005041 0.184780
-0.046986 -0.000221 0.179775
-0.074940 -0.000780 0.163945
-0.067302 -0.001995 0.183409
-0.065807 -0.001300 0.174779
-0.084457 -0.002437 0.186286
-0.055708 0.000405 0.170444
-0.090080 -0.004078 0.187284
-0.079927 -0.001747 0.180616
-0.064020 -0.005242 0.189155
-0.106610 -0.011478 0.188045
-0.040644 -0.001645 0.188316
-0.116560 -0.003081 0.176953
-0.057199 -0.000718 0.180996
-0.089902 -0.005712 0.180094
-0.072405 -0.001688 0.184371
-0.096385 -0.008412 0.188051
-0.077283 -0.010639 0.185659
-0.071815 -0.002769 0.187899
-0.081789 -0.007093 0.187188
-0.059100 -0.001674 0.186560
-0.106279 -0.003737 0.184163
-0.096793 -0.002196 0.166616
-0.051501 -0.002842 0.187430
-0.092792 -0.002203 0.181901
-0.100295 -0.003657 0.185830
-0.031686 -0.000374 0.185853
-0.156613 0.155373 0.175183
-0.167232 0.131565 0.189970
-0.172872 0.143436 0.186941
-0.157602 0.155126 0.189832
-0.147658 0.090447 0.189260
-0.174159 0.119486 0.188376
-0.154465 0.159937 0.185080
-0.150502 0.114169 0.167386
-0.147689 0.103192 0.188695
-0.149665 0.133941 0.173947
-0.154622 0.107427 0.192120
-0.147544 0.103618 0.179600
-0.153654 0.135910 0.190833
-0.148776 0.116496 0.184449
-0.152276 0.128837 0.188700
-0.163523 0.093241 0.189926
-0.152428 0.134342 0.184571
-0.166142 0.105392 0.185578
-0.158346 0.173190 0.191091
-0.149620 0.089028 0.179909
-0.151476 0.145934 0.185878
-0.160399 0.115301 0.188498
-0.148182 0.078184 0.188091
-0.151767 0.118522 0.190803
-0.151456 0.097034 0.190181
-0.153086 0.143785 0.190668
-0.170077 0.164547 0.191035
-0.157338 0.127363 0.177074
-0.148366 0.112576 0.186689
-0.157240 0.124515 0.190251
-0.163345 0.145018 0.190092
-0.151280 0.125980 0.181225
-0.157352 0.024863 0.018389
-0.159899 0.003468 0.143943
-0.159988 0.008360 0.084524
-0.156863 0.038126 0.161435
-0.159684 -0.018566 0.126694
-0.162387 -0.014437 0.116912
-0.160519 0.033754 0.053632
-0.158926 0.001588 -0.012519
-0.160662 -0.017063 0.072074
-0.159659 0.007695 0.044032
-0.160170 -0.017075 0.101705
-0.163385 -0.003869 0.028553
-0.157973 0.007697 0.119979
-0.159713 -0.002764 0.065941
-0.160397 0.006768 0.176023
-0.160351 -0.015061 0.142532
-0.162697 -0.006658 0.131708
-0.162055 -0.013470 0.056270
-0.159770 0.047312 0.119226
-0.161262 -0.019552 0.040120
-0.158134 0.022883 0.104632
-0.160890 -0.012230 0.186809
-0.162972 -0.018215 0.090078
-0.158657 -0.005583 0.155658
-0.159932 -0.017334 0.164923
-0.159029 0.017671 0.154577
-0.157508 0.040524 0.088867
-0.161984 -0.014771 0.007168
-0.160558 -0.007031 0.089635
-0.160025 0.000091 0.103188
-0.158619 0.024785 0.130974
-0.161986 0.015181 0.074355
-0.147351 0.096219 0.148683
-0.147661 0.089419 0.178032
-0.147286 0.089941 0.164820
-0.147874 0.104655 0.179618
-0.149235 0.064673 0.175123
-0.147790 0.077556 0.171451
-0.147391 0.103757 0.155893
-0.147988 0.085548 0.144919
-0.148858 0.068698 0.163028
-0.147846 0.089427 0.155341
-0.148949 0.071076 0.169949
-0.148699 0.081873 0.154222
-0.147530 0.091411 0.170955
-0.147762 0.083387 0.161125
-0.148581 0.086587 0.185284
-0.148438 0.074237 0.176686
-0.148549 0.084260 0.174351
-0.148116 0.074913 0.157863
-0.147677 0.110058 0.172430
-0.148417 0.065729 0.155027
-0.147457 0.098660 0.166565
-0.148724 0.076766 0.186043
-0.148998 0.060349 0.166582
-0.148273 0.081698 0.180083
-0.149377 0.068360 0.182058
-0.148053 0.095009 0.183053
-0.146804 0.108276 0.163622
-0.147598 0.074737 0.148338
-0.148096 0.077211 0.164325
-0.147868 0.084037 0.167409
-0.147621 0.098692 0.174020
-0.148254 0.095852 0.159943
-0.069559 -0.005886 0.165136
-0.104298 -0.008650 0.183884
-0.091485 -0.008106 0.169144
-0.072007 -0.005368 0.189351
-0.045930 -0.005463 0.180722
-0.109618 -0.009333 0.177288
-0.046423 -0.003486 0.169393
-0.068287 -0.005310 0.156336
-0.062911 -0.006292 0.174588
-0.059217 -0.004952 0.167511
-0.074740 -0.006154 0.180871
-0.052964 -0.003419 0.160432
-0.080121 -0.007017 0.184147
-0.077500 -0.006840 0.169662
-0.057621 -0.004255 0.187137
-0.094180 -0.009500 0.187711
-0.038524 -0.002336 0.186391
-0.102053 -0.008015 0.165234
-0.053584 -0.004131 0.178276
-0.078975 -0.006149 0.162096
-0.067772 -0.005237 0.183424
-0.085154 -0.008079 0.187533
-0.071979 -0.005172 0.175456
-0.062561 -0.004833 0.186320
-0.075529 -0.007213 0.186216
-0.058003 -0.005146 0.182041
-0.095209 -0.008707 0.179302
-0.088481 -0.007194 0.156469
-0.050608 -0.003492 0.185664
-0.084063 -0.006653 0.177286
-0.089598 -0.006699 0.183922
-0.033991 -0.002560 0.176568
-0.182765 0.250301 0.149909
-0.176237 0.223086 0.187706
-0.183592 0.232815 0.168068
-0.179826 0.257773 0.189385
-0.148409 0.162910 0.183705
-0.178271 0.204370 0.182341
-0.177537 0.256472 0.169407
-0.165518 0.199134 0.139608
-0.158145 0.175258 0.173317
-0.170249 0.221181 0.155044
-0.163606 0.185796 0.182400
-0.159353 0.186953 0.162465
-0.172837 0.227857 0.184191
-0.167045 0.200600 0.170003
-0.166504 0.218117 0.187965
-0.165623 0.173248 0.184495
-0.161441 0.216642 0.184677
-0.169268 0.188238 0.166317
-0.187607 0.280412 0.184030
-0.157150 0.165078 0.156202
-0.175883 0.237515 0.172002
-0.164063 0.194620 0.186991
-0.152708 0.148156 0.178014
-0.166369 0.205164 0.188743
-0.153473 0.171413 0.188910
-0.167993 0.239165 0.188862
-0.192183 0.268465 0.174891
-0.170582 0.211638 0.152921
-0.160209 0.193565 0.181744
-0.172105 0.214774 0.177470
-0.183156 0.246936 0.181862
-0.162894 0.210971 0.170121
-0.119093 -0.012951 0.085660
-0.143778 -0.015005 0.127760
-0.137546 -0.014279 0.100577
-0.123647 -0.013196 0.152511
-0.108699 -0.011651 0.116900
-0.146794 -0.016397 0.112267
-0.107138 -0.011504 0.096022
-0.120713 -0.011592 0.064574
-0.120541 -0.012568 0.102777
-0.114427 -0.011789 0.096504
-0.117747 -0.012511 0.113596
-0.110577 -0.010446 0.076287
-0.126622 -0.013697 0.124139
-0.127886 -0.012747 0.092480
-0.111223 -0.011217 0.153138
-0.138749 -0.015495 0.143681
-0.102210 -0.010487 0.131136
-0.142057 -0.014644 0.086718
-0.115519 -0.012655 0.119645
-0.127076 -0.013220 0.079452
-0.124156 -0.013128 0.137198
-0.132250 -0.014381 0.157789
-0.129305 -0.012667 0.104350
-0.116599 -0.011724 0.141139
-0.130236 -0.013425 0.141916
-0.120116 -0.012643 0.128156
-0.135804 -0.015423 0.113525
-0.135035 -0.013531 0.069578
-0.110357 -0.011203 0.130920
-0.126125 -0.013101 0.115477
-0.134745 -0.013797 0.128824
-0.101530 -0.010643 0.109318
0.171863 -0.372810 0.199234
0.078867 -0.377676 0.208526
0.108115 -0.375869 0.197740
0.171446 -0.374826 0.209135
0.219342 -0.377642 0.203616
0.038382 -0.374022 0.203549
0.221437 -0.370163 0.198126
0.181725 -0.374045 0.194921
0.196038 -0.374114 0.201139
0.200758 -0.372093 0.197926
0.160960 -0.376911 0.203360
0.212494 -0.374580 0.196341
0.147836 -0.373297 0.206831
0.174208 -0.373704 0.205591
0.198049 -0.372677 0.206574
0.108198 -0.378972 0.206670
0.223878 -0.369421 0.207650
0.072266 -0.374682 0.199166
0.211965 -0.369010 0.200458
0.148764 -0.380512 0.201788
0.182119 -0.370974 0.204147
0.134120 -0.378779 0.209729
0.188581 -0.375653 0.203356
0.188571 -0.375027 0.209444
0.166804 -0.380141 0.209806
0.203964 -0.371395 0.204181
0.093016 -0.374813 0.204820
0.139501 -0.374310 0.197762
0.212298 -0.373567 0.206171
0.136728 -0.372301 0.201420
0.123805 -0.373270 0.205302
0.233692 -0.369306 0.198893
-0.040366 -0.000285 0.181850
-0.073146 -0.008188 0.187269
-0.067164 -0.004266 0.182248
-0.041671 -0.001580 0.186779
-0.005834 -0.004700 0.186738
-0.087500 -0.007191 0.186515
-0.006569 0.000076 0.184732
-0.036314 -0.003635 0.174298
-0.024478 -0.004636 0.186134
-0.023387 -0.003341 0.180683
-0.044624 -0.004698 0.186709
-0.015126 -0.002000 0.178204
-0.048196 -0.005363 0.187199
-0.037286 -0.004663 0.184898
-0.025029 -0.001936 0.187832
-0.064296 -0.007933 0.186553
0.003111 -0.002160 0.187700
-0.076922 -0.006282 0.182535
-0.017895 0.001180 0.184478
-0.051084 -0.005394 0.183361
-0.031017 -0.001300 0.185254
-0.057054 -0.006450 0.187678
-0.032730 -0.005481 0.183907
-0.032015 -0.003856 0.187533
-0.042191 -0.004209 0.186636
-0.017712 -0.002267 0.187587
-0.064914 -0.002205 0.185503
-0.055399 -0.004272 0.175686
-0.010313 -0.002563 0.187407
-0.053834 -0.005368 0.185056
-0.058211 -0.003715 0.185751
0.012203 -0.002159 0.186857
-0.162649 0.026792 0.031920
-0.170328 -0.005753 0.115354
-0.171067 0.006345 0.060077
-0.161056 0.033462 0.126146
-0.147780 -0.023625 0.093597
-0.180927 -0.019262 0.090014
-0.155467 0.030919 0.056709
-0.157770 -0.011083 0.012929
-0.152628 -0.022595 0.061661
-0.158463 0.001227 0.043402
-0.161577 -0.020486 0.081169
-0.151492 -0.016504 0.038557
-0.158291 -0.001179 0.092888
-0.160320 -0.011476 0.059224
-0.158330 0.001000 0.140027
-0.165083 -0.024646 0.107731
-0.150592 -0.013804 0.105199
-0.172997 -0.021500 0.053636
-0.160035 0.051753 0.091614
-0.161893 -0.025094 0.042652
-0.159638 0.016604 0.076853
-0.164594 -0.019244 0.148340
-0.160395 -0.025131 0.074565
-0.158826 -0.015283 0.119475
-0.154258 -0.023831 0.129978
-0.154026 0.013713 0.111493
-0.169257 0.043719 0.070822
-0.168715 -0.014187 0.026844
-0.155477 -0.013833 0.078898
-0.167578 -0.006288 0.077967
-0.166204 0.021445 0.097691
-0.149858 -0.000695 0.066795
-0.028276 -0.002092 0.160281
-0.074291 -0.004669 0.182107
-0.058987 -0.004376 0.163313
-0.031899 -0.000910 0.189701
0.004814 -0.002546 0.177759
-0.082483 -0.005467 0.173512
0.002752 -0.000382 0.165329
-0.025325 -0.002282 0.151351
-0.017399 -0.003533 0.171952
-0.013489 -0.001382 0.162281
-0.035714 -0.004100 0.178286
-0.004699 -0.001161 0.154983
-0.043751 -0.003461 0.183062
-0.038483 -0.003630 0.165727
-0.013067 0.000743 0.187540
-0.060413 -0.006190 0.185448
0.012866 0.000596 0.185542
-0.072195 -0.004637 0.160347
-0.007420 -0.000264 0.174323
-0.041351 -0.004145 0.157149
-0.026535 -0.001242 0.180996
-0.049483 -0.003326 0.187216
-0.028848 -0.001826 0.170100
-0.019049 -0.002369 0.185208
-0.036606 -0.004160 0.185215
-0.013210 -0.002774 0.180194
-0.064439 -0.004089 0.175314
-0.052865 -0.003264 0.150109
-0.003201 -0.000467 0.184163
-0.048209 -0.003410 0.173771
-0.055536 -0.002519 0.181264
0.018829 -0.000592 0.172329
-0.147918 0.084381 0.115462
-0.147948 0.077716 0.149143
-0.148194 0.078532 0.131856
-0.148607 0.093080 0.152762
-0.150386 0.052623 0.144995
-0.150262 0.065578 0.139860
-0.148025 0.092574 0.122339
-0.148508 0.074823 0.111129
-0.149822 0.057355 0.130074
-0.148617 0.077916 0.122592
-0.149836 0.058829 0.138898
-0.149387 0.070677 0.120405
-0.148166 0.079499 0.140258
-0.148696 0.071932 0.128205
-0.148805 0.076142 0.160600
-0.148907 0.062488 0.148007
-0.149665 0.071112 0.144403
-0.148729 0.063207 0.124545
-0.148084 0.097987 0.142302
-0.149249 0.054252 0.121731
-0.148011 0.087625 0.135603
-0.149212 0.065246 0.162205
-0.150174 0.049268 0.133854
-0.149250 0.070458 0.153014
-0.149951 0.057100 0.155377
-0.148606 0.083157 0.155859
-0.147008 0.097335 0.131535
-0.148633 0.062494 0.113697
-0.148789 0.065561 0.131739
-0.148568 0.072669 0.135886
-0.148203 0.087264 0.144590
-0.148872 0.085672 0.127262
-0.182014 0.240644 0.155606
-0.178489 0.214893 0.188850
-0.184892 0.224334 0.171643
-0.179438 0.245392 0.190542
-0.148370 0.160656 0.186488
-0.178213 0.198866 0.184187
-0.174708 0.245105 0.175243
-0.166324 0.192739 0.146639
-0.157940 0.172645 0.178784
-0.168124 0.213645 0.160555
-0.164359 0.181372 0.185745
-0.157803 0.181028 0.167863
-0.171973 0.218306 0.187225
-0.165654 0.193121 0.174622
-0.166289 0.210180 0.188553
-0.167615 0.169012 0.186784
-0.160067 0.209423 0.186870
-0.170706 0.182814 0.171111
-0.185462 0.267010 0.187189
-0.158860 0.160789 0.162655
-0.174204 0.227477 0.176655
-0.166672 0.189692 0.187432
-0.153796 0.146398 0.182411
-0.166430 0.197700 0.189833
-0.154938 0.167911 0.189676
-0.167095 0.228596 0.189823
-0.191978 0.255660 0.179809
-0.172395 0.205782 0.158494
-0.159039 0.188234 0.184828
-0.172422 0.206757 0.181107
-0.183610 0.235625 0.184859
-0.160807 0.202631 0.175365
-0.076653 -0.011556 0.109585
-0.110410 -0.014813 0.142254
-0.100252 -0.013638 0.118035
-0.081162 -0.011296 0.166465
-0.059105 -0.009133 0.134389
-0.113975 -0.015655 0.126961
-0.059307 -0.008885 0.116986
-0.078185 -0.009778 0.093188
-0.076123 -0.011418 0.123435
-0.069055 -0.009950 0.118024
-0.077442 -0.011228 0.133284
-0.064840 -0.008215 0.101277
-0.086832 -0.012495 0.141948
-0.088791 -0.011618 0.113769
-0.065671 -0.008401 0.165659
-0.102295 -0.014777 0.157696
-0.052947 -0.007544 0.147652
-0.108583 -0.014156 0.106971
-0.068263 -0.010714 0.135899
-0.086804 -0.012132 0.101163
-0.080978 -0.011363 0.152594
-0.093593 -0.013234 0.167651
-0.087399 -0.010582 0.122565
-0.071390 -0.009964 0.154949
-0.088692 -0.012048 0.155634
-0.075155 -0.011042 0.142510
-0.100837 -0.015048 0.131482
-0.098313 -0.013085 0.094225
-0.062922 -0.008585 0.149817
-0.088178 -0.011902 0.132149
-0.097768 -0.012670 0.144105
-0.050633 -0.007837 0.129019
-0.195601 0.312435 0.159185
-0.189038 0.292328 0.184367
-0.194393 0.300063 0.172633
-0.193242 0.317117 0.185891
-0.163687 0.244652 0.183972
-0.189511 0.278777 0.182505
-0.193401 0.316484 0.173134
-0.179806 0.270968 0.152443
-0.171600 0.255729 0.178170
-0.183937 0.289385 0.164613
-0.175655 0.262258 0.183765
-0.174679 0.262071 0.170070
-0.187039 0.295472 0.184246
-0.179114 0.272951 0.174862
-0.181404 0.287927 0.184484
-0.177650 0.254145 0.183981
-0.176792 0.287793 0.182318
-0.181513 0.264220 0.171747
-0.201982 0.333704 0.183062
-0.170176 0.246265 0.165477
-0.190132 0.302541 0.176032
-0.178438 0.269878 0.183573
-0.163995 0.232915 0.180816
-0.180119 0.278714 0.186136
-0.168147 0.251280 0.185562
-0.184939 0.302175 0.186406
-0.204755 0.325078 0.177537
-0.182946 0.282747 0.161374
-0.174794 0.268403 0.182600
-0.183677 0.284518 0.180291
-0.195242 0.310106 0.182745
-0.178311 0.279506 0.173783
-0.154446 0.048688 0.084441
-0.154521 0.041882 0.121921
-0.154493 0.043711 0.103047
-0.154706 0.055609 0.128193
-0.156906 0.024604 0.116274
-0.158027 0.032781 0.111659
-0.154168 0.054847 0.092465
-0.155084 0.040988 0.077421
-0.156676 0.028468 0.099565
-0.154912 0.043184 0.091664
-0.156687 0.028886 0.109062
-0.155650 0.037863 0.088001
-0.154644 0.043528 0.112802
-0.155400 0.038709 0.098097
-0.154934 0.042399 0.136358
-0.155415 0.030983 0.121354
-0.156143 0.036558 0.116742
-0.155658 0.032204 0.094398
-0.153881 0.060072 0.114412
-0.156044 0.025847 0.090043
-0.154259 0.050610 0.107722
-0.155725 0.033439 0.140754
-0.157551 0.021871 0.103892
-0.155630 0.036843 0.127548
-0.156571 0.028212 0.130705
-0.154464 0.046677 0.128795
-0.153230 0.059115 0.103009
-0.155534 0.030852 0.081222
-0.155434 0.034416 0.102427
-0.155090 0.039045 0.107733
-0.154409 0.050613 0.117874
-0.154778 0.048911 0.098267
-0.157929 0.230530 0.173461
-0.169507 0.214495 0.185709
-0.171899 0.224504 0.185048
-0.161003 0.230392 0.185039
-0.152025 0.186452 0.185286
-0.177450 0.207628 0.185273
-0.159863 0.234794 0.179939
-0.152798 0.204934 0.167376
-0.151833 0.196433 0.184054
-0.154865 0.216667 0.172041
-0.156555 0.198720 0.187200
-0.152818 0.196621 0.176403
-0.157149 0.218082 0.185777
-0.152849 0.205358 0.181033
-0.156686 0.214617 0.185405
-0.164763 0.189512 0.186610
-0.157558 0.217019 0.180663
-0.167013 0.197857 0.185389
-0.161904 0.242646 0.184798
-0.150684 0.186223 0.179016
-0.156649 0.225891 0.182430
-0.160654 0.205128 0.185698
-0.150475 0.178261 0.184464
-0.154338 0.207938 0.185996
-0.154248 0.191899 0.185868
-0.158047 0.222637 0.185389
-0.171301 0.236769 0.186410
-0.155413 0.210998 0.175423
-0.153500 0.202488 0.182391
-0.159138 0.210862 0.185225
-0.163687 0.223511 0.185614
-0.156865 0.213198 0.176696
-0.150137 0.182874 0.147592
-0.148787 0.176166 0.178816
-0.148749 0.176859 0.164854
-0.151380 0.192910 0.180054
-0.146473 0.148382 0.176149
-0.146708 0.162030 0.171673
-0.151533 0.192225 0.154550
-0.149283 0.171942 0.143645
-0.147093 0.152681 0.163079
-0.149312 0.176010 0.155312
-0.147292 0.154788 0.170680
-0.148857 0.168031 0.153948
-0.149088 0.178398 0.171183
-0.148117 0.168946 0.161187
-0.149774 0.173345 0.186016
-0.147226 0.159147 0.177345
-0.149349 0.170917 0.174696
-0.147253 0.159220 0.157162
-0.152381 0.198666 0.172472
-0.146450 0.148743 0.154370
-0.150245 0.186577 0.166888
-0.147917 0.161530 0.185691
-0.145813 0.142893 0.166689
-0.148185 0.168190 0.180627
-0.147236 0.152033 0.182409
-0.150301 0.183255 0.184918
-0.150816 0.196039 0.163241
-0.147093 0.159458 0.147466
-0.147509 0.162315 0.164362
