-0.044134 -0.473392 -0.012302
-0.050573 -0.470490 -0.012979
-0.049785 -0.462531 -0.013119
-0.043468 -0.470751 -0.011831
-0.045511 -0.424542 0.006547
-0.054996 -0.436805 0.007335
-0.057547 -0.429369 0.006448
-0.048167 -0.428029 0.007921
-0.041079 -0.459263 0.007823
-0.059986 -0.439090 0.007305
-0.041144 -0.424525 0.006446
-0.046834 -0.442628 0.006767
-0.043742 -0.447965 0.007341
-0.040639 -0.435485 0.005302
-0.049647 -0.448862 0.008246
-0.042343 -0.448843 0.005553
-0.045258 -0.433385 0.008275
-0.042313 -0.442111 0.007201
-0.044377 -0.436006 0.007296
-0.055535 -0.454894 0.007663
-0.040461 -0.433022 0.006229
-0.057772 -0.446985 0.006947
-0.044097 -0.420287 0.007949
-0.048179 -0.457977 0.006298
-0.044267 -0.427562 0.007422
-0.052558 -0.442762 0.007034
-0.045153 -0.465813 0.007710
-0.045112 -0.440095 0.007805
-0.046338 -0.454283 0.008036
-0.042847 -0.431274 0.007296
-0.053353 -0.425407 0.008061
-0.047537 -0.434437 0.007232
-0.041252 -0.445826 0.007246
-0.049843 -0.438426 0.007652
-0.051427 -0.431757 0.007758
-0.040411 -0.439734 0.005178
-0.046564 -0.426713 0.007182
-0.054360 -0.439006 0.007763
-0.057355 -0.433071 0.006408
-0.048932 -0.431023 0.008412
-0.039551 -0.457802 0.008492
-0.058241 -0.441592 0.006803
-0.038974 -0.427307 0.007307
-0.046480 -0.445878 0.005572
-0.041671 -0.448684 0.008989
-0.038285 -0.437416 0.005170
-0.050045 -0.449257 0.009600
-0.039082 -0.450353 0.006302
-0.044756 -0.435930 0.008863
-0.040312 -0.443932 0.008288
-0.043281 -0.439300 0.007999
-0.054863 -0.455710 0.008511
-0.038885 -0.435174 0.006200
-0.057426 -0.448776 0.006508
-0.043018 -0.422882 0.008611
-0.048748 -0.457774 0.008574
-0.042957 -0.430796 0.008427
-0.053336 -0.444928 0.007855
-0.044179 -0.463578 0.009151
-0.044843 -0.442957 0.008951
-0.046045 -0.454136 0.008531
-0.041134 -0.433386 0.008003
-0.053641 -0.427456 0.007854
-0.050321 -0.436259 0.007163
-0.038759 -0.446471 0.007231
-0.050486 -0.441056 0.008771
-0.052239 -0.434532 0.008388
-0.038376 -0.441567 0.005168
-0.039230 -0.458558 -0.010395
-0.035541 -0.461194 -0.005374
-0.037273 -0.460562 -0.008905
-0.035945 -0.456518 -0.004115
-0.036213 -0.470979 -0.004769
-0.035878 -0.464179 -0.006441
-0.038752 -0.455918 -0.008476
-0.039998 -0.462638 -0.010752
-0.036693 -0.468680 -0.007190
-0.038282 -0.461622 -0.009429
-0.037045 -0.467952 -0.006047
-0.038545 -0.464440 -0.008285
-0.036578 -0.459523 -0.005950
-0.037511 -0.463380 -0.007296
-0.035657 -0.460922 -0.002907
-0.035318 -0.466277 -0.004568
-0.036340 -0.461752 -0.005356
-0.037270 -0.466467 -0.008584
-0.037286 -0.452904 -0.006120
-0.037966 -0.470435 -0.009645
-0.037404 -0.458507 -0.007870
-0.035340 -0.464859 -0.002971
-0.036381 -0.474091 -0.006029
-0.035896 -0.463250 -0.004020
-0.035405 -0.468228 -0.003360
-0.036087 -0.458888 -0.003897
-0.037588 -0.454851 -0.008173
-0.038857 -0.464529 -0.009631
-0.036686 -0.465290 -0.006744
-0.036334 -0.462436 -0.006705
-0.036836 -0.457227 -0.006005
-0.038500 -0.460886 -0.007837
-0.047842 -0.446893 -0.013081
-0.052007 -0.455284 -0.011567
-0.052729 -0.451511 -0.012688
-0.049312 -0.449735 -0.010239
-0.043256 -0.466800 -0.012753
-0.055143 -0.458697 -0.010873
-0.044475 -0.447979 -0.011731
-0.048367 -0.460349 -0.013020
-0.046369 -0.462816 -0.013437
-0.044868 -0.455640 -0.012882
-0.049471 -0.462619 -0.012849
-0.044622 -0.462520 -0.013242
-0.046146 -0.453463 -0.013530
-0.045957 -0.458395 -0.013251
-0.046397 -0.456089 -0.009706
-0.052053 -0.466637 -0.011996
-0.042772 -0.452880 -0.011677
-0.052443 -0.461688 -0.012842
-0.046354 -0.443711 -0.012537
-0.048433 -0.467400 -0.013717
-0.047185 -0.450256 -0.013169
-0.050582 -0.459690 -0.009311
-0.046761 -0.470811 -0.012841
-0.047396 -0.457319 -0.013404
-0.047278 -0.465143 -0.010212
-0.045574 -0.451934 -0.013124
-0.051845 -0.446231 -0.012240
-0.048393 -0.454605 -0.013130
-0.043574 -0.460144 -0.012298
-0.050215 -0.457325 -0.013232
-0.049536 -0.451919 -0.013276
-0.042806 -0.457963 -0.012040
-0.045095 -0.466912 -0.013708
-0.041190 -0.489589 -0.004570
-0.043491 -0.483426 -0.009377
-0.039892 -0.462521 0.001245
-0.039056 -0.496651 -0.001924
-0.051338 -0.494110 -0.007905
-0.040936 -0.463194 -0.007845
-0.048473 -0.492710 -0.016230
-0.040035 -0.495988 -0.006231
-0.042033 -0.485051 -0.012156
-0.040104 -0.493370 -0.005673
-0.042935 -0.493509 -0.011170
-0.039394 -0.481581 -0.004367
-0.041271 -0.493559 -0.008638
-0.039913 -0.484923 0.002667
-0.042012 -0.495129 -0.001510
-0.039182 -0.490679 -0.001983
-0.048614 -0.499605 -0.011959
-0.041366 -0.442891 -0.002724
-0.045734 -0.495941 -0.010334
-0.040529 -0.476044 -0.008585
-0.040239 -0.495412 0.004332
-0.044623 -0.495983 -0.006943
-0.038601 -0.490506 -0.000274
-0.038822 -0.494840 0.001165
-0.039093 -0.479241 -0.001959
-0.043004 -0.451661 -0.008901
-0.047369 -0.490342 -0.014792
-0.038907 -0.493069 -0.006219
-0.041938 -0.490356 -0.005378
-0.040947 -0.469983 -0.005708
-0.041011 -0.486214 -0.007360
-0.041734 -0.416212 0.006314
-0.049853 -0.424887 0.008693
-0.051539 -0.420300 0.007689
-0.044142 -0.419166 0.007739
-0.038273 -0.435883 0.007404
-0.052053 -0.427311 0.008593
-0.038259 -0.416602 0.006168
-0.040600 -0.429955 0.004394
-0.038258 -0.431773 0.008260
-0.037086 -0.423625 0.003455
-0.044227 -0.431227 0.009273
-0.037466 -0.432427 0.004555
-0.041491 -0.423706 0.008325
-0.038178 -0.428285 0.007010
-0.041071 -0.425920 0.007069
-0.048657 -0.435707 0.008876
-0.038910 -0.422907 0.004962
-0.050408 -0.431409 0.008013
-0.040687 -0.412914 0.007842
-0.041374 -0.435782 0.007853
-0.039990 -0.419703 0.007452
-0.047595 -0.429079 0.008399
-0.039929 -0.438961 0.008444
-0.041151 -0.429024 0.008403
-0.042108 -0.433955 0.008053
-0.039529 -0.421525 0.007543
-0.048662 -0.416255 0.008674
-0.044570 -0.424096 0.006940
-0.038101 -0.429412 0.006233
-0.045104 -0.426692 0.008595
-0.046664 -0.422160 0.008347
-0.038401 -0.426844 0.003448
-0.047573 -0.359498 0.005233
-0.055924 -0.379696 0.007191
-0.058129 -0.367868 0.004863
-0.050280 -0.365271 0.006376
-0.041033 -0.405485 0.006207
-0.059477 -0.383294 0.007780
-0.043215 -0.357727 0.004345
-0.047494 -0.388279 0.005766
-0.045089 -0.393165 0.006890
-0.042952 -0.377818 0.004074
-0.051338 -0.394753 0.008327
-0.045015 -0.394938 0.003882
-0.047625 -0.375179 0.008262
-0.044250 -0.387169 0.005901
-0.044751 -0.378819 0.005445
-0.055962 -0.400041 0.006332
-0.041176 -0.374360 0.004884
-0.057919 -0.392859 0.006794
-0.047592 -0.347999 0.006323
-0.048639 -0.403559 0.005713
-0.045976 -0.366959 0.006352
-0.052395 -0.387713 0.006272
-0.045847 -0.412730 0.006133
-0.046285 -0.383975 0.006997
-0.046722 -0.399241 0.006708
-0.042947 -0.371735 0.006453
-0.056236 -0.357362 0.007340
-0.048978 -0.376640 0.006664
-0.043127 -0.390296 0.006508
-0.051018 -0.381305 0.006501
-0.054098 -0.371766 0.007451
-0.042262 -0.386083 0.003682
-0.045315 -0.403201 0.006858
-0.053446 -0.415361 0.007576
-0.055748 -0.408565 0.006618
-0.047660 -0.407017 0.007482
-0.039953 -0.432728 0.007416
-0.056721 -0.417332 0.007686
-0.040682 -0.403277 0.006345
-0.045544 -0.421552 0.007330
-0.042472 -0.424452 0.007604
-0.040240 -0.414645 0.005629
-0.047838 -0.425721 0.008216
-0.041355 -0.426407 0.005620
-0.044774 -0.412608 0.008208
-0.041498 -0.420857 0.006933
-0.043502 -0.415522 0.006851
-0.052333 -0.429568 0.007635
-0.040000 -0.412078 0.005964
-0.054707 -0.424299 0.007635
-0.043716 -0.397883 0.007561
-0.045592 -0.432227 0.006746
-0.043850 -0.407109 0.007440
-0.050661 -0.420516 0.006941
-0.042984 -0.437037 0.007415
-0.044378 -0.419242 0.007664
-0.045135 -0.429246 0.007573
-0.042277 -0.410558 0.007066
-0.052636 -0.403317 0.008043
-0.046538 -0.413670 0.008039
-0.040808 -0.423389 0.006831
-0.048532 -0.417253 0.007616
-0.050215 -0.410548 0.007686
-0.040006 -0.418825 0.004696
-0.045433 -0.452779 -0.007828
-0.041223 -0.464690 0.000172
-0.040824 -0.462574 -0.003599
-0.044269 -0.447664 0.004475
-0.041012 -0.486361 0.001130
-0.038932 -0.473229 -0.000970
-0.044682 -0.446129 -0.004481
-0.048394 -0.472372 -0.007901
-0.042047 -0.482211 -0.002590
-0.045019 -0.465677 -0.006958
-0.042379 -0.478827 -0.000725
-0.044993 -0.476159 -0.005808
-0.043151 -0.460699 -0.000211
-0.043028 -0.473992 -0.003710
-0.043861 -0.465894 0.002949
-0.040208 -0.478199 0.000242
-0.042907 -0.467089 0.000302
-0.040450 -0.481099 -0.004928
-0.044595 -0.432509 0.001398
-0.043097 -0.483983 -0.006185
-0.043643 -0.456256 -0.004040
-0.041471 -0.476024 0.004304
-0.041129 -0.486996 -0.002787
-0.042847 -0.471404 0.002542
-0.042197 -0.481692 0.002929
-0.043833 -0.458008 0.003738
-0.044074 -0.441913 -0.003252
-0.045190 -0.473136 -0.007435
-0.042892 -0.476149 -0.002207
-0.042150 -0.469117 -0.001391
-0.043299 -0.451879 -0.000270
-0.044785 -0.465414 -0.004519
-0.043664 -0.442681 -0.011054
-0.042367 -0.463088 -0.010998
-0.045703 -0.455867 -0.011931
-0.041512 -0.444203 -0.007343
-0.038413 -0.491572 -0.007738
-0.046211 -0.472504 -0.011796
-0.040785 -0.438785 -0.007558
-0.045350 -0.477340 -0.010119
-0.040173 -0.484065 -0.009750
-0.041607 -0.463434 -0.009907
-0.042293 -0.482157 -0.010305
-0.042270 -0.482009 -0.009327
-0.041311 -0.456088 -0.008644
-0.040326 -0.475868 -0.009117
-0.038929 -0.466633 -0.009058
-0.041070 -0.484509 -0.010601
-0.039264 -0.459869 -0.006385
-0.044914 -0.482691 -0.012282
-0.041668 -0.423961 -0.008633
-0.040674 -0.489564 -0.010945
-0.041557 -0.451003 -0.009751
-0.038942 -0.475657 -0.009748
-0.039210 -0.493515 -0.009761
-0.039669 -0.469773 -0.008731
-0.039085 -0.486466 -0.008229
-0.039954 -0.453567 -0.006935
-0.047043 -0.433924 -0.010897
-0.043145 -0.464095 -0.011545
-0.038815 -0.479289 -0.007544
-0.041826 -0.469179 -0.010988
-0.043467 -0.448856 -0.010191
-0.040328 -0.468782 -0.007021
-0.040280 -0.445675 -0.010562
-0.035535 -0.448465 -0.004753
-0.037725 -0.447694 -0.009175
-0.036053 -0.443397 -0.003054
-0.036044 -0.457137 -0.004367
-0.035793 -0.450944 -0.006130
-0.039590 -0.443125 -0.008706
-0.040873 -0.449220 -0.010997
-0.037069 -0.455418 -0.007172
-0.039043 -0.448220 -0.009672
-0.037017 -0.454809 -0.005867
-0.039092 -0.450857 -0.008484
-0.036557 -0.446692 -0.005884
-0.037634 -0.450159 -0.007524
-0.035406 -0.447426 -0.001234
-0.035112 -0.453261 -0.003714
-0.036401 -0.448995 -0.004708
-0.037668 -0.453307 -0.008974
-0.037601 -0.440650 -0.005735
-0.038442 -0.456999 -0.009664
-0.037614 -0.445264 -0.008010
-0.035113 -0.451676 -0.001325
-0.036426 -0.460086 -0.006177
-0.035737 -0.450132 -0.003000
-0.034988 -0.454690 -0.002125
-0.035736 -0.445631 -0.002743
-0.037736 -0.442161 -0.008187
-0.039517 -0.451519 -0.009830
-0.036696 -0.452084 -0.006755
-0.036495 -0.449297 -0.006467
-0.036828 -0.444246 -0.005174
-0.038852 -0.447595 -0.008156
-0.048888 -0.436703 -0.012962
-0.053813 -0.444919 -0.010630
-0.054002 -0.441725 -0.012179
-0.051076 -0.439383 -0.007669
-0.043529 -0.458771 -0.012823
-0.056748 -0.449270 -0.009950
-0.044564 -0.437981 -0.011746
-0.049398 -0.450728 -0.012771
-0.047475 -0.454304 -0.013490
-0.044936 -0.445523 -0.012900
-0.051081 -0.453522 -0.012580
-0.044741 -0.453200 -0.013194
-0.047114 -0.443280 -0.013615
-0.046765 -0.447979 -0.013400
-0.047419 -0.446137 -0.006526
-0.054138 -0.458699 -0.011304
-0.042399 -0.442389 -0.011620
-0.053939 -0.452118 -0.012399
-0.047064 -0.434039 -0.012449
-0.050086 -0.459532 -0.013363
-0.048536 -0.439918 -0.013255
-0.052464 -0.449958 -0.005961
-0.047987 -0.463697 -0.012552
-0.048914 -0.447160 -0.012952
-0.049022 -0.456963 -0.007602
-0.046660 -0.441517 -0.013202
-0.053079 -0.436457 -0.011853
-0.049877 -0.444448 -0.013001
-0.043740 -0.450346 -0.012328
-0.052148 -0.447521 -0.012909
-0.050898 -0.441261 -0.012824
-0.042037 -0.448149 -0.012068
-0.047381 -0.429660 0.005319
-0.055295 -0.442899 0.005002
-0.055399 -0.435361 0.005273
-0.050617 -0.432808 0.006805
-0.044070 -0.470909 0.005729
-0.056097 -0.446706 0.007789
-0.047038 -0.426089 0.004600
-0.047833 -0.449219 0.003716
-0.045656 -0.457698 0.005122
-0.045997 -0.443274 0.002712
-0.050661 -0.457437 0.007652
-0.046145 -0.457808 0.002096
-0.047860 -0.441759 0.007166
-0.046335 -0.451010 0.005434
-0.049245 -0.444598 0.005868
-0.053695 -0.463531 0.006548
-0.046178 -0.441952 0.003556
-0.055812 -0.455634 0.005901
-0.049449 -0.420404 0.006587
-0.048902 -0.466671 0.004689
-0.047781 -0.433870 0.005318
-0.052659 -0.450569 0.006887
-0.046926 -0.477542 0.006718
-0.047192 -0.447762 0.006120
-0.048973 -0.464755 0.006624
-0.047904 -0.437608 0.004669
-0.054168 -0.429611 0.008312
-0.048640 -0.442479 0.005662
-0.045972 -0.453756 0.005069
-0.050367 -0.445524 0.006554
-0.052649 -0.439125 0.007099
-0.045705 -0.446846 0.002258
-0.044524 -0.405844 0.006944
-0.052199 -0.416550 0.008325
-0.054554 -0.411393 0.007094
-0.047027 -0.409602 0.008174
-0.039359 -0.432267 0.007801
-0.054689 -0.419045 0.007748
-0.038947 -0.406186 0.006588
-0.044020 -0.423106 0.005232
-0.040273 -0.425350 0.008699
-0.037840 -0.415256 0.004204
-0.047809 -0.425460 0.009586
-0.038467 -0.426689 0.005322
-0.043564 -0.414242 0.008514
-0.039492 -0.420963 0.007715
-0.042406 -0.417407 0.007501
-0.051878 -0.430657 0.008848
-0.039101 -0.413490 0.005276
-0.054234 -0.425081 0.007462
-0.042126 -0.401836 0.008219
-0.045688 -0.432270 0.008630
-0.041854 -0.409752 0.008008
-0.050711 -0.421813 0.008200
-0.042422 -0.437116 0.008812
-0.043479 -0.420866 0.008594
-0.044612 -0.429351 0.008193
-0.040575 -0.412086 0.007548
-0.051288 -0.406248 0.008297
-0.048090 -0.414944 0.007269
-0.038819 -0.423111 0.006567
-0.048318 -0.418678 0.008787
-0.049857 -0.412975 0.008490
-0.038738 -0.419113 0.003989
-0.035571 -0.414492 0.001519
-0.037054 -0.417248 0.008017
-0.035389 -0.417114 0.004812
-0.037071 -0.412481 0.007614
-0.035825 -0.428496 0.007016
-0.035959 -0.421782 0.007149
-0.035897 -0.411442 0.003885
-0.036107 -0.420108 0.000652
-0.034897 -0.425813 0.005335
-0.035832 -0.418064 0.002678
-0.035798 -0.424572 0.006913
-0.035460 -0.422244 0.002583
-0.035842 -0.416335 0.006564
-0.035673 -0.420071 0.004508
-0.037889 -0.418417 0.008015
-0.036546 -0.424595 0.007953
-0.036336 -0.417886 0.005930
-0.035163 -0.423446 0.004249
-0.036435 -0.408707 0.006749
-0.035232 -0.427504 0.002203
-0.035820 -0.414325 0.005128
-0.037940 -0.422494 0.008090
-0.035162 -0.431715 0.005576
-0.036464 -0.420897 0.007730
-0.037057 -0.426966 0.007662
-0.036886 -0.415200 0.008310
-0.035666 -0.411621 0.005751
-0.035549 -0.422056 0.002366
-0.035526 -0.421832 0.005281
-0.035589 -0.419307 0.005862
-0.036469 -0.413909 0.006974
-0.036172 -0.417040 0.003653
-0.047856 -0.458138 -0.007100
-0.044980 -0.468297 0.003100
-0.043640 -0.466142 -0.001949
-0.047899 -0.453562 0.007071
-0.044435 -0.487811 0.003156
-0.042536 -0.474887 0.001846
-0.048103 -0.452460 -0.003045
-0.050499 -0.473849 -0.008195
-0.044975 -0.483074 -0.000957
-0.048560 -0.469094 -0.005406
-0.045525 -0.480125 0.002129
-0.047411 -0.477671 -0.005446
-0.046304 -0.465714 0.002388
-0.046305 -0.476596 -0.002199
-0.048365 -0.469029 0.005891
-0.043942 -0.480476 0.003299
-0.045935 -0.471196 0.002549
-0.043881 -0.482527 -0.003082
-0.048750 -0.440692 0.003358
-0.046400 -0.485377 -0.005264
-0.047018 -0.461009 -0.001564
-0.045526 -0.477103 0.007226
-0.044773 -0.488419 -0.000900
-0.046524 -0.473758 0.005182
-0.045997 -0.483198 0.005595
-0.047746 -0.463093 0.005416
-0.046855 -0.449072 -0.000921
-0.048415 -0.474925 -0.006779
-0.046190 -0.477483 0.000374
-0.045288 -0.471665 0.001289
-0.046134 -0.458010 0.002623
-0.046676 -0.468636 -0.002974
-0.052669 -0.371551 0.006271
-0.057932 -0.392082 0.006914
-0.059920 -0.383307 0.003662
-0.053575 -0.378213 0.007421
-0.044881 -0.419857 0.008256
-0.060062 -0.397644 0.004776
-0.044060 -0.372314 0.006052
-0.054967 -0.403399 0.007254
-0.049656 -0.407243 0.007666
-0.044593 -0.391848 0.007297
-0.054604 -0.409896 0.007923
-0.047404 -0.409156 0.006922
-0.049346 -0.387760 0.008141
-0.046260 -0.402034 0.007615
-0.048269 -0.393145 0.006661
-0.058726 -0.415200 0.006821
-0.041799 -0.386314 0.005809
-0.060123 -0.408826 0.004499
-0.049104 -0.362480 0.007191
-0.055070 -0.419331 0.006393
-0.048087 -0.379189 0.007060
-0.056360 -0.402248 0.005950
-0.051333 -0.426256 0.006977
-0.050064 -0.397960 0.007752
-0.051013 -0.413898 0.007623
-0.044987 -0.384428 0.007593
-0.057752 -0.370816 0.006234
-0.053658 -0.389924 0.006672
-0.044133 -0.405246 0.006591
-0.054982 -0.396092 0.007315
-0.056551 -0.383819 0.006887
-0.042650 -0.397715 0.005795
-0.048281 -0.428919 -0.012782
-0.052516 -0.436261 -0.011439
-0.052959 -0.432989 -0.012499
-0.049695 -0.431638 -0.009430
-0.043070 -0.448160 -0.012580
-0.055268 -0.439485 -0.010527
-0.044324 -0.430292 -0.011527
-0.048622 -0.441266 -0.012667
-0.046588 -0.444061 -0.013340
-0.044612 -0.436819 -0.012767
-0.050017 -0.443648 -0.012696
-0.044532 -0.443462 -0.012988
-0.046281 -0.434649 -0.013592
-0.045922 -0.439016 -0.013218
-0.046218 -0.437160 -0.008391
-0.052578 -0.448034 -0.011884
-0.042297 -0.433890 -0.011305
-0.052839 -0.442457 -0.012556
-0.046282 -0.427079 -0.012485
-0.049031 -0.449072 -0.013309
-0.047518 -0.431760 -0.013173
-0.051166 -0.440361 -0.008171
-0.046856 -0.452641 -0.012531
-0.047710 -0.437970 -0.013487
-0.047527 -0.446441 -0.009231
-0.045544 -0.433357 -0.013254
-0.051966 -0.429122 -0.012081
-0.048869 -0.435518 -0.012860
-0.043171 -0.440992 -0.012176
-0.050947 -0.438298 -0.013123
-0.049906 -0.433333 -0.013055
-0.042305 -0.438891 -0.011893
-0.045740 -0.477160 -0.008703
-0.044921 -0.486456 0.004182
-0.042925 -0.485029 -0.002329
-0.045393 -0.473570 0.007543
-0.042554 -0.497233 0.003417
-0.045551 -0.490060 0.002238
-0.046022 -0.473687 -0.003659
-0.048013 -0.489035 -0.011807
-0.042780 -0.494303 -0.001091
-0.046293 -0.487022 -0.005648
-0.043726 -0.492507 0.003179
-0.045128 -0.490865 -0.007984
-0.043706 -0.484977 0.003188
-0.045187 -0.492034 -0.002816
-0.046572 -0.485880 0.008235
-0.044476 -0.494073 0.004706
-0.043763 -0.489221 0.003143
-0.045597 -0.495598 -0.004049
-0.047488 -0.461822 0.003642
-0.046143 -0.495910 -0.007369
-0.044902 -0.479855 -0.001056
-0.045212 -0.490606 0.009156
-0.045603 -0.497619 -0.001149
-0.044607 -0.488584 0.006146
-0.044934 -0.494493 0.006929
-0.045211 -0.482632 0.004442
-0.045696 -0.468903 -0.000188
-0.048505 -0.489721 -0.009050
-0.044042 -0.491065 0.000551
-0.044324 -0.487695 0.002150
-0.044347 -0.479207 0.003471
-0.041883 -0.485416 -0.002903
-0.040226 -0.429969 -0.010519
-0.035318 -0.433051 -0.004930
-0.037770 -0.432195 -0.009315
-0.035941 -0.427789 -0.003847
-0.035907 -0.441410 -0.004478
-0.035695 -0.435412 -0.006275
-0.039547 -0.427431 -0.008732
-0.040710 -0.433693 -0.010903
-0.036933 -0.439791 -0.007039
-0.038985 -0.432688 -0.009814
-0.036944 -0.439325 -0.005711
-0.038984 -0.435522 -0.008389
-0.036509 -0.431157 -0.005955
-0.037514 -0.434638 -0.007518
-0.035239 -0.432068 -0.002206
-0.034930 -0.437643 -0.003938
-0.036410 -0.433685 -0.004912
-0.037529 -0.437863 -0.008847
-0.037525 -0.424869 -0.005860
-0.038244 -0.441176 -0.009362
-0.037539 -0.429647 -0.008112
-0.034851 -0.436064 -0.002433
-0.036357 -0.443840 -0.005906
-0.035566 -0.434754 -0.003457
-0.034855 -0.438831 -0.002831
-0.035504 -0.430044 -0.003155
-0.037718 -0.426421 -0.008200
-0.039312 -0.435961 -0.009664
-0.036639 -0.436668 -0.006809
-0.036406 -0.433788 -0.006520
-0.036777 -0.428684 -0.005337
-0.039002 -0.432100 -0.008286
-0.037389 -0.419627 -0.007232
-0.034641 -0.422946 0.001161
-0.035759 -0.422337 -0.003847
-0.035480 -0.417228 0.001337
-0.034886 -0.431858 0.000790
-0.034646 -0.426646 -0.000687
-0.037167 -0.416783 -0.005064
-0.037500 -0.423682 -0.008032
-0.035405 -0.430225 -0.002761
-0.036767 -0.422568 -0.005837
-0.035523 -0.429914 -0.000590
-0.036726 -0.425621 -0.005179
-0.035232 -0.421467 -0.000889
-0.035837 -0.424756 -0.003455
-0.035096 -0.422651 0.003083
-0.034425 -0.428287 0.001358
-0.035729 -0.424214 -0.000094
-0.035424 -0.428115 -0.004474
-0.036167 -0.414188 -0.000485
-0.035979 -0.431298 -0.005164
-0.035874 -0.418936 -0.002901
-0.034741 -0.426710 0.002868
-0.034948 -0.433951 -0.001309
-0.034767 -0.425331 0.001893
-0.034532 -0.429406 0.002343
-0.034982 -0.419964 0.002781
-0.035930 -0.415842 -0.003256
-0.036735 -0.427381 -0.006522
-0.035399 -0.426765 -0.002712
-0.035087 -0.424250 -0.001793
-0.035693 -0.418683 -0.000051
-0.037174 -0.420883 -0.004531
-0.051274 -0.413538 -0.012612
-0.055689 -0.420134 0.006940
-0.055712 -0.419149 -0.008667
-0.053825 -0.407882 0.011694
-0.054310 -0.439417 -0.000168
-0.058297 -0.427859 -0.000140
-0.051167 -0.409449 -0.010825
-0.049828 -0.423863 -0.013947
-0.053312 -0.435182 -0.008970
-0.051088 -0.420143 -0.012148
-0.054698 -0.433256 -0.002815
-0.050871 -0.427785 -0.012107
-0.053422 -0.417637 -0.000504
-0.053098 -0.423501 -0.010005
-0.051154 -0.420089 0.015757
-0.055704 -0.434943 0.005587
-0.051469 -0.423427 0.003409
-0.055742 -0.431265 -0.009689
-0.053347 -0.402486 -0.000151
-0.053457 -0.438697 -0.012008
-0.052889 -0.413701 -0.005859
-0.053879 -0.429379 0.016272
-0.056308 -0.443939 -0.006019
-0.053739 -0.424636 0.009047
-0.053989 -0.436957 0.011841
-0.052392 -0.413729 0.007714
-0.054860 -0.405813 -0.006776
-0.053533 -0.427380 -0.012456
-0.052662 -0.427919 -0.003741
-0.055051 -0.422464 -0.004155
-0.054866 -0.410848 0.001558
-0.051290 -0.417009 -0.009282
-0.043537 -0.386654 0.005306
-0.052491 -0.398104 0.008272
-0.054583 -0.392745 0.006947
-0.046844 -0.389920 0.007704
-0.039201 -0.413093 0.007132
-0.053858 -0.401512 0.007823
-0.038712 -0.386586 0.005233
-0.042501 -0.405681 0.002610
-0.039711 -0.407897 0.008028
-0.037212 -0.396744 0.001554
-0.047353 -0.407370 0.009189
-0.037990 -0.409074 0.003098
-0.043543 -0.396061 0.007857
-0.039019 -0.403099 0.006421
-0.042045 -0.399796 0.006898
-0.051440 -0.412042 0.008681
-0.039163 -0.395236 0.003919
-0.053600 -0.407514 0.007463
-0.041895 -0.381709 0.007626
-0.044304 -0.413412 0.007764
-0.041374 -0.390878 0.007171
-0.050462 -0.404150 0.008071
-0.041547 -0.416740 0.008332
-0.043226 -0.403667 0.008149
-0.044411 -0.410968 0.007891
-0.040578 -0.393398 0.006892
-0.051310 -0.386356 0.008021
-0.047942 -0.397484 0.005628
-0.038790 -0.405022 0.005588
-0.048016 -0.400758 0.008341
-0.049854 -0.394095 0.008003
-0.038700 -0.401024 0.002086
-0.038560 -0.430637 -0.010175
-0.033905 -0.433627 -0.003205
-0.036042 -0.432971 -0.007981
-0.034433 -0.428126 -0.001954
-0.034597 -0.443462 -0.002641
-0.034420 -0.436589 -0.004867
-0.037905 -0.427994 -0.008049
-0.039423 -0.434305 -0.010708
-0.035531 -0.441391 -0.005913
-0.037210 -0.433559 -0.008825
-0.035335 -0.440537 -0.004294
-0.037570 -0.436102 -0.007879
-0.034908 -0.432033 -0.004522
-0.035897 -0.435702 -0.006397
-0.033933 -0.432702 0.000248
-0.033807 -0.438878 -0.002221
-0.035120 -0.434555 -0.003382
-0.036198 -0.438941 -0.008290
-0.035966 -0.425415 -0.004331
-0.037070 -0.442854 -0.008719
-0.035896 -0.429986 -0.006787
-0.033797 -0.437514 -0.000048
-0.034945 -0.446653 -0.004950
-0.034082 -0.435659 -0.001601
-0.033572 -0.440656 -0.000447
-0.034277 -0.430600 -0.000863
-0.035881 -0.427087 -0.006825
-0.037977 -0.437538 -0.009495
-0.035137 -0.437862 -0.005778
-0.034888 -0.434790 -0.005373
-0.035244 -0.429218 -0.003866
-0.037467 -0.432261 -0.007517
-0.037419 -0.399011 -0.000795
-0.039485 -0.402465 0.007560
-0.036809 -0.402674 0.003996
-0.039650 -0.396335 0.007031
-0.037642 -0.417460 0.006563
-0.037343 -0.408407 0.007034
-0.038128 -0.395133 0.001837
-0.038237 -0.406490 -0.002138
-0.036681 -0.414131 0.004051
-0.037540 -0.403611 0.000234
-0.037691 -0.412223 0.006343
-0.037501 -0.409353 0.000307
-0.038312 -0.401789 0.006108
-0.037366 -0.406899 0.002944
-0.040633 -0.404559 0.007159
-0.038647 -0.412180 0.007549
-0.038601 -0.403678 0.005471
-0.036415 -0.411150 0.002942
-0.039063 -0.391625 0.006387
-0.036481 -0.415631 -0.000031
-0.037915 -0.398744 0.003699
-0.040323 -0.409727 0.007609
-0.036414 -0.420452 0.004321
-0.038842 -0.407651 0.007437
-0.039300 -0.415073 0.007215
-0.039487 -0.400161 0.008441
-0.037758 -0.395574 0.005002
-0.037299 -0.409000 0.000017
-0.037594 -0.409318 0.004258
-0.037410 -0.405688 0.005171
-0.038987 -0.398344 0.006662
-0.038706 -0.402426 0.001689
-0.044305 -0.379072 0.006725
-0.051860 -0.390344 0.008319
-0.054029 -0.385194 0.006937
-0.047002 -0.382941 0.007864
-0.039278 -0.405706 0.007464
-0.053643 -0.392910 0.007713
-0.038627 -0.379555 0.006172
-0.043628 -0.397101 0.005162
-0.040282 -0.399174 0.008320
-0.037431 -0.389153 0.003993
-0.047629 -0.399202 0.009276
-0.038112 -0.400674 0.004945
-0.043411 -0.387787 0.008027
-0.039214 -0.394874 0.007365
-0.042107 -0.391239 0.007240
-0.051479 -0.403910 0.008609
-0.038717 -0.386979 0.004896
-0.053659 -0.398968 0.007425
-0.041943 -0.374427 0.007724
-0.045390 -0.405868 0.008509
-0.041714 -0.383172 0.007758
-0.050392 -0.395476 0.007989
-0.042194 -0.410342 0.008420
-0.043437 -0.394592 0.008279
-0.044504 -0.402757 0.007866
-0.040295 -0.385743 0.007043
-0.050960 -0.379202 0.007978
-0.047817 -0.389028 0.007212
-0.038534 -0.396831 0.006175
-0.048277 -0.392469 0.008446
-0.049731 -0.386593 0.008172
-0.038353 -0.393098 0.003553
-0.043267 -0.415462 -0.012304
-0.038943 -0.419741 -0.010752
-0.042055 -0.417850 -0.013313
-0.038668 -0.414613 -0.009253
-0.038649 -0.428211 -0.008903
-0.040387 -0.421436 -0.011388
-0.041519 -0.413583 -0.009961
-0.044127 -0.421969 -0.012136
-0.039684 -0.425929 -0.010298
-0.041743 -0.419373 -0.011673
-0.040272 -0.425001 -0.010128
-0.041282 -0.423212 -0.010020
-0.039279 -0.417603 -0.010224
-0.040172 -0.421983 -0.010289
-0.037867 -0.419100 -0.007988
-0.038495 -0.425157 -0.009768
-0.038352 -0.418749 -0.008160
-0.041465 -0.424976 -0.012220
-0.040362 -0.410757 -0.010161
-0.041640 -0.428397 -0.012190
-0.040415 -0.416429 -0.011461
-0.037844 -0.422749 -0.008865
-0.039624 -0.430974 -0.009782
-0.038581 -0.421053 -0.009155
-0.037508 -0.425761 -0.008237
-0.038276 -0.416663 -0.008629
-0.041417 -0.413036 -0.011771
-0.042514 -0.420115 -0.011772
-0.038742 -0.423535 -0.008781
-0.039979 -0.420675 -0.010919
-0.039998 -0.415380 -0.010624
-0.040723 -0.420262 -0.009442
-0.054104 -0.443330 -0.002434
-0.057544 -0.459743 0.007529
-0.055249 -0.454256 0.002433
-0.057050 -0.439687 0.009761
-0.048898 -0.488444 0.006686
-0.056993 -0.467573 0.006829
-0.054351 -0.435097 0.001460
-0.056450 -0.468940 -0.003280
-0.051460 -0.479152 0.003365
-0.055271 -0.460893 -0.001351
-0.054611 -0.476093 0.007598
-0.052443 -0.475207 -0.001295
-0.054976 -0.457140 0.007437
-0.053501 -0.472309 0.001363
-0.058283 -0.461875 0.008468
-0.054418 -0.479883 0.008060
-0.054246 -0.462868 0.004683
-0.055843 -0.478445 0.002146
-0.057141 -0.420624 0.006099
-0.053545 -0.483974 0.000181
-0.054562 -0.447850 0.003085
-0.055653 -0.470404 0.007987
-0.052315 -0.489811 0.004689
-0.053750 -0.466647 0.008268
-0.054080 -0.481791 0.008520
-0.056145 -0.451113 0.006619
-0.058994 -0.433803 0.005447
-0.056462 -0.463250 0.000054
-0.053461 -0.471998 0.005604
-0.054282 -0.463973 0.005119
-0.056256 -0.449050 0.006812
-0.051528 -0.463250 0.001393
-0.037451 -0.397638 -0.007294
-0.035017 -0.401847 0.002272
-0.035761 -0.401298 -0.003570
-0.035752 -0.394209 0.003078
-0.035080 -0.412970 0.001613
-0.034814 -0.406738 0.000008
-0.037156 -0.393990 -0.005113
-0.037977 -0.403466 -0.008155
-0.035590 -0.411122 -0.002691
-0.036864 -0.401690 -0.005689
-0.035645 -0.410520 -0.000401
-0.037012 -0.405560 -0.005216
-0.035382 -0.400057 -0.000454
-0.035874 -0.404695 -0.003486
-0.035250 -0.401960 0.005015
-0.034784 -0.408671 0.002265
-0.035627 -0.403706 0.000974
-0.035589 -0.408751 -0.004648
-0.036241 -0.390137 0.000486
-0.036321 -0.412226 -0.005030
-0.035938 -0.396857 -0.002667
-0.035128 -0.407171 0.004807
-0.035215 -0.415338 -0.001382
-0.035036 -0.405089 0.002985
-0.034785 -0.410369 0.003791
-0.035228 -0.398299 0.004191
-0.036013 -0.392367 -0.002994
-0.036936 -0.407606 -0.006895
-0.035417 -0.407117 -0.002533
-0.035222 -0.403787 -0.001641
-0.035778 -0.396348 0.000672
-0.037109 -0.399653 -0.004326
-0.044069 -0.419857 -0.003210
-0.047734 -0.425210 0.006288
-0.043830 -0.424528 0.002236
-0.046399 -0.415863 0.007775
-0.044638 -0.456250 0.005472
-0.045250 -0.433793 0.006736
-0.045979 -0.413001 -0.000419
-0.045755 -0.431855 -0.005938
-0.043133 -0.446042 0.001523
-0.044759 -0.428373 -0.003358
-0.045393 -0.442805 0.006329
-0.044257 -0.439465 -0.003750
-0.045115 -0.425684 0.006020
-0.044012 -0.434885 0.001048
-0.049641 -0.429225 0.007153
-0.046313 -0.444757 0.007456
-0.045981 -0.428802 0.003632
-0.044407 -0.442135 0.001070
-0.047167 -0.407221 0.005827
-0.044175 -0.451643 -0.002580
-0.045067 -0.419405 0.002046
-0.048265 -0.436593 0.007697
-0.043400 -0.460965 0.003451
-0.045501 -0.433526 0.007129
-0.047007 -0.450035 0.006787
-0.047568 -0.422012 0.006840
-0.046532 -0.415162 0.005533
-0.045165 -0.433642 -0.002980
-0.044251 -0.438094 0.003878
-0.043754 -0.430968 0.004698
-0.046144 -0.420762 0.006923
-0.044372 -0.426690 -0.001066
-0.049505 -0.397461 -0.012598
-0.054576 -0.404616 -0.008279
-0.053983 -0.402821 -0.012218
-0.051700 -0.399584 -0.000543
-0.044365 -0.415878 -0.012953
-0.056748 -0.409011 -0.008752
-0.044981 -0.398663 -0.012051
-0.049157 -0.409268 -0.012208
-0.047884 -0.413066 -0.013790
-0.045770 -0.405221 -0.013334
-0.051308 -0.411779 -0.012787
-0.045054 -0.410796 -0.013712
-0.047697 -0.403616 -0.013307
-0.047966 -0.406494 -0.014050
-0.046709 -0.405649 0.002713
-0.054187 -0.416302 -0.009693
-0.042643 -0.402941 -0.009720
-0.053364 -0.410306 -0.012225
-0.047654 -0.394385 -0.012331
-0.050172 -0.416682 -0.013241
-0.049594 -0.401045 -0.013602
-0.053471 -0.407954 0.003385
-0.048692 -0.420612 -0.012975
-0.049454 -0.406165 -0.010277
-0.049570 -0.414436 -0.001381
-0.047146 -0.401420 -0.012646
-0.053622 -0.397361 -0.011540
-0.050661 -0.404982 -0.012396
-0.044818 -0.408716 -0.012389
-0.053390 -0.407091 -0.012555
-0.051549 -0.400386 -0.011262
-0.042669 -0.407311 -0.012770
-0.050629 -0.397255 -0.012336
-0.055024 -0.407866 -0.007306
-0.055218 -0.404775 -0.011005
-0.053104 -0.400566 -0.003563
-0.045175 -0.423019 -0.012501
-0.057660 -0.413538 -0.008546
-0.044768 -0.399391 -0.011282
-0.050336 -0.414518 -0.012079
-0.048733 -0.419031 -0.013134
-0.045778 -0.407941 -0.012197
-0.052605 -0.418054 -0.011447
-0.044730 -0.416570 -0.012458
-0.048846 -0.406435 -0.012238
-0.047699 -0.411013 -0.012604
-0.048918 -0.409220 -0.002649
-0.055138 -0.423236 -0.009322
-0.042693 -0.405657 -0.009816
-0.055124 -0.416305 -0.011488
-0.048565 -0.393354 -0.011211
-0.051972 -0.423815 -0.012288
-0.049731 -0.402022 -0.012532
-0.053384 -0.413546 -0.001225
-0.050100 -0.429360 -0.011940
-0.051063 -0.410820 -0.009966
-0.051131 -0.420382 -0.004020
-0.048138 -0.403435 -0.011302
-0.054465 -0.396524 -0.010545
-0.051928 -0.407883 -0.012342
-0.045214 -0.414198 -0.011019
-0.054171 -0.411108 -0.011971
-0.052638 -0.402381 -0.011097
-0.042418 -0.411400 -0.011489
-0.047478 -0.431882 -0.011595
-0.044511 -0.441657 -0.010623
-0.048620 -0.437172 -0.013145
-0.043260 -0.431536 -0.006954
-0.042297 -0.469881 -0.006981
-0.047071 -0.447408 -0.011437
-0.044179 -0.428835 -0.008650
-0.049937 -0.451382 -0.010797
-0.043879 -0.461406 -0.010151
-0.044925 -0.444019 -0.010590
-0.045227 -0.458670 -0.009952
-0.046194 -0.456457 -0.009694
-0.043350 -0.438491 -0.009192
-0.044142 -0.451709 -0.009561
-0.041937 -0.444033 -0.006450
-0.044690 -0.460348 -0.010740
-0.041870 -0.440649 -0.006038
-0.047785 -0.457035 -0.012347
-0.044178 -0.422103 -0.008780
-0.046798 -0.467466 -0.011521
-0.044354 -0.435374 -0.010771
-0.042216 -0.451187 -0.007806
-0.042789 -0.474065 -0.009229
-0.042717 -0.446417 -0.007702
-0.042224 -0.463884 -0.006397
-0.042882 -0.436313 -0.006486
-0.048159 -0.427452 -0.011249
-0.047496 -0.443728 -0.012640
-0.042181 -0.454980 -0.007471
-0.045136 -0.446285 -0.011107
-0.045214 -0.433685 -0.011088
-0.042910 -0.446276 -0.007515
-0.048683 -0.360274 0.007470
-0.054660 -0.377042 0.007752
-0.056870 -0.370218 0.005416
-0.050936 -0.365811 0.008166
-0.041316 -0.404381 0.008054
-0.056758 -0.381785 0.005570
-0.039753 -0.360615 0.006998
-0.049649 -0.388823 0.007305
-0.044455 -0.391747 0.008396
-0.039092 -0.376652 0.006353
-0.052145 -0.393747 0.009140
-0.040520 -0.395143 0.006920
-0.045785 -0.372528 0.008452
-0.041418 -0.385526 0.008299
-0.044750 -0.378692 0.007721
-0.055137 -0.399773 0.007467
-0.038568 -0.372061 0.005738
-0.057491 -0.392052 0.005788
-0.044795 -0.353874 0.008023
-0.051509 -0.404620 0.008801
-0.044440 -0.365844 0.008186
-0.053704 -0.385749 0.006996
-0.046262 -0.411094 0.008111
-0.046841 -0.382750 0.008413
-0.048084 -0.398955 0.008071
-0.041987 -0.369881 0.007382
-0.053959 -0.360528 0.007013
-0.051362 -0.374680 0.007579
-0.039458 -0.389626 0.006450
-0.052191 -0.380849 0.008303
-0.053262 -0.370494 0.007885
-0.038438 -0.382206 0.004957
-0.052503 -0.325742 0.005861
-0.056124 -0.346130 0.006258
-0.058639 -0.338016 0.002653
-0.052044 -0.331589 0.007030
-0.045566 -0.374741 0.008091
-0.058545 -0.353231 0.003507
-0.044594 -0.326547 0.006391
-0.055389 -0.359049 0.006647
-0.049622 -0.362695 0.007300
-0.045230 -0.346151 0.007625
-0.053798 -0.365760 0.006950
-0.048391 -0.364164 0.007012
-0.048879 -0.341842 0.007865
-0.045951 -0.357362 0.007407
-0.047485 -0.348279 0.006689
-0.057458 -0.370689 0.005968
-0.041618 -0.340548 0.006458
-0.058020 -0.364312 0.002775
-0.049007 -0.316382 0.006839
-0.054378 -0.374996 0.005431
-0.047881 -0.333827 0.006513
-0.054993 -0.357752 0.005342
-0.051013 -0.380693 0.006569
-0.049703 -0.353216 0.007649
-0.050303 -0.369257 0.007193
-0.044534 -0.338466 0.007856
-0.057050 -0.324359 0.005331
-0.052747 -0.344691 0.005641
-0.044082 -0.360972 0.006955
-0.053793 -0.351339 0.006490
-0.054767 -0.336952 0.006290
-0.043463 -0.352379 0.006364
-0.040088 -0.369778 0.002526
-0.047002 -0.383194 0.005545
-0.046529 -0.377389 0.005289
-0.043573 -0.371099 0.006242
-0.039268 -0.409884 0.004654
-0.047219 -0.388735 0.006804
-0.040009 -0.365206 0.002547
-0.040187 -0.391118 0.001050
-0.039539 -0.399016 0.004780
-0.039621 -0.382961 0.000457
-0.042825 -0.398032 0.006597
-0.039628 -0.397719 0.000515
-0.041740 -0.381132 0.006243
-0.039633 -0.391288 0.003809
-0.042805 -0.385665 0.005562
-0.045809 -0.401741 0.006517
-0.040286 -0.381818 0.002822
-0.045155 -0.396838 0.006011
-0.042797 -0.356764 0.005424
-0.039477 -0.406031 0.002881
-0.041290 -0.373850 0.003813
-0.044776 -0.392201 0.007250
-0.039339 -0.415621 0.005319
-0.041392 -0.390336 0.006001
-0.042324 -0.404499 0.006147
-0.042007 -0.377655 0.004934
-0.045928 -0.366732 0.006536
-0.040549 -0.385983 0.003763
-0.040192 -0.395207 0.004162
-0.042784 -0.387246 0.005679
-0.044491 -0.376363 0.006610
-0.039867 -0.386583 0.000309
-0.038673 -0.361649 0.003658
-0.045823 -0.373042 0.006442
-0.045616 -0.367586 0.006134
-0.041845 -0.362792 0.006362
-0.039066 -0.399090 0.005032
-0.046677 -0.378351 0.007347
-0.038682 -0.357808 0.003382
-0.039204 -0.380842 0.002482
-0.039007 -0.388238 0.005326
-0.038388 -0.372977 0.001620
-0.042382 -0.387522 0.006930
-0.038981 -0.387282 0.001480
-0.040554 -0.370971 0.006718
-0.038901 -0.380061 0.004634
-0.041489 -0.375097 0.005756
-0.045769 -0.391446 0.006933
-0.038951 -0.371064 0.003462
-0.045110 -0.385820 0.006682
-0.040854 -0.351471 0.005738
-0.039478 -0.395596 0.003546
-0.040007 -0.364707 0.004719
-0.044275 -0.381516 0.007318
-0.039301 -0.405412 0.005744
-0.040371 -0.379656 0.006273
-0.041807 -0.393777 0.006359
-0.040488 -0.368241 0.005200
-0.043909 -0.359615 0.007036
-0.039634 -0.375209 0.004757
-0.039292 -0.384558 0.004954
-0.041951 -0.376764 0.006261
-0.043160 -0.367204 0.006920
-0.038780 -0.376363 0.001471
-0.039058 -0.390677 -0.004653
-0.041809 -0.397041 0.007069
-0.037276 -0.397354 0.002323
-0.042209 -0.384939 0.007508
-0.039802 -0.426692 0.005924
-0.038565 -0.407732 0.006882
-0.040452 -0.383207 -0.001583
-0.040967 -0.404950 -0.006927
-0.038377 -0.419134 0.001771
-0.039436 -0.399841 -0.003948
-0.039630 -0.415002 0.005881
-0.039145 -0.410300 -0.003441
-0.040209 -0.395469 0.005195
-0.038910 -0.406639 0.000446
-0.044298 -0.401478 0.007319
-0.040604 -0.414871 0.007844
-0.040739 -0.400052 0.004814
-0.037334 -0.414718 0.000513
-0.041789 -0.375438 0.005581
-0.038047 -0.422496 -0.003611
-0.039862 -0.390065 0.001298
-0.043095 -0.410228 0.008340
-0.037608 -0.430825 0.002616
-0.041498 -0.406075 0.007556
-0.041799 -0.421323 0.007287
-0.042630 -0.392465 0.008605
-0.039521 -0.383088 0.003694
-0.039290 -0.408577 -0.004207
-0.039130 -0.410934 0.003373
-0.038917 -0.403717 0.004124
-0.040837 -0.389292 0.006511
-0.040113 -0.397103 -0.001363
-0.036648 -0.376552 -0.007132
-0.035115 -0.380693 0.002911
-0.035380 -0.380363 -0.003151
-0.035778 -0.372750 0.003721
-0.035023 -0.393203 0.001948
-0.034927 -0.386332 0.000454
-0.036418 -0.372629 -0.004887
-0.037203 -0.382798 -0.008041
-0.035222 -0.391045 -0.002477
-0.036237 -0.380939 -0.005390
-0.035528 -0.390242 -0.000024
-0.036224 -0.385144 -0.005001
-0.035143 -0.378918 -0.000165
-0.035524 -0.383962 -0.003255
-0.035376 -0.381351 0.005575
-0.034869 -0.388322 0.002701
-0.035366 -0.382943 0.001347
-0.035301 -0.388461 -0.004409
-0.035807 -0.368638 0.000873
-0.035954 -0.392278 -0.004799
-0.035519 -0.375629 -0.002282
-0.035382 -0.386722 0.005468
-0.035028 -0.395915 -0.001126
-0.035061 -0.384375 0.003401
-0.034916 -0.390535 0.004293
-0.035267 -0.377142 0.004632
-0.035576 -0.370811 -0.002628
-0.036321 -0.387265 -0.006849
-0.035023 -0.386735 -0.002221
-0.035072 -0.383168 -0.001383
-0.035559 -0.375081 0.001020
-0.036396 -0.378381 -0.004090
-0.047914 -0.419481 -0.011220
-0.044001 -0.429072 -0.009278
-0.047767 -0.425138 -0.012520
-0.043390 -0.418385 -0.005253
-0.042480 -0.455109 -0.005969
-0.046250 -0.434618 -0.010564
-0.044921 -0.416161 -0.008294
-0.050691 -0.438010 -0.010320
-0.043976 -0.447723 -0.009357
-0.045675 -0.431419 -0.010288
-0.045030 -0.444731 -0.009094
-0.046805 -0.441962 -0.009309
-0.043406 -0.426129 -0.008554
-0.044435 -0.438623 -0.009200
-0.042257 -0.431014 -0.004400
-0.044218 -0.445368 -0.009505
-0.041992 -0.428766 -0.005522
-0.047146 -0.443753 -0.011534
-0.044603 -0.408462 -0.007890
-0.046931 -0.452506 -0.010784
-0.044668 -0.422865 -0.010413
-0.041929 -0.438219 -0.005253
-0.042976 -0.458963 -0.008490
-0.042938 -0.433872 -0.006228
-0.042389 -0.449314 -0.004556
-0.043263 -0.423705 -0.005060
-0.047574 -0.414131 -0.010671
-0.047863 -0.432084 -0.012185
-0.042663 -0.441444 -0.006881
-0.044961 -0.433497 -0.010377
-0.044912 -0.420725 -0.010174
-0.043467 -0.433088 -0.007497
-0.040787 -0.396500 -0.006427
-0.040693 -0.402557 0.005082
-0.037606 -0.402907 -0.000716
-0.042303 -0.390623 0.006307
-0.039829 -0.429873 0.004494
-0.037552 -0.412471 0.004396
-0.041734 -0.389482 -0.003710
-0.043034 -0.409116 -0.008054
-0.039116 -0.423441 -0.000714
-0.040727 -0.405417 -0.005339
-0.039948 -0.419798 0.003599
-0.040377 -0.414350 -0.005000
-0.040486 -0.401057 0.002958
-0.039637 -0.411704 -0.001655
-0.043858 -0.406006 0.006605
-0.039895 -0.418481 0.005483
-0.041225 -0.406246 0.003428
-0.037732 -0.419556 -0.002459
-0.042326 -0.381416 0.003832
-0.039559 -0.426081 -0.005486
-0.040679 -0.395663 -0.000874
-0.042204 -0.414832 0.007134
-0.038279 -0.433440 0.000145
-0.041458 -0.410683 0.006206
-0.041517 -0.424321 0.006158
-0.042618 -0.397795 0.007812
-0.040141 -0.388481 0.000578
-0.040819 -0.414017 -0.006497
-0.039670 -0.415874 0.000852
-0.039171 -0.408632 0.001703
-0.040841 -0.394717 0.004345
-0.041211 -0.402072 -0.003316
-0.055795 -0.431564 -0.008889
-0.049995 -0.444021 -0.004891
-0.053638 -0.438125 -0.009641
-0.051964 -0.428225 0.000128
-0.049293 -0.475331 -0.001650
-0.050945 -0.451509 -0.007118
-0.053662 -0.425996 -0.005938
-0.059189 -0.454375 -0.008115
-0.051157 -0.466757 -0.005998
-0.054985 -0.446981 -0.007560
-0.051653 -0.462753 -0.004789
-0.054553 -0.459723 -0.006778
-0.050622 -0.439884 -0.004718
-0.052179 -0.456570 -0.006055
-0.050671 -0.445005 0.000956
-0.049393 -0.464244 -0.005218
-0.050577 -0.445967 -0.003221
-0.053309 -0.463223 -0.008505
-0.053547 -0.414498 -0.004381
-0.054550 -0.472082 -0.007978
-0.052565 -0.435503 -0.007395
-0.048697 -0.455937 0.000817
-0.050425 -0.478669 -0.005155
-0.049801 -0.450179 -0.001173
-0.049843 -0.468443 0.000224
-0.051658 -0.436665 -0.001116
-0.054763 -0.422113 -0.007948
-0.055786 -0.448397 -0.009541
-0.051203 -0.458311 -0.003568
-0.051825 -0.448525 -0.006264
-0.051732 -0.431719 -0.006319
-0.051778 -0.448211 -0.005164
-0.043371 -0.383178 -0.012390
-0.038910 -0.388173 -0.010339
-0.042435 -0.386173 -0.013326
-0.038805 -0.381912 -0.007936
-0.039016 -0.398005 -0.008800
-0.041233 -0.390623 -0.011373
-0.041614 -0.381076 -0.010134
-0.044827 -0.391203 -0.012118
-0.039833 -0.395932 -0.010410
-0.041885 -0.388138 -0.011829
-0.040362 -0.394740 -0.010304
-0.041537 -0.392282 -0.010320
-0.039300 -0.385885 -0.010313
-0.040256 -0.391237 -0.010523
-0.038193 -0.387704 -0.006448
-0.038596 -0.394745 -0.009347
-0.038634 -0.387525 -0.007982
-0.041691 -0.394799 -0.012279
-0.040188 -0.377276 -0.010044
-0.041930 -0.398061 -0.012063
-0.040421 -0.384348 -0.011600
-0.037938 -0.392117 -0.007022
-0.039880 -0.400652 -0.009945
-0.038749 -0.390110 -0.008594
-0.037911 -0.395511 -0.007079
-0.038400 -0.384738 -0.008059
-0.041592 -0.379891 -0.011894
-0.042698 -0.389115 -0.011953
-0.038836 -0.393039 -0.008722
-0.039940 -0.389619 -0.011092
-0.039829 -0.382879 -0.010553
-0.040910 -0.388799 -0.009520
-0.045903 -0.342660 0.007131
-0.051900 -0.355652 0.007780
-0.053834 -0.350278 0.005920
-0.048405 -0.347162 0.007933
-0.039843 -0.374738 0.007480
-0.053279 -0.359030 0.006295
-0.038605 -0.343243 0.006401
-0.046119 -0.364775 0.006093
-0.041732 -0.366430 0.008306
-0.037643 -0.355195 0.004965
-0.049098 -0.367447 0.009217
-0.038887 -0.369067 0.005714
-0.044035 -0.352421 0.008076
-0.039780 -0.361876 0.007742
-0.042874 -0.356988 0.007149
-0.051635 -0.371999 0.007805
-0.037945 -0.351767 0.004954
-0.054249 -0.366740 0.006294
-0.042787 -0.337859 0.007884
-0.047879 -0.375217 0.008449
-0.042671 -0.347260 0.007953
-0.050922 -0.362174 0.007094
-0.043624 -0.379493 0.008002
-0.044745 -0.360382 0.008074
-0.045734 -0.371443 0.007674
-0.040635 -0.350457 0.007026
-0.051143 -0.343039 0.007411
-0.049079 -0.354273 0.007176
-0.038476 -0.364603 0.006030
-0.049400 -0.358554 0.008310
-0.050511 -0.351055 0.007944
-0.037862 -0.359531 0.003915
-0.043878 -0.404937 -0.012928
-0.037961 -0.410805 -0.009055
-0.041311 -0.409618 -0.013082
-0.037954 -0.401471 -0.006465
-0.039286 -0.434266 -0.006508
-0.038959 -0.417141 -0.010670
-0.041650 -0.401510 -0.010278
-0.047019 -0.417958 -0.011979
-0.040162 -0.429055 -0.010058
-0.041584 -0.413457 -0.011539
-0.040294 -0.425946 -0.009359
-0.043084 -0.421326 -0.010193
-0.039077 -0.408427 -0.009323
-0.039883 -0.418840 -0.009931
-0.037781 -0.412774 -0.004759
-0.038734 -0.425060 -0.008903
-0.038465 -0.411642 -0.006399
-0.042073 -0.424646 -0.012753
-0.039810 -0.395706 -0.008671
-0.043299 -0.432267 -0.012232
-0.040123 -0.405307 -0.011637
-0.037573 -0.420395 -0.005491
-0.039257 -0.439048 -0.009304
-0.038517 -0.415907 -0.006258
-0.037778 -0.429063 -0.004667
-0.038744 -0.406144 -0.004608
-0.041065 -0.399630 -0.011477
-0.043700 -0.416412 -0.013207
-0.038754 -0.423056 -0.007974
-0.039789 -0.415200 -0.010766
-0.039541 -0.403523 -0.010018
-0.040819 -0.412860 -0.009173
-0.059764 -0.455701 -0.008369
-0.056625 -0.476406 -0.003056
-0.060822 -0.467532 -0.007548
-0.057666 -0.452875 0.000603
-0.049590 -0.498342 0.000267
-0.060471 -0.480927 -0.006038
-0.056010 -0.449409 -0.003071
-0.063651 -0.483981 -0.008945
-0.054920 -0.491911 -0.003093
-0.059986 -0.475923 -0.004375
-0.056998 -0.489002 -0.002056
-0.057756 -0.488695 -0.004549
-0.056121 -0.469770 -0.002769
-0.057358 -0.486609 -0.004695
-0.055862 -0.473830 0.002465
-0.055208 -0.492431 -0.002851
-0.054034 -0.477523 -0.002131
-0.062677 -0.492299 -0.007174
-0.059047 -0.432977 -0.003348
-0.060724 -0.494704 -0.006524
-0.056816 -0.462451 -0.004898
-0.054430 -0.484293 0.000148
-0.055924 -0.499137 -0.002737
-0.054376 -0.478676 0.000372
-0.054169 -0.491915 0.001629
-0.056483 -0.465069 -0.000713
-0.061611 -0.443598 -0.006949
-0.062992 -0.475148 -0.007265
-0.056012 -0.486367 -0.001227
-0.058447 -0.477841 -0.004050
-0.057835 -0.460621 -0.004680
-0.051355 -0.480275 -0.002260
-0.037022 -0.362254 -0.007498
-0.035626 -0.365976 0.003348
-0.035551 -0.365883 -0.003107
-0.036236 -0.357977 0.003921
-0.035547 -0.381068 0.002087
-0.035457 -0.372326 0.000791
-0.036792 -0.358083 -0.005091
-0.037640 -0.368640 -0.008476
-0.035472 -0.378219 -0.002458
-0.036511 -0.366781 -0.005343
-0.035995 -0.376865 0.000179
-0.036473 -0.371055 -0.004994
-0.035411 -0.364296 -0.000105
-0.035869 -0.369890 -0.003220
-0.035988 -0.366966 0.005913
-0.035476 -0.374992 0.003140
-0.035787 -0.368451 0.001549
-0.035636 -0.375109 -0.004476
-0.036205 -0.354069 0.000734
-0.036557 -0.379946 -0.005245
-0.035770 -0.360910 -0.002251
-0.036174 -0.373022 0.005837
-0.035415 -0.384810 -0.001129
-0.035622 -0.370146 0.003569
-0.035487 -0.378118 0.004691
-0.035733 -0.362527 0.004876
-0.035655 -0.356132 -0.002567
-0.036770 -0.373551 -0.007275
-0.035262 -0.373143 -0.002041
-0.035504 -0.369041 -0.001313
-0.035806 -0.360328 0.001221
-0.036644 -0.363579 -0.004049
-0.049978 -0.366217 -0.012447
-0.056515 -0.374658 -0.003559
-0.056013 -0.372877 -0.011116
-0.053907 -0.367343 0.002501
-0.046888 -0.389659 -0.011945
-0.059767 -0.380361 -0.006651
-0.045978 -0.366696 -0.012290
-0.049681 -0.380639 -0.012088
-0.049520 -0.385664 -0.013300
-0.046795 -0.374702 -0.013363
-0.052643 -0.384394 -0.011241
-0.045417 -0.382608 -0.013806
-0.049665 -0.373478 -0.011335
-0.049424 -0.376722 -0.013379
-0.049320 -0.375936 0.006361
-0.056485 -0.389232 -0.006129
-0.044432 -0.373635 -0.007718
-0.055371 -0.382101 -0.011095
-0.049597 -0.360757 -0.011544
-0.052094 -0.389783 -0.012469
-0.050810 -0.370003 -0.012781
-0.055607 -0.380015 0.007601
-0.051549 -0.395628 -0.012098
-0.051921 -0.377497 -0.005621
-0.052299 -0.387800 0.001980
-0.049244 -0.369875 -0.009315
-0.055127 -0.364446 -0.010693
-0.051962 -0.375519 -0.011878
-0.047587 -0.380406 -0.010276
-0.054879 -0.377407 -0.011075
-0.053492 -0.368532 -0.008911
-0.043686 -0.377326 -0.012445
-0.043758 -0.325689 0.007021
-0.049984 -0.336062 0.008185
-0.051629 -0.331610 0.006675
-0.046473 -0.329103 0.007744
-0.038830 -0.350388 0.006917
-0.050488 -0.339315 0.007379
-0.038151 -0.326181 0.006018
-0.043311 -0.343825 0.006166
-0.040176 -0.345245 0.007962
-0.036768 -0.335678 0.004375
-0.046822 -0.345602 0.008983
-0.038176 -0.347219 0.005065
-0.042830 -0.333801 0.007855
-0.038680 -0.341095 0.007171
-0.041696 -0.337617 0.006844
-0.049199 -0.349279 0.008194
-0.037797 -0.333099 0.004561
-0.051399 -0.345281 0.007098
-0.041506 -0.321508 0.007727
-0.044680 -0.351204 0.008254
-0.041437 -0.329389 0.007704
-0.048830 -0.341610 0.007464
-0.041514 -0.353625 0.007781
-0.043296 -0.340740 0.008033
-0.044086 -0.348556 0.007561
-0.039902 -0.331989 0.006873
-0.049269 -0.325741 0.007674
-0.046608 -0.335512 0.007403
-0.037950 -0.343136 0.005693
-0.047182 -0.338735 0.008235
-0.048287 -0.332516 0.007900
-0.037486 -0.339695 0.003179
-0.047057 -0.369411 -0.011390
-0.050563 -0.384972 -0.012260
-0.052645 -0.378071 -0.011860
-0.046502 -0.373830 -0.011513
-0.042517 -0.406932 -0.009513
-0.052530 -0.390050 -0.011694
-0.042519 -0.369919 -0.008239
-0.048249 -0.394724 -0.009442
-0.044576 -0.399192 -0.011181
-0.042496 -0.385241 -0.009565
-0.048742 -0.399733 -0.011270
-0.044247 -0.399266 -0.009457
-0.045116 -0.380420 -0.011550
-0.042947 -0.393610 -0.010371
-0.043430 -0.387816 -0.011714
-0.050525 -0.402526 -0.012575
-0.041714 -0.380545 -0.006974
-0.052161 -0.397262 -0.012044
-0.044682 -0.362314 -0.010402
-0.046984 -0.406843 -0.010646
-0.044475 -0.375129 -0.010844
-0.047145 -0.392555 -0.012768
-0.044034 -0.411952 -0.010494
-0.045290 -0.389265 -0.011624
-0.045159 -0.402396 -0.010874
-0.043198 -0.378207 -0.009923
-0.051810 -0.368702 -0.011387
-0.047667 -0.383010 -0.011511
-0.041219 -0.397125 -0.008450
-0.048617 -0.389079 -0.012411
-0.049166 -0.377584 -0.012514
-0.042432 -0.389721 -0.007431
-0.044163 -0.368283 -0.012625
-0.043331 -0.381203 -0.011423
-0.046892 -0.376290 -0.013347
-0.039898 -0.369159 -0.008521
-0.039815 -0.404851 -0.008473
-0.046352 -0.387258 -0.012350
-0.040414 -0.366339 -0.008794
-0.046541 -0.391585 -0.011612
-0.040875 -0.398678 -0.011003
-0.041261 -0.382250 -0.011114
-0.042949 -0.396598 -0.011095
-0.042467 -0.394999 -0.009983
-0.040583 -0.377197 -0.010636
-0.040388 -0.390882 -0.010710
-0.039006 -0.384258 -0.008122
-0.043423 -0.398192 -0.011618
-0.038453 -0.378904 -0.006333
-0.046156 -0.395768 -0.013222
-0.040677 -0.358192 -0.009707
-0.043702 -0.403707 -0.011779
-0.040880 -0.372872 -0.011440
-0.039945 -0.390378 -0.009742
