-0.037847 -0.493901 0.006332
-0.020365 -0.486302 0.022091
-0.037847 -0.483665 0.006332
-0.036565 -0.464239 0.016078
-0.035255 -0.496593 -0.001929
-0.045660 -0.497082 -0.013238
-0.037847 -0.468311 0.006332
-0.035255 -0.486406 -0.001929
-0.023227 -0.481586 0.007629
-0.037847 -0.458074 0.006332
-0.035255 -0.476220 -0.001929
-0.031872 -0.486754 -0.004801
-0.040156 -0.485881 -0.010942
-0.004767 -0.482185 0.017229
-0.032972 -0.470218 -0.000619
-0.029316 -0.457795 0.007242
-0.024647 -0.483786 -0.003351
-0.045660 -0.471591 -0.013238
-0.033374 -0.429211 0.014814
-0.037847 -0.437602 0.006332
-0.036734 -0.465393 -0.007149
-0.045660 -0.456296 -0.013238
-0.019707 -0.494348 -0.013219
-0.037847 -0.427365 0.006332
-0.027821 -0.373893 0.038428
-0.033562 -0.413705 0.013906
-0.015140 -0.477646 -0.003507
-0.031819 -0.478354 -0.016585
-0.036734 -0.450135 -0.007149
-0.045660 -0.446099 -0.013238
-0.009594 -0.431872 0.020792
-0.037847 -0.417129 0.006332
-0.033301 -0.420401 0.006742
-0.006773 -0.476196 -0.001303
-0.037357 -0.387720 0.017659
-0.045660 -0.435903 -0.013238
0.001513 -0.483651 -0.001360
-0.036734 -0.434876 -0.007149
-0.035255 -0.425287 -0.001929
-0.049702 -0.420954 -0.011500
-0.037847 -0.401775 0.006332
-0.033590 -0.433545 -0.006590
-0.029547 -0.405817 0.005668
-0.037847 -0.391538 0.006332
-0.040156 -0.419740 -0.010942
0.011616 -0.458112 0.008073
-0.035255 -0.404914 -0.001929
-0.005324 -0.423177 0.009197
-0.045660 -0.405313 -0.013238
-0.048641 -0.408371 -0.017546
-0.022448 -0.447790 -0.016801
-0.037847 -0.376184 0.006332
-0.043314 -0.344880 0.016473
-0.017857 -0.381665 0.015405
-0.022595 -0.372491 0.015036
-0.017777 -0.402241 0.003240
-0.035255 -0.384541 -0.001929
-0.020418 -0.435613 -0.016202
-0.015055 -0.405857 0.001018
-0.006800 -0.451193 -0.014558
-0.040156 -0.389214 -0.010942
-0.037847 -0.355711 0.006332
-0.028286 -0.409506 -0.014057
0.013525 -0.472394 -0.015356
-0.035255 -0.369261 -0.001929
-0.045660 -0.374724 -0.013238
-0.037847 -0.340357 0.006332
-0.037900 -0.391714 -0.021055
-0.032579 -0.389911 -0.016814
-0.034017 -0.333518 0.008891
-0.040156 -0.363775 -0.010942
-0.014708 -0.354719 0.012128
-0.037847 -0.330121 0.006332
-0.016967 -0.409808 -0.017506
-0.037362 -0.316207 0.011973
-0.049697 -0.345499 -0.011894
-0.045660 -0.354330 -0.013238
-0.037847 -0.319884 0.006332
-0.036734 -0.348409 -0.007149
-0.029095 -0.354559 -0.005729
-0.029975 -0.330108 0.005410
-0.031641 -0.346830 -0.004570
-0.045660 -0.339036 -0.013238
-0.046459 -0.353772 -0.021327
-0.030874 -0.349983 -0.008330
-0.042078 -0.325897 -0.006822
-0.037847 -0.304530 0.006332
-0.036734 -0.333150 -0.007149
-0.019927 -0.357465 -0.007245
-0.038189 -0.304573 0.003586
-0.054748 -0.310958 -0.012356
-0.013990 -0.338168 0.005696
-0.045660 -0.323741 -0.013238
-0.037847 -0.289175 0.006332
-0.036734 -0.317892 -0.007149
-0.029042 -0.307444 0.002176
-0.039963 -0.286034 0.002925
-0.045660 -0.308446 -0.013238
-0.036734 -0.307719 -0.007149
-0.043128 -0.312713 -0.015863
-0.033260 -0.277232 0.008289
-0.037847 -0.273821 0.006332
-0.031582 -0.280183 0.006755
-0.036734 -0.297547 -0.007149
-0.045660 -0.293151 -0.013238
-0.037847 -0.263585 0.006332
-0.048770 -0.299955 -0.020208
-0.051935 -0.257161 -0.004489
-0.036734 -0.287374 -0.007149
-0.035255 -0.277583 -0.001929
-0.045660 -0.282955 -0.013238
-0.037847 -0.253348 0.006332
-0.040844 -0.287651 -0.013018
-0.034655 -0.284892 -0.008520
-0.035255 -0.267396 -0.001929
-0.020822 -0.298122 -0.006289
-0.026697 -0.308049 -0.015886
-0.033045 -0.258910 0.002740
-0.037847 -0.243112 0.006332
-0.045946 -0.234776 0.003784
-0.028051 -0.272258 -0.001130
-0.044150 -0.251335 -0.005653
-0.040156 -0.267107 -0.010942
-0.044678 -0.279334 -0.021377
-0.037847 -0.232876 0.006332
-0.059106 -0.200923 0.004483
-0.053364 -0.200384 0.008816
-0.024230 -0.281953 -0.008658
-0.045660 -0.257463 -0.013238
-0.036734 -0.256856 -0.007149
-0.035255 -0.247023 -0.001929
-0.037847 -0.222639 0.006332
-0.044283 -0.257464 -0.015771
-0.032509 -0.220952 0.010821
-0.027757 -0.247314 0.001965
-0.031495 -0.223169 0.010221
-0.037873 -0.277147 -0.021092
-0.045660 -0.247267 -0.013238
-0.037847 -0.212403 0.006332
-0.045660 -0.237070 -0.013238
-0.015248 -0.254298 0.000588
-0.036734 -0.236511 -0.007149
-0.043811 -0.239341 -0.014508
-0.032347 -0.200559 0.011415
-0.037847 -0.202167 0.006332
-0.033410 -0.223688 -0.001491
-0.029454 -0.255760 -0.013874
-0.035255 -0.221557 -0.001929
-0.022288 -0.242530 -0.002893
-0.045660 -0.226873 -0.013238
-0.037847 -0.191931 0.006332
-0.019167 -0.207120 0.012243
-0.035255 -0.211370 -0.001929
-0.043434 -0.177257 0.006133
-0.045316 -0.188123 -0.000451
-0.040156 -0.216230 -0.010942
-0.035255 -0.201184 -0.001929
-0.040713 -0.216364 -0.013684
-0.030815 -0.194834 0.003941
-0.029286 -0.227034 -0.010489
-0.037847 -0.176576 0.006332
-0.028178 -0.202887 0.000277
-0.040156 -0.206054 -0.010942
-0.035255 -0.190997 -0.001929
-0.037847 -0.166340 0.006332
-0.047514 -0.197176 -0.016284
-0.024890 -0.193406 0.001730
-0.035255 -0.180811 -0.001929
-0.040156 -0.190791 -0.010942
-0.056733 -0.141712 -0.002060
-0.014547 -0.170015 0.015563
-0.045660 -0.180989 -0.013238
-0.036307 -0.159883 0.003479
-0.037847 -0.150985 0.006332
-0.035255 -0.170624 -0.001929
-0.032162 -0.150245 0.008762
-0.023011 -0.159815 0.011109
-0.034567 -0.163832 -0.002381
-0.037847 -0.140749 0.006332
-0.025851 -0.187681 -0.007995
-0.036477 -0.139870 0.005863
-0.047112 -0.144135 -0.004514
-0.035255 -0.155344 -0.001929
-0.040156 -0.165352 -0.010942
-0.037847 -0.130513 0.006332
-0.013776 -0.182560 -0.002898
-0.045660 -0.150399 -0.013238
-0.063312 -0.091028 -0.001128
-0.038007 -0.151373 -0.010131
-0.037847 -0.115158 0.006332
-0.036734 -0.144959 -0.007149
-0.040641 -0.121698 -0.000514
-0.013467 -0.162560 0.000636
-0.030356 -0.114305 0.009166
-0.029710 -0.124576 0.004299
-0.045660 -0.135104 -0.013238
-0.036734 -0.134786 -0.007149
-0.038272 -0.117145 -0.000825
-0.055336 -0.081013 0.003179
-0.035255 -0.124785 -0.001929
-0.037847 -0.099804 0.006332
-0.051627 -0.105557 -0.006963
-0.045660 -0.124908 -0.013238
-0.037847 -0.089568 0.006332
-0.023765 -0.122263 0.000294
-0.045660 -0.114711 -0.013238
-0.031064 -0.076733 0.014192
-0.011555 -0.098348 0.017877
-0.036734 -0.109355 -0.007149
-0.032866 -0.096806 0.000843
-0.016179 -0.151240 -0.013752
-0.024167 -0.105599 0.000708
-0.017427 -0.130943 -0.006777
-0.045660 -0.099416 -0.013238
-0.033900 -0.108563 -0.009000
-0.039214 -0.054879 0.010323
-0.037847 -0.063977 0.006332
-0.036734 -0.094096 -0.007149
-0.035255 -0.084039 -0.001929
-0.045660 -0.089220 -0.013238
-0.045676 -0.033867 0.010819
-0.037176 -0.058051 0.004412
-0.045660 -0.079023 -0.013238
-0.051702 -0.034273 0.002467
-0.033381 -0.061993 0.003585
-0.028908 -0.090463 -0.006257
-0.037847 -0.048622 0.006332
-0.051614 -0.040415 -0.001709
-0.012548 -0.106894 -0.004084
-0.033283 -0.026267 0.017174
-0.037369 -0.038855 0.006763
-0.057780 -0.000601 0.008898
-0.037847 -0.038386 0.006332
-0.025134 -0.086429 -0.007000
-0.036734 -0.068665 -0.007149
-0.033383 -0.064446 -0.003940
-0.035255 -0.053479 -0.001929
-0.045660 -0.058630 -0.013238
-0.008173 -0.074538 0.005285
-0.037847 -0.023032 0.006332
-0.031237 -0.031508 0.006764
-0.020073 -0.061947 -0.001014
-0.037847 -0.012795 0.006332
-0.011386 -0.062178 0.002197
-0.040156 -0.043246 -0.010942
-0.035255 -0.028013 -0.001929
-0.031845 -0.071762 -0.021810
-0.024310 -0.061651 -0.011481
-0.026922 -0.039428 -0.003983
-0.045660 -0.028041 -0.013238
-0.037847 0.002559 0.006332
-0.029588 -0.028835 -0.004887
-0.045660 -0.017844 -0.013238
-0.037847 0.012795 0.006332
-0.036734 -0.017802 -0.007149
-0.035960 0.031157 0.013611
-0.034852 -0.015602 -0.007425
-0.037186 0.011000 0.002959
-0.035255 -0.002547 -0.001929
-0.024846 -0.008840 0.001973
-0.045660 -0.002549 -0.013238
-0.039143 0.011276 -0.002454
-0.037847 0.033268 0.006332
-0.050713 0.003373 -0.018984
-0.029968 0.064086 0.024348
-0.036734 0.007629 -0.007149
-0.024886 -0.026088 -0.014209
-0.045660 0.012746 -0.013238
-0.058864 0.044317 -0.009558
-0.049694 0.043447 -0.002674
-0.035255 0.022920 -0.001929
-0.058922 0.067902 -0.001908
-0.045660 0.022942 -0.013238
-0.018208 -0.000006 -0.005800
-0.037847 0.058859 0.006332
-0.026250 0.006688 -0.009366
-0.040148 0.089054 0.015120
-0.037639 0.073392 0.008836
-0.037847 0.069095 0.006332
-0.035255 0.048386 -0.001929
-0.040156 0.038158 -0.010942
-0.026821 0.019905 -0.010035
-0.040862 0.075664 0.003940
-0.030952 0.103641 0.021972
-0.011785 0.085107 0.027997
-0.025625 0.056123 0.004128
-0.033246 0.022559 -0.017806
-0.016409 0.052524 0.008079
-0.042151 0.052361 -0.011066
-0.045660 0.053532 -0.013238
-0.037847 0.084449 0.006332
-0.035255 0.063666 -0.001929
-0.036996 0.122357 0.020762
-0.040156 0.063597 -0.010942
-0.035255 0.078946 -0.001929
-0.036969 0.079241 -0.003407
-0.045660 0.073925 -0.013238
-0.037847 0.104922 0.006332
-0.037847 0.115158 0.006332
-0.053883 0.124823 -0.001727
-0.035255 0.094225 -0.001929
-0.040156 0.083948 -0.010942
-0.006730 0.073414 0.009135
-0.045660 0.094318 -0.013238
-0.037847 0.125395 0.006332
-0.018349 0.073752 -0.003380
-0.021720 0.116154 0.011221
-0.035255 0.109505 -0.001929
-0.024712 0.109210 0.005401
-0.037847 0.135631 0.006332
-0.035255 0.119692 -0.001929
-0.040156 0.109387 -0.010942
-0.014891 0.083122 -0.004179
-0.036959 0.138673 0.003310
-0.045660 0.119810 -0.013238
-0.037847 0.150985 0.006332
-0.041352 0.130457 -0.006738
-0.041061 0.146020 -0.000991
-0.022438 0.116386 0.000067
-0.033409 0.108770 -0.011798
-0.037847 0.161222 0.006332
-0.045660 0.135104 -0.013238
-0.036734 0.134786 -0.007149
-0.062735 0.173060 -0.010239
-0.037847 0.171458 0.006332
-0.017314 0.140562 0.005662
-0.045660 0.145301 -0.013238
-0.036734 0.150045 -0.007149
-0.045660 0.155498 -0.013238
-0.035255 0.165531 -0.001929
-0.037847 0.191931 0.006332
-0.059099 0.187903 -0.013134
-0.015356 0.162523 0.008529
-0.045660 0.165694 -0.013238
-0.017443 0.158751 0.004307
-0.039790 0.184451 -0.001993
-0.037847 0.202167 0.006332
-0.035255 0.180811 -0.001929
-0.034232 0.183846 -0.000775
-0.040156 0.175528 -0.010942
-0.037847 0.212403 0.006332
-0.010087 0.305336 0.067221
-0.011989 0.150223 -0.003546
-0.045660 0.186087 -0.013238
-0.026584 0.196592 0.005594
-0.020631 0.204187 0.009033
-0.046987 0.209600 -0.008217
-0.037847 0.227758 0.006332
-0.036734 0.195821 -0.007149
-0.035255 0.206277 -0.001929
-0.045660 0.201382 -0.013238
-0.032007 0.192946 -0.007427
-0.037847 0.237994 0.006332
-0.045660 0.211579 -0.013238
-0.036734 0.216166 -0.007149
-0.037847 0.248230 0.006332
-0.035255 0.231743 -0.001929
-0.037847 0.258466 0.006332
-0.049568 0.258532 -0.003284
-0.041920 0.271981 0.008396
-0.040156 0.226405 -0.010942
-0.021723 0.209710 -0.006810
-0.035255 0.241930 -0.001929
-0.023270 0.223163 -0.005928
-0.016737 0.196597 -0.012324
-0.045660 0.242168 -0.013238
-0.037847 0.273821 0.006332
-0.027286 0.331688 0.036208
-0.045660 0.252365 -0.013238
-0.036734 0.251770 -0.007149
-0.035255 0.262303 -0.001929
-0.037847 0.289175 0.006332
-0.037540 0.283029 0.003403
-0.027955 0.251157 -0.006043
-0.040156 0.262020 -0.010942
-0.037847 0.299412 0.006332
-0.019286 0.256474 -0.000088
-0.042239 0.266026 -0.013597
-0.036734 0.272115 -0.007149
-0.045660 0.277856 -0.013238
-0.024674 0.360386 0.038162
-0.037847 0.309648 0.006332
-0.047879 0.290226 -0.011128
-0.036734 0.287374 -0.007149
-0.045660 0.288053 -0.013238
-0.037847 0.319884 0.006332
-0.003507 0.247078 -0.001398
-0.035255 0.297956 -0.001929
-0.058188 0.346195 0.000920
-0.044987 0.326339 0.000179
-0.046755 0.317653 -0.005443
-0.037847 0.330121 0.006332
-0.040156 0.302722 -0.010942
-0.037847 0.340357 0.006332
-0.036734 0.312805 -0.007149
-0.045660 0.313544 -0.013238
-0.035255 0.323422 -0.001929
-0.037847 0.350593 0.006332
-0.041240 0.337485 -0.003418
-0.028773 0.371516 0.019899
-0.045660 0.323741 -0.013238
-0.020397 0.403011 0.037719
-0.008660 0.309607 0.005467
-0.037847 0.360829 0.006332
-0.009230 0.330867 0.013055
-0.022937 0.299309 -0.011247
-0.036734 0.333150 -0.007149
-0.045660 0.333937 -0.013238
-0.035255 0.343795 -0.001929
-0.054197 0.371694 -0.006722
-0.037847 0.376184 0.006332
-0.035255 0.353982 -0.001929
-0.050601 0.423600 0.015836
-0.031510 0.312851 -0.019333
-0.045660 0.349232 -0.013238
-0.040893 0.365054 -0.004716
-0.020288 0.321133 -0.008055
-0.022375 0.375288 0.012890
-0.037847 0.386420 0.006332
-0.035255 0.369261 -0.001929
-0.016124 0.401364 0.025107
-0.022230 0.352606 -0.001197
-0.012040 0.352053 0.006757
-0.037847 0.396656 0.006332
-0.050573 0.385090 -0.009271
-0.006369 0.324269 -0.002691
-0.040156 0.363775 -0.010942
0.000635 0.401381 0.033455
-0.037847 0.406893 0.006332
-0.045660 0.374724 -0.013238
-0.036734 0.378927 -0.007149
-0.045660 0.384920 -0.013238
-0.020624 0.394767 0.009332
-0.018372 0.361579 -0.004705
-0.038439 0.398316 -0.003247
0.010194 0.317791 -0.004889
-0.050801 0.435280 0.001391
-0.037847 0.427365 0.006332
-0.036734 0.394186 -0.007149
-0.048923 0.406295 -0.011479
-0.015693 0.424004 0.020464
-0.056459 0.454887 0.002906
-0.045660 0.400215 -0.013238
-0.035255 0.415101 -0.001929
-0.036734 0.404358 -0.007149
-0.026474 0.403731 -0.000746
-0.036279 0.423173 0.000266
-0.013470 0.437377 0.021859
0.012023 0.369739 0.009231
-0.037847 0.447838 0.006332
-0.025869 0.417347 0.001385
-0.007680 0.412021 0.012156
-0.040156 0.414653 -0.010942
-0.062140 0.467133 -0.005878
-0.035255 0.435474 -0.001929
-0.036734 0.424703 -0.007149
-0.045660 0.430805 -0.013238
-0.006547 0.469141 0.028447
-0.035255 0.450754 -0.001929
-0.042372 0.479131 0.003317
-0.040156 0.445179 -0.010942
-0.035255 0.460940 -0.001929
-0.045486 0.472763 -0.007072
-0.045660 0.461394 -0.013238
-0.048891 0.444145 -0.023257
-0.032068 0.436507 -0.014596
0.014173 0.394721 -0.001793
0.016647 0.428811 0.014793
0.000533 0.472882 0.021072
-0.020058 0.478835 0.005733
-0.037437 0.486031 -0.006635
0.004552 0.444236 0.005970
-0.012914 0.486423 0.005255
0.013494 0.449637 0.008737
0.004124 0.478832 0.012599
0.027906 0.417043 0.001001
-0.001156 0.421649 -0.017840
0.015486 0.419081 -0.008643
-0.011050 0.471159 -0.005958
-0.008999 0.447630 -0.014971
-0.004999 0.478840 0.000659
0.012835 0.459847 0.004561
-0.002754 0.461726 -0.007800
0.013564 0.448550 -0.003905
-0.014096 0.478836 -0.011301
-0.003563 0.501195 0.004770
-0.018581 0.489483 -0.014216
0.021788 0.478833 0.011444
0.005299 0.459711 -0.010627
0.019498 0.473564 0.004731
0.015767 0.478839 0.003568
0.009751 0.478843 -0.004312
-0.010187 0.492190 -0.014202
0.003758 0.478837 -0.012209
0.046320 0.489566 0.021279
0.042062 0.478834 0.014216
0.002071 0.464832 -0.022961
-0.001870 0.494871 -0.014189
0.072172 0.450841 0.020784
0.036112 0.478836 0.006413
-0.016765 0.449568 -0.046677
0.030151 0.478843 -0.001380
0.078834 0.435614 0.014140
0.011271 0.450539 -0.030163
0.023606 0.457854 -0.018722
0.003803 0.454314 -0.035768
0.021238 0.478841 -0.013093
0.011963 0.474991 -0.023047
0.010155 0.455930 -0.032331
0.017157 0.445306 -0.031936
0.014533 0.490305 -0.014163
0.056039 0.478835 0.009205
