-0.106758 0.163971 0.443879
-0.115250 0.163970 0.423354
-0.106912 0.135988 0.404390
-0.083192 0.161023 0.423924
-0.055672 0.157549 0.440634
-0.130139 0.163972 0.387456
-0.046667 -0.124379 0.321593
-0.051223 0.163968 0.442644
-0.068476 0.172642 0.432646
-0.059436 0.163967 0.422792
-0.029012 -0.076312 0.329525
-0.014434 -0.116951 0.322069
-0.081951 -0.159148 0.251156
-0.119064 0.159666 0.361930
-0.008886 0.157594 0.439013
-0.007600 -0.143932 0.306209
-0.071755 0.163966 0.393014
-0.061720 -0.172598 0.251179
-0.032167 -0.115192 0.298407
-0.074831 -0.127529 0.258935
0.023066 -0.108943 0.338575
0.023228 0.155984 0.448992
-0.005612 0.166824 0.431342
-0.032167 -0.094714 0.298407
-0.079049 0.159594 0.374036
0.016759 -0.171020 0.295890
-0.032167 -0.074235 0.298407
0.046216 -0.145304 0.322042
-0.041996 -0.160273 0.251204
-0.084074 0.163965 0.363238
-0.051791 -0.140797 0.251189
-0.001683 -0.157313 0.278787
-0.022391 -0.123859 0.274386
-0.025489 0.150984 0.388206
-0.032167 -0.043517 0.298407
-0.035775 -0.124424 0.259174
-0.021519 0.180628 0.402228
-0.092278 0.163962 0.343381
0.014746 -0.170227 0.273980
-0.025302 0.141796 0.381466
-0.022391 -0.103638 0.274386
-0.071851 0.170002 0.355520
-0.119744 0.175841 0.322516
-0.022742 -0.148250 0.251220
-0.035775 -0.104110 0.259174
-0.032167 -0.023038 0.298407
-0.003980 -0.171272 0.251249
0.025334 0.155546 0.412480
-0.022391 -0.083416 0.274386
-0.037000 0.175551 0.372879
0.060379 0.162534 0.435954
0.058713 0.152410 0.426837
0.018113 -0.093745 0.289953
-0.008172 -0.132011 0.253848
-0.022391 -0.063194 0.274386
0.028034 0.163365 0.408915
-0.035775 -0.073639 0.259174
-0.042823 -0.053543 0.257579
0.027134 -0.172801 0.254549
-0.032167 0.023038 0.298407
-0.022391 -0.042972 0.274386
-0.055511 0.156529 0.334718
0.017754 -0.009263 0.315436
-0.112869 0.163968 0.293791
-0.022908 -0.002537 0.286517
-0.016531 0.072372 0.321469
-0.022391 -0.022750 0.274386
-0.035775 -0.033010 0.259174
-0.011841 0.167103 0.362768
0.036184 0.167442 0.394549
0.045339 0.152410 0.394556
-0.055615 0.150287 0.317637
-0.121105 0.163970 0.273954
0.110084 0.152408 0.433083
-0.083480 0.165020 0.297938
-0.035775 -0.002539 0.259174
-0.048917 0.163960 0.321357
-0.023013 0.170685 0.342073
-0.032167 0.084474 0.298407
-0.022908 0.053272 0.286517
-0.122369 0.169280 0.262195
-0.129342 0.163972 0.254117
0.104231 0.168723 0.424239
-0.026999 0.022763 0.265515
-0.042823 0.033146 0.257579
0.001262 0.183632 0.354687
0.033251 0.160083 0.366792
-0.032167 0.115192 0.298407
-0.028307 0.139385 0.309901
0.098982 0.152408 0.406294
-0.056409 0.156213 0.295069
-0.084134 0.180417 0.284131
-0.026999 0.042997 0.265515
0.133086 0.164261 0.431368
-0.042823 0.053543 0.257579
-0.005982 0.098760 0.301738
-0.032167 0.135671 0.298407
-0.036061 0.153320 0.295489
-0.032167 0.156150 0.298407
0.020285 0.159311 0.336691
-0.026999 0.073349 0.265515
-0.015086 0.160630 0.310605
-0.056799 0.161296 0.278998
-0.007384 0.147772 0.308722
-0.070778 0.163957 0.268499
-0.042823 0.094337 0.257579
0.096334 0.164532 0.386671
-0.087104 0.151678 0.248973
0.132641 0.153764 0.408023
-0.022391 0.103638 0.274386
0.082330 0.152409 0.366110
0.020539 0.175042 0.330545
0.079006 0.168848 0.368352
-0.078753 0.163959 0.249293
-0.042823 0.124933 0.257579
-0.071295 0.145029 0.244594
-0.021415 0.154437 0.285051
-0.022391 0.133970 0.274386
0.057089 0.174538 0.342439
0.073079 0.152410 0.343786
-0.022391 0.154192 0.274386
-0.086727 0.163961 0.230087
-0.042823 0.155529 0.257579
0.013725 0.160780 0.299692
0.132093 0.152562 0.379254
0.037778 0.149866 0.306885
0.012229 0.166983 0.291516
0.093048 0.166833 0.349390
0.061978 0.152410 0.316996
-0.102266 0.174478 0.204413
0.018130 0.158688 0.281846
0.122427 0.152408 0.352396
-0.102676 0.163965 0.191672
0.131768 0.170539 0.362207
0.027809 0.155582 0.280902
0.093836 0.179535 0.338454
-0.011555 0.164912 0.255581
-0.117276 0.158791 0.172994
0.073230 0.189893 0.320065
-0.016246 0.172677 0.242075
-0.016051 0.148927 0.230627
0.045337 0.152410 0.276803
0.109874 0.152408 0.322104
0.104244 0.185301 0.330022
0.073673 0.167543 0.299048
-0.116633 0.163968 0.158058
0.000328 0.166171 0.244541
0.021751 0.161756 0.250679
0.131127 0.164332 0.328586
-0.064719 0.174151 0.189229
-0.124608 0.163970 0.138849
-0.054523 0.163960 0.188954
0.097321 0.152409 0.291811
-0.018359 0.190097 0.223404
0.011335 0.141822 0.222816
0.115388 0.166204 0.307391
-0.062296 0.163967 0.170361
-0.074926 0.164453 0.158408
-0.028694 0.160150 0.188529
0.130602 0.153888 0.301040
0.088354 0.152409 0.270173
0.003249 0.160262 0.210110
-0.005242 0.169085 0.204522
-0.123908 0.172949 0.116386
-0.073797 0.163958 0.142388
0.079388 0.152410 0.248535
0.130187 0.152952 0.279305
-0.007062 0.155340 0.176821
0.041272 0.163117 0.208356
-0.090073 0.172499 0.114185
-0.087315 0.163961 0.109804
0.127074 0.152408 0.259733
0.129982 0.170696 0.268537
0.065003 0.213745 0.239088
0.063248 0.152411 0.209586
0.011384 0.154400 0.168982
-0.095044 0.163962 0.091187
0.101201 0.163438 0.233163
0.118375 0.152408 0.238741
0.023935 0.180682 0.175567
-0.112763 0.182562 0.074263
-0.008353 0.162241 0.140817
-0.104706 0.163965 0.067914
-0.025681 0.172765 0.130654
0.124102 0.157700 0.228875
-0.028158 0.171328 0.123631
0.047126 0.152409 0.170626
0.073769 0.133324 0.178597
-0.035752 0.184358 0.118085
-0.112435 0.163967 0.049296
0.102718 0.152409 0.200955
0.006086 0.166286 0.132026
0.007690 0.187342 0.141783
-0.085456 0.180055 0.069428
0.056331 0.156841 0.163811
-0.005022 0.158579 0.117140
0.128974 0.163663 0.215658
-0.052376 0.163967 0.082554
-0.000698 0.116132 0.098743
-0.109876 0.164143 0.028981
0.090539 0.152410 0.171566
-0.031282 0.144737 0.077759
-0.127895 0.163971 0.012058
-0.083722 0.150964 0.035945
-0.063617 0.163969 0.055456
-0.052931 0.169461 0.061736
0.128286 0.153095 0.179573
0.078361 0.152410 0.142176
0.111691 0.162492 0.170480
-0.117137 0.168155 0.000361
0.006236 0.155123 0.086343
-0.063117 0.182377 0.045523
-0.076641 0.163960 0.023805
0.127996 0.170091 0.164335
0.080419 0.167814 0.127660
0.123005 0.152408 0.152057
0.064449 0.152410 0.108585
-0.022392 0.174484 0.050664
-0.087875 0.163961 -0.003294
-0.063043 0.146564 0.003757
0.034450 0.171937 0.083921
-0.095223 0.170803 -0.015126
-0.005435 0.165705 0.049090
-0.003930 0.150877 0.043013
0.052285 0.152409 0.079188
0.111688 0.161641 0.122079
-0.042652 0.167483 0.010627
-0.105664 0.147344 -0.054779
0.007145 0.201434 0.053946
0.127328 0.172730 0.129299
0.127139 0.154787 0.119419
0.101044 0.152410 0.099059
-0.108489 0.163965 -0.052971
0.040120 0.152408 0.049791
-0.021224 0.172860 0.002049
0.001627 0.134485 0.000549
0.066507 0.175964 0.067480
-0.016832 0.166840 -0.002277
0.016036 0.141653 0.008715
0.085840 0.152410 0.062367
-0.125362 0.163970 -0.093616
0.126581 0.153450 0.090122
-0.063011 0.163967 -0.048415
-0.039819 0.152604 -0.041752
-0.045963 0.158730 -0.046406
0.077393 0.152411 0.041983
0.089444 0.176791 0.055870
0.050998 0.160229 0.016681
-0.119805 0.176029 -0.106884
0.126214 0.165465 0.070870
0.068955 0.152410 0.021595
-0.079321 0.163962 -0.087906
-0.021772 0.182971 -0.039172
0.119166 0.152409 0.050447
-0.081961 0.183718 -0.086676
0.104208 0.178428 0.045464
-0.088411 0.163963 -0.109835
0.028652 0.162199 -0.025958
0.110957 0.152409 0.030637
0.055456 0.152409 -0.011027
0.125671 0.172579 0.042402
-0.110171 0.160559 -0.143139
-0.097501 0.163964 -0.131764
0.102749 0.152410 0.010827
-0.006066 0.162491 -0.065894
0.047019 0.152408 -0.031416
0.056992 0.155188 -0.026092
0.001351 0.138704 -0.077046
0.074431 0.165329 -0.013121
0.104611 0.159421 0.002288
0.094540 0.152410 -0.008983
-0.108411 0.163965 -0.158079
-0.031048 0.144347 -0.108521
-0.056750 0.168350 -0.117575
0.125050 0.154004 0.009795
-0.004379 0.156387 -0.085538
-0.044942 0.194889 -0.098448
0.032493 0.179066 -0.049729
0.035208 0.152407 -0.059959
0.025867 0.173866 -0.060413
0.086331 0.152411 -0.028793
-0.057139 0.163965 -0.133645
0.079480 0.158470 -0.034174
-0.025899 -0.124236 -0.250863
-0.071396 -0.166126 -0.308120
-0.121154 0.163968 -0.188777
-0.041788 0.169226 -0.125552
-0.123147 0.174889 -0.187161
0.051936 0.171293 -0.057540
0.124700 0.165730 -0.008550
0.078127 0.152410 -0.048606
-0.001413 -0.151480 -0.260091
-0.069481 0.163963 -0.163488
-0.071441 -0.135120 -0.308113
-0.130257 0.163971 -0.210705
-0.003637 0.179537 -0.109655
0.027499 -0.169376 -0.253312
-0.032978 -0.093879 -0.262532
0.015974 0.161324 -0.111843
-0.043397 -0.154033 -0.308085
0.065009 0.152409 -0.080308
-0.078315 0.163964 -0.184800
-0.013283 0.155059 -0.140158
-0.005743 -0.125989 -0.267763
0.014185 -0.165932 -0.271589
-0.032978 -0.063314 -0.262532
-0.069006 0.171757 -0.179253
-0.022352 -0.114109 -0.281734
0.000411 -0.154267 -0.285788
-0.044411 0.178447 -0.162097
-0.038218 0.164886 -0.164928
-0.044475 -0.115234 -0.303650
0.002080 0.175829 -0.129487
-0.016463 -0.167929 -0.308062
0.123927 0.155385 -0.049088
0.044950 0.172238 -0.100374
-0.113108 0.174771 -0.221011
-0.087150 0.163964 -0.206112
0.118084 0.165285 -0.052680
-0.032978 -0.037115 -0.262532
0.053530 0.152408 -0.108048
0.019515 0.177443 -0.124132
-0.005624 -0.125136 -0.288917
-0.026280 -0.096806 -0.293826
0.020185 -0.168151 -0.293424
-0.022352 -0.075355 -0.281734
-0.044475 -0.084795 -0.303650
-0.005457 -0.141518 -0.301489
0.081398 0.172931 -0.086938
-0.005232 0.155929 -0.161058
0.097972 0.152410 -0.087984
0.123506 0.154320 -0.071177
-0.040496 -0.103563 -0.320567
-0.081858 0.160068 -0.227838
-0.030247 -0.141491 -0.333764
-0.016387 0.175296 -0.171481
0.071172 0.149065 -0.118116
0.040411 0.152406 -0.139749
-0.103051 0.163966 -0.244475
-0.008759 -0.077588 -0.287260
-0.044475 -0.054356 -0.303650
-0.027074 -0.006510 -0.267990
0.018582 0.154461 -0.165460
-0.032978 0.032748 -0.262532
-0.024210 -0.036559 -0.289928
0.085202 0.152410 -0.118814
0.123173 0.165757 -0.088631
-0.044475 -0.015220 -0.303650
-0.058483 0.163966 -0.230781
0.036817 0.148235 -0.167273
0.115610 0.162055 -0.103845
-0.092104 0.196314 -0.245409
-0.024210 -0.006452 -0.289928
-0.032978 0.063314 -0.262532
-0.041247 0.164369 -0.225920
-0.009629 0.154016 -0.207787
-0.114330 0.145681 -0.294598
0.122762 0.152440 -0.110183
0.072442 0.152409 -0.149648
-0.032978 0.085146 -0.262532
-0.067055 0.163964 -0.251513
-0.029365 0.015076 -0.297560
-0.044475 0.032613 -0.303650
-0.094260 0.165100 -0.281472
0.002410 -0.109850 -0.339031
-0.131338 0.163970 -0.312674
-0.015980 0.160317 -0.226213
-0.008701 0.154644 -0.223818
-0.022352 0.053825 -0.281734
0.064468 0.152408 -0.168918
0.045535 -0.101967 -0.311618
-0.054539 0.159073 -0.263612
0.042562 -0.142540 -0.336726
-0.044475 0.063053 -0.303650
0.066129 0.177415 -0.166863
-0.022352 0.075355 -0.281734
0.107439 0.152410 -0.147769
-0.003695 0.157862 -0.231323
0.056493 0.152408 -0.188189
-0.027074 0.123687 -0.267990
0.122196 0.163090 -0.139870
-0.044475 0.084795 -0.303650
-0.032978 0.155009 -0.262532
0.030667 0.152971 -0.217952
0.058104 0.170772 -0.189840
0.013608 0.159048 -0.230370
0.002932 0.008912 -0.310065
-0.091113 0.163966 -0.309554
0.098114 0.152411 -0.170274
-0.026280 0.092504 -0.293826
0.046924 0.152407 -0.211313
0.121410 0.187962 -0.140982
-0.036037 0.176697 -0.265984
0.086595 0.139074 -0.191872
-0.044475 0.115234 -0.303650
-0.024210 0.113977 -0.289928
0.039101 0.155548 -0.223742
-0.030400 0.163062 -0.274357
0.090347 0.152410 -0.189030
-0.099705 0.163967 -0.330283
0.038949 0.152406 -0.230583
0.047920 -0.065670 -0.333687
-0.007274 0.074549 -0.308133
-0.011374 0.159487 -0.271501
-0.106701 0.168555 -0.341420
-0.079295 0.159040 -0.325376
-0.024210 0.144084 -0.289928
0.121641 0.165562 -0.169005
-0.044475 0.154370 -0.303650
-0.038728 0.172733 -0.290768
0.082585 0.152410 -0.207787
-0.108297 0.163968 -0.351012
0.113951 0.156345 -0.185060
-0.063766 0.164912 -0.317181
0.003294 0.184070 -0.257270
0.018272 0.068403 -0.300934
0.026498 0.151209 -0.256323
0.121251 0.152580 -0.189486
-0.059705 0.163960 -0.322744
0.008441 0.157588 -0.283162
0.018183 0.151334 -0.280201
0.105387 0.143299 -0.218553
-0.068074 0.163962 -0.342918
-0.123764 0.163969 -0.388325
0.065508 0.152408 -0.249050
0.008017 0.106295 -0.318493
0.043483 0.162641 -0.266407
-0.057808 0.139434 -0.354892
-0.076443 0.163963 -0.363094
-0.017148 0.150526 -0.324008
-0.066725 0.174228 -0.355260
0.120713 0.162964 -0.217709
-0.027480 0.172968 -0.327348
0.101275 0.152411 -0.240983
0.023345 0.173480 -0.290964
0.053089 0.152407 -0.279060
0.105056 0.163682 -0.235952
-0.084813 0.163965 -0.383269
-0.119856 0.152368 -0.419494
0.021587 0.154044 -0.308339
0.045328 0.152406 -0.297816
0.043222 0.166018 -0.294789
0.023567 0.138541 -0.323321
0.001287 0.167851 -0.326978
0.086152 0.152410 -0.277521
0.047043 0.181199 -0.294381
-0.098204 0.163968 -0.415551
-0.025800 0.163639 -0.361974
0.036014 0.152405 -0.320322
-0.055527 0.148335 -0.393308
-0.006759 0.161383 -0.350797
0.068200 0.091568 -0.327055
0.016168 0.145279 -0.342656
0.000222 0.169624 -0.343525
0.119887 0.152911 -0.261031
0.120035 0.172712 -0.253246
0.103401 0.161238 -0.276812
-0.002490 0.160862 -0.357514
0.043333 0.160787 -0.323490
0.086478 0.169646 -0.289293
0.024634 0.139707 -0.351817
0.042396 0.167209 -0.325875
0.072543 0.152408 -0.310405
-0.062574 0.163966 -0.413848
0.020442 0.168991 -0.347793
-0.064927 0.152766 -0.426705
0.071499 0.161428 -0.321188
0.119519 0.171163 -0.280320
-0.031427 0.178146 -0.395724
-0.070726 0.163967 -0.433501
0.060447 0.152407 -0.339634
0.119156 0.154786 -0.299362
0.061197 0.167274 -0.340221
0.099855 0.152410 -0.318795
-0.013860 0.171824 -0.400257
0.048350 0.152406 -0.368863
0.091012 0.152409 -0.340163
-0.036543 0.160522 -0.437000
0.032838 0.151812 -0.391025
0.047372 0.149552 -0.380121
0.118798 0.172796 -0.318164
0.101712 0.194346 -0.325762
0.048808 0.177619 -0.376073
0.005035 0.148040 -0.425749
0.019020 0.145655 -0.416303
0.079222 0.152408 -0.368652
0.031718 0.152404 -0.409053
0.118373 0.163956 -0.340415
0.050551 0.177154 -0.391112
0.013814 0.139905 -0.444305
0.027608 0.164803 -0.424639
0.108570 0.152411 -0.368452
0.063010 0.152407 -0.407825
0.099006 0.145635 -0.386887
0.070833 0.176648 -0.394767
0.089750 0.163142 -0.393484
0.054168 0.152406 -0.429191
0.101555 0.149747 -0.397109
0.058505 0.092672 -0.457282
0.091398 0.172040 -0.396343
0.047978 0.164116 -0.437793
0.091320 0.152409 -0.410131
0.099258 0.151940 -0.406344
0.117544 0.172663 -0.383926
0.045325 0.152405 -0.450558
0.117273 0.153339 -0.398144
0.076628 0.187224 -0.414136
0.121102 0.134105 -0.408276
0.106818 0.106503 -0.432746
0.082696 0.152408 -0.430970
0.064511 0.159479 -0.447289
0.138113 0.149853 -0.396260
