-0.029662 -0.131849 0.303548
-0.009828 -0.147736 0.293349
-0.080729 -0.150997 0.253462
-0.085852 -0.159751 0.278768
-0.086813 -0.155834 0.255144
-0.084129 -0.144260 0.286932
-0.073208 -0.168198 0.264452
-0.089155 -0.165874 0.264345
-0.075175 -0.148498 0.253488
-0.080954 -0.161681 0.254378
-0.080184 -0.165477 0.252750
-0.079720 -0.158069 0.251730
-0.084572 -0.165053 0.258425
-0.074651 -0.165297 0.253165
-0.083017 -0.157503 0.264790
-0.083047 -0.160086 0.254772
-0.082377 -0.157841 0.295029
-0.085688 -0.169077 0.274955
-0.071483 -0.163698 0.275740
-0.086506 -0.164601 0.254728
-0.080961 -0.138603 0.262813
-0.083335 -0.168237 0.254149
-0.081256 -0.151978 0.254851
-0.084535 -0.165831 0.302238
-0.082780 -0.171603 0.260618
-0.084859 -0.163619 0.283843
-0.081388 -0.169646 0.289196
-0.083541 -0.150741 0.275853
-0.083335 -0.141560 0.253996
-0.083231 -0.160696 0.255587
-0.081879 -0.164800 0.264047
-0.086108 -0.160217 0.258093
-0.084870 -0.147700 0.266863
-0.064458 -0.162309 0.253658
-0.119022 0.165656 0.342288
-0.130728 0.163324 0.375658
-0.129977 0.161622 0.353597
-0.121935 0.161768 0.392873
-0.103343 0.160422 0.364284
-0.130280 0.162499 0.363253
-0.104216 0.159875 0.348988
-0.116365 0.160953 0.326780
-0.113574 0.160793 0.353893
-0.112292 0.160473 0.346279
-0.116299 0.160813 0.362108
-0.106248 0.161114 0.335670
-0.123213 0.160389 0.370375
-0.124085 0.160949 0.347178
-0.109857 0.161382 0.394210
-0.129376 0.162291 0.383355
-0.099380 0.160816 0.376905
-0.130186 0.162903 0.343400
-0.112776 0.165789 0.366791
-0.122928 0.161291 0.337364
-0.120082 0.160886 0.376945
-0.127757 0.161982 0.397615
-0.120227 0.161241 0.354351
-0.113080 0.160865 0.383940
-0.122986 0.161673 0.385342
-0.114289 0.160562 0.372828
-0.127349 0.167790 0.359768
-0.128008 0.162222 0.330880
-0.106033 0.160996 0.376570
-0.123173 0.161156 0.361700
-0.129299 0.162838 0.371517
-0.097876 0.160896 0.357833
0.003109 0.155805 0.422669
-0.040530 0.156794 0.444819
-0.025265 0.155792 0.428317
-0.000318 0.157642 0.456934
0.034570 0.156432 0.439779
-0.046355 0.156644 0.435572
0.032350 0.156261 0.427150
0.006533 0.157079 0.410607
0.008700 0.156542 0.433223
0.016743 0.156634 0.425370
-0.004241 0.156144 0.440484
0.024796 0.156763 0.414778
-0.013312 0.156504 0.444563
-0.011575 0.156069 0.426915
0.019252 0.158529 0.456158
-0.031193 0.156789 0.451039
0.042907 0.157115 0.449842
-0.039103 0.157015 0.422945
0.023061 0.155134 0.437396
-0.010284 0.156912 0.416981
0.001726 0.157166 0.447364
-0.018956 0.157783 0.456082
-0.001692 0.157043 0.430878
0.011598 0.157514 0.451524
-0.009746 0.157222 0.450140
0.013382 0.156625 0.443205
-0.030720 0.155382 0.437322
-0.022970 0.157029 0.412227
0.026501 0.157626 0.448166
-0.016797 0.156435 0.435895
-0.024006 0.156668 0.443821
0.049401 0.157237 0.435295
-0.015241 -0.134926 0.291972
-0.026781 -0.144519 0.307188
-0.024554 -0.136773 0.301041
-0.013889 -0.139249 0.304850
-0.001219 -0.157023 0.305992
-0.040703 -0.141465 0.305431
-0.010518 -0.139685 0.300583
-0.005550 -0.144678 0.277626
-0.003481 -0.147870 0.305153
-0.007653 -0.142104 0.290669
-0.007643 -0.147571 0.308397
-0.002586 -0.150748 0.290206
-0.011603 -0.144125 0.308463
-0.006273 -0.145496 0.302389
-0.007380 -0.145983 0.305314
-0.017816 -0.154623 0.306567
-0.007219 -0.147167 0.304239
-0.027339 -0.145330 0.303560
-0.013033 -0.136361 0.303841
-0.005348 -0.154943 0.299863
-0.009196 -0.140458 0.304769
-0.014539 -0.146479 0.305324
-0.002620 -0.161836 0.306832
-0.005733 -0.146056 0.307152
-0.004167 -0.150918 0.306785
-0.007042 -0.143241 0.306147
-0.028050 -0.134213 0.306775
-0.017835 -0.141689 0.287878
-0.004872 -0.147633 0.304216
-0.012928 -0.143084 0.306167
-0.018312 -0.140993 0.306654
-0.004307 -0.149144 0.300500
-0.077894 0.164217 0.372803
-0.117149 0.163282 0.399017
-0.105805 0.162901 0.380010
-0.083365 0.163466 0.420834
-0.057034 0.162730 0.393262
-0.120112 0.163824 0.385778
-0.057328 0.163244 0.378661
-0.077915 0.163699 0.359757
-0.077168 0.163342 0.384627
-0.068762 0.163583 0.379191
-0.082240 0.163183 0.393017
-0.063629 0.163315 0.366112
-0.091030 0.162808 0.400145
-0.093233 0.163367 0.375800
-0.066284 0.164009 0.420751
-0.110204 0.164058 0.413227
-0.050149 0.162837 0.404607
-0.114968 0.163485 0.371381
-0.066949 0.163173 0.394468
-0.089693 0.163459 0.366515
-0.082917 0.163061 0.407767
-0.099307 0.163261 0.422276
-0.087218 0.163167 0.381942
-0.072841 0.163503 0.411867
-0.093763 0.164113 0.411555
-0.075481 0.163385 0.400447
-0.105092 0.163774 0.390208
-0.101863 0.163763 0.361717
-0.062178 0.163802 0.405630
-0.093969 0.163318 0.390880
-0.102795 0.163184 0.401613
-0.046766 0.163387 0.387735
-0.065821 -0.160758 0.253574
-0.083895 -0.172500 0.275406
-0.076941 -0.169735 0.254265
-0.061373 -0.169808 0.281712
-0.041129 -0.172620 0.260536
-0.084404 -0.172554 0.259937
-0.043099 -0.169713 0.253882
-0.060822 -0.170449 0.253044
-0.054625 -0.172371 0.255535
-0.055644 -0.171352 0.251107
-0.066885 -0.171784 0.257429
-0.048071 -0.170361 0.252657
-0.069795 -0.174301 0.267650
-0.065867 -0.171886 0.254571
-0.049593 -0.173014 0.288204
-0.074228 -0.172353 0.274741
-0.034880 -0.172530 0.278158
-0.080667 -0.170766 0.253840
-0.052312 -0.158717 0.257042
-0.069234 -0.171993 0.253376
-0.061460 -0.171562 0.261029
-0.072605 -0.172241 0.289868
-0.059957 -0.172711 0.258417
-0.057876 -0.174088 0.274050
-0.066272 -0.172064 0.279433
-0.051863 -0.172130 0.264279
-0.078989 -0.159561 0.254110
-0.071939 -0.169041 0.252962
-0.047282 -0.174130 0.276760
-0.075255 -0.172302 0.256030
-0.078610 -0.171214 0.261549
-0.028836 -0.170548 0.257228
-0.049658 -0.072659 0.286404
-0.064073 -0.100018 0.299649
-0.070974 -0.086070 0.288560
-0.050192 -0.076203 0.301434
-0.030806 -0.133095 0.296741
-0.068669 -0.110664 0.292255
-0.031871 -0.071176 0.293252
-0.041085 -0.116920 0.276226
-0.034200 -0.122369 0.295488
-0.031502 -0.095845 0.280080
-0.050188 -0.121136 0.298441
-0.028760 -0.124944 0.282122
-0.045431 -0.097692 0.300431
-0.035736 -0.113532 0.291263
-0.037744 -0.103202 0.300525
-0.061966 -0.132983 0.295631
-0.031419 -0.097551 0.293831
-0.066369 -0.122176 0.287649
-0.040638 -0.060997 0.298537
-0.048666 -0.133322 0.288614
-0.039713 -0.083609 0.294673
-0.060167 -0.116055 0.298823
-0.039976 -0.141247 0.296687
-0.040670 -0.113442 0.300500
-0.040662 -0.127964 0.301194
-0.035801 -0.085194 0.300753
-0.065982 -0.067810 0.297068
-0.060129 -0.099943 0.281834
-0.030805 -0.116523 0.296518
-0.056686 -0.106934 0.296587
-0.061097 -0.084533 0.297849
-0.030140 -0.109357 0.287353
-0.074807 -0.127323 0.254227
-0.086446 -0.135669 0.277868
-0.083157 -0.132044 0.256679
-0.074371 -0.127251 0.286125
-0.071075 -0.147371 0.272175
-0.090381 -0.138421 0.268080
-0.060007 -0.124126 0.260066
-0.076799 -0.128585 0.248944
-0.078494 -0.135306 0.264589
-0.073894 -0.126328 0.258731
-0.082607 -0.132422 0.266849
-0.068888 -0.127878 0.254336
-0.079450 -0.129217 0.270382
-0.078992 -0.127942 0.258204
-0.065650 -0.129793 0.294171
-0.089045 -0.149714 0.275862
-0.054372 -0.124855 0.282436
-0.088162 -0.139116 0.258654
-0.065690 -0.120231 0.266279
-0.085500 -0.148112 0.257045
-0.073533 -0.125951 0.264715
-0.083584 -0.138221 0.296431
-0.084633 -0.157298 0.269192
-0.076731 -0.129939 0.281573
-0.079828 -0.147974 0.287616
-0.069882 -0.124736 0.274596
-0.079812 -0.125762 0.262011
-0.082928 -0.132582 0.250562
-0.066192 -0.127882 0.274349
-0.084643 -0.130604 0.264222
-0.082752 -0.129265 0.272593
-0.049809 -0.122526 0.267130
-0.023974 -0.136635 0.289090
-0.033636 -0.140936 0.303882
-0.028807 -0.137469 0.296432
-0.021314 -0.142241 0.303845
0.001682 -0.158816 0.301330
-0.040906 -0.139487 0.299148
-0.013358 -0.142572 0.294967
-0.013094 -0.146491 0.275863
-0.005211 -0.149505 0.299510
-0.010055 -0.143327 0.286420
-0.012452 -0.148450 0.303530
-0.005569 -0.153700 0.282286
-0.019592 -0.143451 0.305179
-0.011102 -0.148162 0.296225
-0.011534 -0.148911 0.301988
-0.022779 -0.151535 0.304104
-0.007315 -0.153387 0.301455
-0.032632 -0.143691 0.294898
-0.017027 -0.138950 0.301164
-0.014058 -0.153502 0.291741
-0.015979 -0.139702 0.302996
-0.021084 -0.145332 0.304072
-0.004792 -0.157827 0.301047
-0.011460 -0.146848 0.303700
-0.010634 -0.155057 0.306014
-0.012492 -0.144984 0.302184
-0.035095 -0.133935 0.303704
-0.026434 -0.139098 0.282738
-0.005001 -0.150169 0.302561
-0.018235 -0.142469 0.301685
-0.027768 -0.140908 0.302788
-0.003295 -0.156086 0.294196
0.017319 0.176916 0.447239
-0.023554 0.161972 0.457802
-0.017383 0.171989 0.447550
0.013455 0.175674 0.456558
0.064797 0.157265 0.449025
-0.037759 0.159624 0.453265
0.059715 0.173909 0.450835
0.021968 0.155729 0.436685
0.042665 0.157121 0.449112
0.042271 0.162200 0.442397
0.010433 0.156866 0.450809
0.051334 0.156881 0.438829
0.010257 0.163283 0.453752
0.027111 0.159119 0.447956
0.034842 0.166845 0.457919
-0.011665 0.157323 0.448769
0.071544 0.165109 0.453574
-0.027527 0.155822 0.446521
0.045390 0.176743 0.451660
0.003034 0.156789 0.443835
0.027489 0.173933 0.452228
-0.006140 0.159329 0.457157
0.033805 0.156689 0.444929
0.027966 0.160182 0.453605
0.017680 0.158893 0.455176
0.047400 0.171023 0.456078
-0.015321 0.176078 0.453992
-0.001486 0.161435 0.438863
0.054721 0.159455 0.455037
-0.001843 0.159664 0.449369
-0.003663 0.171692 0.454057
0.081956 0.157716 0.448947
-0.002640 0.174344 0.415393
-0.044590 0.175204 0.442348
-0.029851 0.174748 0.421729
-0.006913 0.174126 0.456842
0.023782 0.173791 0.434703
-0.048717 0.174905 0.430019
0.022730 0.174383 0.420741
0.000636 0.174680 0.403315
0.001155 0.174610 0.426512
0.009143 0.175039 0.419561
-0.009529 0.174127 0.435502
0.015802 0.174857 0.407851
-0.018242 0.174195 0.441106
-0.016037 0.174622 0.420699
0.010465 0.174013 0.455465
-0.036035 0.174259 0.449514
0.032392 0.174330 0.446261
-0.041496 0.175054 0.415034
0.013534 0.173636 0.432730
-0.014566 0.175136 0.410187
-0.005546 0.174260 0.444557
-0.024562 0.173870 0.456543
-0.008702 0.175982 0.426187
0.004484 0.174624 0.449376
-0.017718 0.174811 0.448217
0.005109 0.174584 0.439601
-0.034599 0.173504 0.431705
-0.025962 0.175537 0.405095
0.017854 0.174583 0.446151
-0.021446 0.174610 0.431210
-0.029408 0.174720 0.441032
0.036338 0.174842 0.429096
-0.050870 -0.056976 0.293532
-0.063013 -0.086618 0.297335
-0.069633 -0.073071 0.290940
-0.052731 -0.064678 0.299005
-0.036606 -0.120787 0.298609
-0.068434 -0.093921 0.291185
-0.034300 -0.056762 0.295959
-0.047492 -0.101870 0.288100
-0.040180 -0.106123 0.298914
-0.034150 -0.082632 0.289793
-0.054181 -0.107628 0.299628
-0.034246 -0.110854 0.292506
-0.046398 -0.081113 0.299255
-0.037082 -0.099160 0.297032
-0.040744 -0.088228 0.299524
-0.063587 -0.118556 0.296499
-0.034478 -0.080027 0.294520
-0.068029 -0.107081 0.291540
-0.042657 -0.045337 0.297831
-0.054713 -0.122498 0.297048
-0.040797 -0.067220 0.297750
-0.060776 -0.099631 0.297224
-0.044658 -0.130008 0.299288
-0.044710 -0.095784 0.300161
-0.046669 -0.114625 0.300009
-0.038208 -0.071675 0.298839
-0.063725 -0.054323 0.295234
-0.059390 -0.082320 0.291275
-0.033949 -0.102339 0.297258
-0.057365 -0.092437 0.297560
-0.061118 -0.072364 0.297151
-0.032946 -0.093361 0.292485
-0.079192 0.159578 0.360279
-0.112518 0.159251 0.386027
-0.103549 0.158971 0.368549
-0.086159 0.159576 0.408285
-0.064758 0.159277 0.379926
-0.114261 0.159662 0.373718
-0.064254 0.159505 0.364792
-0.080469 0.159387 0.347147
-0.081811 0.159381 0.370586
-0.073313 0.159382 0.367288
-0.081725 0.159565 0.379325
-0.069589 0.159487 0.353163
-0.091347 0.159133 0.386673
-0.094522 0.159497 0.362082
-0.071449 0.159831 0.408079
-0.107708 0.160178 0.400611
-0.059465 0.159174 0.391018
-0.109476 0.159722 0.359078
-0.072391 0.158779 0.381962
-0.089010 0.159822 0.354548
-0.085884 0.159460 0.396351
-0.098685 0.159286 0.410886
-0.090538 0.159830 0.369240
-0.076542 0.159726 0.398973
-0.094930 0.160155 0.398884
-0.080663 0.159547 0.387587
-0.102080 0.159058 0.377929
-0.099258 0.159606 0.349632
-0.068505 0.159743 0.393365
-0.091669 0.159436 0.378210
-0.101290 0.159152 0.388863
-0.056739 0.159611 0.374296
0.006726 -0.166069 0.280856
-0.033205 -0.169711 0.304658
-0.016159 -0.171012 0.286829
0.005866 -0.167521 0.311733
0.015101 -0.170801 0.296231
-0.038425 -0.169816 0.293267
0.015271 -0.168205 0.287203
0.007366 -0.170460 0.267217
0.011846 -0.170710 0.290102
0.012096 -0.171328 0.281910
0.004939 -0.169936 0.296806
0.014594 -0.170040 0.273007
0.000619 -0.171322 0.300886
0.000748 -0.171136 0.285273
0.011839 -0.168796 0.313821
-0.017482 -0.170272 0.308705
0.015271 -0.169401 0.303329
-0.029234 -0.170204 0.281098
0.012933 -0.163946 0.297673
-0.001127 -0.170928 0.277629
0.007508 -0.170149 0.302414
-0.009467 -0.169622 0.314610
0.005636 -0.171122 0.289615
0.012121 -0.170278 0.306527
0.001015 -0.170330 0.306513
0.011691 -0.169967 0.299831
-0.019900 -0.165162 0.298271
-0.013046 -0.171178 0.271424
0.015601 -0.169358 0.300855
-0.007068 -0.170821 0.295429
-0.010089 -0.170008 0.302359
0.016201 -0.168158 0.290760
-0.045965 -0.041636 0.297439
-0.059908 -0.066751 0.299339
-0.066281 -0.054187 0.295194
-0.049126 -0.048601 0.299882
-0.034323 -0.096868 0.299848
-0.066056 -0.071650 0.295685
-0.033885 -0.041470 0.297093
-0.043355 -0.080011 0.294407
-0.037313 -0.083454 0.300764
-0.032169 -0.063736 0.293002
-0.050259 -0.085335 0.301448
-0.032914 -0.088609 0.295176
-0.042889 -0.061022 0.300464
-0.034024 -0.077402 0.299039
-0.038578 -0.067901 0.299642
-0.059328 -0.094881 0.299245
-0.033834 -0.060465 0.295449
-0.064864 -0.083749 0.296676
-0.039631 -0.031967 0.299154
-0.048714 -0.098600 0.300707
-0.038087 -0.049355 0.299328
-0.057082 -0.077576 0.298790
-0.039470 -0.105495 0.301057
-0.041817 -0.074470 0.301131
-0.043866 -0.091596 0.300471
-0.036311 -0.054099 0.299669
-0.060352 -0.039964 0.298110
-0.053029 -0.062970 0.296954
-0.032899 -0.080631 0.297983
-0.053058 -0.071546 0.300021
-0.056471 -0.055181 0.299432
-0.032357 -0.072462 0.293659
-0.002911 -0.159061 0.273603
-0.023789 -0.164201 0.303193
-0.014464 -0.163499 0.284555
-0.001249 -0.159384 0.306305
0.012772 -0.169992 0.294837
-0.031786 -0.165796 0.292490
0.007101 -0.161427 0.283971
0.001458 -0.167319 0.260903
0.010487 -0.168854 0.287815
0.005392 -0.165087 0.275033
0.001596 -0.168129 0.294490
0.010021 -0.170142 0.268451
-0.001403 -0.165424 0.296701
0.002198 -0.169451 0.282448
0.004414 -0.165457 0.308556
-0.011285 -0.167890 0.302240
0.010912 -0.169599 0.300358
-0.021364 -0.168321 0.279734
0.002849 -0.154709 0.295753
-0.002465 -0.169104 0.274841
0.001505 -0.161330 0.295524
-0.007837 -0.166035 0.306563
0.005121 -0.168653 0.287127
0.004809 -0.166970 0.301965
0.001261 -0.169205 0.304363
0.004400 -0.163109 0.298310
-0.017751 -0.156625 0.293884
-0.012548 -0.164815 0.267231
0.010127 -0.167522 0.296912
-0.005195 -0.166510 0.292308
-0.010724 -0.162407 0.297377
0.013268 -0.168296 0.285898
-0.048252 -0.148159 0.252539
-0.061967 -0.164697 0.252780
-0.066308 -0.157343 0.251605
-0.048917 -0.154335 0.266806
-0.027373 -0.169159 0.254697
-0.072021 -0.166931 0.252164
-0.029364 -0.152073 0.252145
-0.049581 -0.165420 0.253991
-0.042092 -0.168416 0.252381
-0.034555 -0.163418 0.252568
-0.052156 -0.167099 0.252283
-0.036042 -0.166461 0.252301
-0.043931 -0.160897 0.249268
-0.041805 -0.163862 0.250318
-0.036444 -0.164326 0.275780
-0.060449 -0.171250 0.256130
-0.021938 -0.160109 0.254001
-0.064642 -0.167228 0.252042
-0.036676 -0.146038 0.251191
-0.052977 -0.171040 0.254542
-0.044273 -0.154907 0.250026
-0.056321 -0.167159 0.276009
-0.042111 -0.170739 0.255559
-0.045369 -0.164799 0.253728
-0.045949 -0.170336 0.271703
-0.036414 -0.155302 0.249679
-0.057944 -0.148660 0.251843
-0.051614 -0.161046 0.253092
-0.029977 -0.167159 0.253662
-0.059747 -0.166622 0.251018
-0.054937 -0.156228 0.249723
-0.019219 -0.166132 0.251790
-0.092209 0.177835 0.341045
-0.129072 0.177931 0.382752
-0.118330 0.177882 0.352621
-0.099303 0.178068 0.407582
-0.068516 0.173674 0.369945
-0.130471 0.177701 0.365119
-0.069113 0.178368 0.349976
-0.090823 0.178064 0.324195
-0.091043 0.176886 0.356465
-0.081960 0.178027 0.347631
-0.097192 0.176923 0.368618
-0.075280 0.177500 0.331977
-0.105136 0.176815 0.378736
-0.104413 0.177578 0.349494
-0.078574 0.177852 0.407339
-0.121772 0.176455 0.393541
-0.060571 0.177199 0.386508
-0.126378 0.177473 0.342987
-0.078121 0.177052 0.367494
-0.103292 0.175655 0.334574
-0.096832 0.177242 0.387164
-0.114817 0.177357 0.409672
-0.100130 0.173119 0.357512
-0.085894 0.177481 0.394196
-0.105548 0.175932 0.394398
-0.088551 0.178094 0.378456
-0.120000 0.176761 0.364136
-0.115266 0.178077 0.327996
-0.074423 0.177365 0.384607
-0.107780 0.177701 0.365811
-0.116667 0.177864 0.380252
-0.057649 0.177824 0.361781
-0.058599 -0.124570 0.253657
-0.071983 -0.139918 0.251208
-0.077095 -0.131629 0.252124
-0.061592 -0.131030 0.252196
-0.040576 -0.155826 0.252499
-0.080142 -0.140138 0.252058
-0.041238 -0.127887 0.253447
-0.061417 -0.145156 0.252963
-0.053148 -0.147423 0.251743
-0.042994 -0.139742 0.252152
-0.064906 -0.150452 0.251388
-0.047927 -0.152102 0.252172
-0.054745 -0.134864 0.251327
-0.047186 -0.144862 0.251594
-0.050335 -0.137576 0.250994
-0.071246 -0.155798 0.251904
-0.035518 -0.133905 0.252948
-0.077645 -0.148547 0.251950
-0.048454 -0.123337 0.254067
-0.062633 -0.158872 0.252579
-0.051949 -0.129475 0.252788
-0.069651 -0.145734 0.250217
-0.050986 -0.159927 0.252502
-0.055515 -0.141339 0.251084
-0.055934 -0.153276 0.250513
-0.045735 -0.133314 0.252257
-0.069118 -0.125819 0.253135
-0.060846 -0.137541 0.252412
-0.039101 -0.147014 0.251278
-0.065708 -0.142111 0.251083
-0.066685 -0.134840 0.251411
-0.033674 -0.141994 0.252112
-0.008227 -0.139309 0.262880
-0.011332 -0.151603 0.295965
-0.008977 -0.148251 0.277072
-0.010878 -0.134138 0.301846
-0.001782 -0.162216 0.287588
-0.018987 -0.155583 0.285332
-0.009674 -0.135251 0.272241
-0.004678 -0.152344 0.255007
-0.001576 -0.158874 0.277017
-0.005696 -0.149463 0.268148
-0.002007 -0.157561 0.283467
-0.003494 -0.154669 0.266691
-0.004431 -0.149866 0.287366
-0.003382 -0.153639 0.274632
-0.007265 -0.148299 0.307381
-0.005070 -0.158853 0.295216
-0.006173 -0.155247 0.290025
-0.008829 -0.157987 0.272633
-0.011520 -0.123730 0.287964
-0.001886 -0.161230 0.267038
-0.005760 -0.143001 0.281085
-0.004972 -0.157453 0.313123
-0.001195 -0.167242 0.277716
-0.003258 -0.153916 0.299263
-0.001990 -0.159819 0.302028
-0.007351 -0.144963 0.297312
-0.013540 -0.129205 0.278953
-0.006006 -0.155661 0.261920
-0.001885 -0.153689 0.280281
-0.005090 -0.152001 0.282528
-0.009013 -0.139375 0.288756
-0.007384 -0.146112 0.275362
-0.024695 -0.111381 0.261502
-0.023546 -0.118178 0.288336
-0.022712 -0.117215 0.274775
-0.026063 -0.104415 0.294088
-0.023148 -0.138479 0.283920
-0.024598 -0.126212 0.281733
-0.025434 -0.105299 0.267635
-0.023819 -0.120071 0.256492
-0.022294 -0.133853 0.273487
-0.023768 -0.118346 0.266283
-0.022539 -0.130407 0.279481
-0.023898 -0.122299 0.265577
-0.022594 -0.116628 0.281862
-0.022543 -0.122256 0.271765
-0.025449 -0.117698 0.299204
-0.022945 -0.129663 0.288989
-0.024405 -0.121460 0.284942
-0.022121 -0.128759 0.269443
-0.026071 -0.097452 0.282440
-0.022246 -0.137241 0.264078
-0.023391 -0.110713 0.276551
-0.024478 -0.127445 0.304160
-0.021789 -0.147647 0.275346
-0.023186 -0.123120 0.293177
-0.023153 -0.135287 0.296487
-0.025251 -0.112664 0.292981
-0.024392 -0.101455 0.274236
-0.023407 -0.127581 0.261607
-0.021932 -0.124833 0.275483
-0.022547 -0.121302 0.278171
-0.024560 -0.108603 0.284453
-0.024944 -0.112621 0.271025
-0.024569 0.157359 0.371566
-0.067933 0.156784 0.400823
-0.054664 0.156552 0.379258
-0.031569 0.156840 0.423833
-0.000866 0.155974 0.393693
-0.070976 0.156831 0.386210
-0.001036 0.156809 0.376838
-0.023194 0.156876 0.357059
-0.024950 0.156636 0.383278
-0.014476 0.156775 0.378206
-0.030665 0.156374 0.393763
-0.008212 0.156693 0.363342
-0.040959 0.156287 0.402041
-0.042378 0.156628 0.374496
-0.012361 0.156771 0.422316
-0.060554 0.156844 0.414662
0.007399 0.156384 0.406190
-0.065068 0.156828 0.370055
-0.012136 0.156555 0.393527
-0.037427 0.156883 0.364000
-0.031204 0.156740 0.409398
-0.049054 0.156754 0.424811
-0.035775 0.156640 0.382058
-0.019454 0.156840 0.413617
-0.043298 0.157098 0.413981
-0.022761 0.156771 0.400548
-0.056235 0.156611 0.389913
-0.050776 0.157671 0.358874
-0.007204 0.156969 0.407934
-0.042943 0.156560 0.390544
-0.053158 0.156523 0.402444
0.012203 0.156850 0.387085
-0.041492 -0.004633 0.299071
-0.056096 -0.030887 0.300742
-0.061156 -0.017831 0.297983
-0.046065 -0.012448 0.300157
-0.032824 -0.061379 0.299255
-0.060118 -0.036920 0.298669
-0.033211 -0.004071 0.296651
-0.038534 -0.045948 0.298428
-0.035426 -0.048355 0.300768
-0.031064 -0.028607 0.294295
-0.046154 -0.051112 0.301795
-0.031665 -0.055320 0.296178
-0.039845 -0.024964 0.300633
-0.031943 -0.043117 0.298870
-0.036738 -0.033227 0.298770
-0.053831 -0.060054 0.300160
-0.032995 -0.023874 0.294811
-0.058557 -0.048523 0.299975
-0.037489 0.007235 0.299225
-0.041532 -0.063218 0.301936
-0.035917 -0.013235 0.299376
-0.051800 -0.042248 0.299729
-0.035539 -0.069798 0.301063
-0.039242 -0.039844 0.301171
-0.040905 -0.056859 0.300220
-0.035231 -0.018429 0.299167
-0.056440 -0.002237 0.299832
-0.045670 -0.028424 0.300513
-0.032542 -0.046543 0.297752
-0.048504 -0.036290 0.300561
-0.051582 -0.019488 0.300054
-0.031689 -0.038215 0.292689
-0.038204 -0.115862 0.256482
-0.047080 -0.123938 0.272894
-0.048862 -0.121452 0.254891
-0.036273 -0.113178 0.281609
-0.034442 -0.136733 0.262117
-0.063108 -0.124172 0.258843
-0.036243 -0.113472 0.257990
-0.038931 -0.127775 0.256012
-0.035584 -0.131712 0.257035
-0.035715 -0.122960 0.255337
-0.037077 -0.130136 0.257852
-0.035781 -0.129501 0.256253
-0.035004 -0.123431 0.262415
-0.035589 -0.125696 0.256775
-0.033944 -0.122219 0.287897
-0.041280 -0.133691 0.268802
-0.034659 -0.126449 0.271068
-0.050605 -0.129587 0.255305
-0.036926 -0.105835 0.261832
-0.039536 -0.136763 0.255849
-0.034568 -0.120216 0.257227
-0.037602 -0.126349 0.294122
-0.036918 -0.145430 0.255555
-0.035395 -0.125197 0.275978
-0.034733 -0.133852 0.281294
-0.034941 -0.118589 0.269650
-0.046083 -0.108295 0.255436
-0.039707 -0.123078 0.257094
-0.034556 -0.127279 0.262649
-0.040660 -0.125030 0.258289
-0.038079 -0.117070 0.263602
-0.034727 -0.124506 0.258487
-0.024592 0.173888 0.389161
-0.067101 0.173804 0.418770
-0.052111 0.173065 0.395346
-0.029774 0.173446 0.437253
-0.000234 0.173174 0.409925
-0.070080 0.174139 0.403367
-0.000170 0.173683 0.393887
-0.023139 0.173647 0.375738
-0.021702 0.173591 0.401656
-0.013396 0.173705 0.393997
-0.030323 0.173380 0.410994
-0.007244 0.173423 0.380855
-0.038825 0.173611 0.417308
-0.039560 0.173480 0.392517
-0.011383 0.174022 0.436390
-0.057223 0.173886 0.429400
0.007594 0.173818 0.423372
-0.063199 0.173705 0.387202
-0.011478 0.172686 0.408955
-0.036480 0.173753 0.382338
-0.029447 0.173520 0.423171
-0.047071 0.173581 0.438846
-0.031816 0.174827 0.399289
-0.019131 0.173661 0.428612
-0.040293 0.173501 0.428224
-0.019616 0.173775 0.416678
-0.055184 0.173123 0.406374
-0.048667 0.174194 0.378016
-0.007211 0.173897 0.423237
-0.042718 0.173572 0.406378
-0.051304 0.173541 0.417750
0.011989 0.173970 0.403931
-0.097765 0.174274 0.324103
-0.127871 0.163963 0.354133
-0.118227 0.163268 0.333336
-0.099370 0.163642 0.373811
-0.076801 0.162826 0.343797
-0.127906 0.164655 0.340009
-0.077128 0.163187 0.329526
-0.095209 0.164254 0.308996
-0.090670 0.163633 0.335631
-0.088951 0.163842 0.327498
-0.099092 0.163644 0.343125
-0.081838 0.164201 0.316270
-0.106377 0.162864 0.352227
-0.106693 0.163221 0.327613
-0.084810 0.164915 0.375461
-0.120983 0.164798 0.364911
-0.070056 0.163952 0.357759
-0.124758 0.164041 0.324439
-0.087896 0.173968 0.346225
-0.104611 0.163519 0.318367
-0.098281 0.163016 0.356967
-0.113078 0.163560 0.377252
-0.099403 0.162817 0.333575
-0.090395 0.163696 0.363680
-0.106126 0.164117 0.364690
-0.089942 0.163216 0.351462
-0.116830 0.174401 0.341083
-0.115333 0.164196 0.312421
-0.080307 0.164416 0.357943
-0.108999 0.164035 0.341378
-0.117224 0.163485 0.351222
-0.066290 0.164537 0.338775
0.011548 -0.165355 0.257192
-0.011045 -0.168463 0.284603
-0.000576 -0.168854 0.265568
0.011002 -0.166555 0.293697
0.013959 -0.170152 0.277153
-0.015757 -0.166919 0.271739
0.013061 -0.166188 0.265467
0.010856 -0.168516 0.245406
0.013428 -0.168368 0.268626
0.013015 -0.169280 0.261643
0.013014 -0.169211 0.274001
0.013375 -0.169362 0.253237
0.010600 -0.169391 0.279212
0.008736 -0.168936 0.263553
0.013639 -0.168529 0.297220
0.001160 -0.168473 0.289885
0.014166 -0.170052 0.284251
-0.008732 -0.167765 0.259176
0.011718 -0.163432 0.277391
0.008786 -0.169187 0.256450
0.012153 -0.168490 0.281927
0.006172 -0.168414 0.301008
0.010742 -0.169933 0.267587
0.013876 -0.168696 0.289992
0.008958 -0.168865 0.289751
0.013033 -0.169172 0.282986
-0.001507 -0.164421 0.274577
0.001704 -0.167987 0.250684
0.015341 -0.168295 0.277895
0.005987 -0.168780 0.274160
0.004935 -0.168300 0.282026
0.014059 -0.167792 0.270123
-0.024617 0.156765 0.371396
-0.071276 0.156917 0.401893
-0.056249 0.156472 0.378416
-0.030804 0.156762 0.427023
0.002063 0.155145 0.394592
-0.075152 0.156299 0.386253
0.000792 0.156309 0.376607
-0.022641 0.156241 0.356424
-0.024305 0.155990 0.383794
-0.013493 0.156201 0.377986
-0.030939 0.155513 0.394812
-0.007298 0.155914 0.362905
-0.041495 0.155934 0.403212
-0.042994 0.156028 0.374487
-0.010819 0.156144 0.424977
-0.062825 0.156260 0.415715
0.010866 0.155715 0.408710
-0.068392 0.156295 0.369840
-0.010073 0.155524 0.393475
-0.037883 0.156215 0.362959
-0.030819 0.156417 0.411087
-0.050622 0.156504 0.427575
-0.035854 0.156079 0.381740
-0.018349 0.156329 0.415410
-0.043954 0.156740 0.415731
-0.021701 0.156217 0.401372
-0.058699 0.155776 0.390013
-0.052320 0.157272 0.358169
-0.005263 0.156096 0.410229
-0.044163 0.155966 0.390434
-0.054349 0.156287 0.403014
0.015600 0.156133 0.387084
-0.024831 -0.092929 0.261477
-0.023462 -0.099168 0.281702
-0.023511 -0.098394 0.272289
-0.025398 -0.086888 0.284288
-0.022071 -0.119350 0.279689
-0.022926 -0.108438 0.277202
-0.025411 -0.086637 0.266451
-0.023955 -0.102209 0.258456
-0.022163 -0.115445 0.272062
-0.023973 -0.099855 0.265291
-0.022711 -0.113194 0.276785
-0.023449 -0.105505 0.265448
-0.023167 -0.097346 0.277010
-0.023080 -0.104260 0.270405
-0.024712 -0.099907 0.288571
-0.022571 -0.111490 0.281894
-0.024385 -0.102792 0.279015
-0.022022 -0.111337 0.268421
-0.025579 -0.080535 0.277713
-0.021963 -0.118333 0.264923
-0.023986 -0.091714 0.273328
-0.023640 -0.108965 0.289845
-0.021295 -0.124712 0.273720
-0.023059 -0.105094 0.284242
-0.022432 -0.115923 0.286086
-0.024764 -0.093668 0.285744
-0.024735 -0.084281 0.271962
-0.023229 -0.109900 0.262278
-0.022272 -0.107959 0.272850
-0.023193 -0.102962 0.274585
-0.024824 -0.090661 0.279073
-0.024869 -0.094471 0.268564
-0.075058 0.175271 0.340285
-0.114293 0.174941 0.368134
-0.102331 0.174574 0.347044
-0.080606 0.175079 0.388037
-0.050998 0.174025 0.360339
-0.117031 0.175033 0.353900
-0.051910 0.174881 0.345863
-0.073445 0.175320 0.327072
-0.073667 0.174896 0.351822
-0.064561 0.175148 0.346463
-0.080404 0.174395 0.361132
-0.059034 0.174977 0.333142
-0.088651 0.174583 0.367398
-0.089536 0.174849 0.343674
-0.062422 0.175091 0.387471
-0.107434 0.175111 0.379839
-0.042842 0.174471 0.372349
-0.111894 0.175010 0.338441
-0.062605 0.174089 0.359806
-0.086258 0.175125 0.333127
-0.080127 0.174418 0.374473
-0.097534 0.174671 0.389976
-0.083885 0.175404 0.349682
-0.069333 0.174927 0.379195
-0.091633 0.175385 0.378200
-0.071113 0.175036 0.367405
-0.103487 0.174463 0.356955
-0.098877 0.175784 0.329330
-0.057134 0.175080 0.373304
-0.091909 0.174624 0.357695
-0.100282 0.174924 0.368690
-0.039293 0.174852 0.354427
-0.099637 0.175472 0.314734
-0.125539 0.172053 0.350831
-0.119942 0.172828 0.323186
-0.104276 0.174050 0.373658
-0.075290 0.174047 0.338930
-0.126553 0.169590 0.334989
-0.074479 0.173732 0.320010
-0.098290 0.175347 0.298077
-0.095548 0.174865 0.327850
-0.087349 0.174081 0.321265
-0.102064 0.173569 0.339014
-0.082517 0.174257 0.305114
-0.110950 0.173606 0.345439
-0.111263 0.174348 0.316745
-0.084029 0.174104 0.373470
-0.122978 0.170931 0.362151
-0.068325 0.172565 0.353317
-0.127019 0.172171 0.314211
-0.087269 0.173712 0.336992
-0.112314 0.174815 0.306096
-0.103787 0.174232 0.355915
-0.118671 0.173467 0.377502
-0.108986 0.175193 0.326127
-0.093814 0.174495 0.362310
-0.114840 0.174979 0.363016
-0.093873 0.174303 0.347094
-0.120931 0.174022 0.333183
-0.121543 0.174692 0.299568
-0.081236 0.174256 0.354463
-0.112187 0.173678 0.335244
-0.119769 0.173817 0.347318
-0.066542 0.173735 0.331279
-0.029037 -0.137889 0.252709
-0.042024 -0.148903 0.252684
-0.045869 -0.142455 0.251768
-0.031307 -0.142602 0.254110
-0.014389 -0.162391 0.252118
-0.054670 -0.149990 0.253639
-0.018076 -0.141701 0.252554
-0.028891 -0.154243 0.252324
-0.023040 -0.156795 0.251363
-0.018210 -0.150194 0.251396
-0.031572 -0.157279 0.251383
-0.019691 -0.158860 0.251917
-0.024915 -0.146448 0.250436
-0.020460 -0.152701 0.250561
-0.021664 -0.148724 0.254702
-0.039843 -0.163989 0.253001
-0.013019 -0.146766 0.252701
-0.046425 -0.156413 0.252896
-0.022731 -0.137918 0.252685
-0.031011 -0.163853 0.252091
-0.024449 -0.142271 0.251231
-0.036436 -0.154334 0.255189
-0.021925 -0.166490 0.252448
-0.025209 -0.150755 0.250626
-0.024603 -0.160426 0.254118
-0.020190 -0.144808 0.250970
-0.040535 -0.137542 0.253110
-0.030339 -0.147424 0.251810
-0.015030 -0.155217 0.251078
-0.034835 -0.151690 0.251297
-0.034650 -0.144976 0.251014
-0.011898 -0.152568 0.252013
-0.043456 -0.080586 0.257462
-0.055909 -0.101359 0.260586
-0.058792 -0.092531 0.259551
-0.044231 -0.086764 0.263252
-0.034775 -0.126958 0.262133
-0.065258 -0.107783 0.262654
-0.035807 -0.083008 0.259938
-0.043085 -0.112032 0.259358
-0.040143 -0.118822 0.259373
-0.035906 -0.100446 0.258887
-0.046916 -0.117530 0.259211
-0.036421 -0.117399 0.260192
-0.039767 -0.096412 0.256796
-0.037265 -0.109218 0.258096
-0.039105 -0.103662 0.266102
-0.057330 -0.126848 0.262160
-0.033682 -0.095913 0.263843
-0.057838 -0.115099 0.260785
-0.040102 -0.074153 0.256995
-0.046835 -0.128897 0.260546
-0.039811 -0.088520 0.256772
-0.050202 -0.111886 0.266025
-0.040093 -0.136837 0.261074
-0.041845 -0.106574 0.258480
-0.039690 -0.122615 0.266038
-0.037429 -0.091724 0.258370
-0.055450 -0.078854 0.258916
-0.044801 -0.098281 0.258410
-0.034284 -0.113647 0.262638
-0.050356 -0.106900 0.258397
-0.049391 -0.091981 0.257031
-0.033975 -0.106104 0.262254
-0.044535 0.013419 0.300193
-0.058702 -0.013766 0.300453
-0.064372 -0.000638 0.297032
-0.049019 0.005132 0.300681
-0.035106 -0.052686 0.299309
-0.063968 -0.020759 0.297128
-0.034071 0.013792 0.297313
-0.043383 -0.031126 0.300140
-0.038871 -0.035028 0.300582
-0.032246 -0.011890 0.296183
-0.050345 -0.039032 0.301494
-0.033837 -0.042358 0.297344
-0.042070 -0.006765 0.300874
-0.034119 -0.027593 0.299446
-0.038956 -0.015870 0.299762
-0.058026 -0.048887 0.299505
-0.033958 -0.006169 0.295701
-0.062361 -0.034728 0.298663
-0.039452 0.025197 0.299868
-0.047030 -0.054433 0.302170
-0.038219 0.005052 0.299932
-0.055238 -0.027174 0.299353
-0.039737 -0.063053 0.300592
-0.042008 -0.022827 0.301522
-0.044095 -0.045850 0.300269
-0.036585 -0.000685 0.299568
-0.058861 0.015263 0.299379
-0.048677 -0.010262 0.300988
-0.033698 -0.033117 0.297974
-0.052072 -0.020275 0.300344
-0.054728 -0.002012 0.300252
-0.032726 -0.021967 0.293737
-0.011960 -0.166384 0.252115
-0.033916 -0.171451 0.260850
-0.027656 -0.170183 0.251056
-0.010917 -0.170487 0.268268
0.007779 -0.172929 0.253455
-0.042130 -0.171016 0.253061
0.004559 -0.169763 0.251894
-0.010511 -0.170848 0.252203
-0.003612 -0.171989 0.251939
-0.002086 -0.171408 0.250917
-0.013161 -0.171295 0.251472
0.000926 -0.171036 0.251553
-0.013078 -0.171945 0.253951
-0.009933 -0.170947 0.250761
0.001457 -0.172922 0.273633
-0.024173 -0.172594 0.260538
0.010483 -0.171696 0.259140
-0.032455 -0.171267 0.251967
-0.000142 -0.166401 0.252855
-0.015959 -0.172583 0.253271
-0.007935 -0.170871 0.253401
-0.021700 -0.171846 0.276591
-0.005163 -0.172705 0.254499
-0.005403 -0.171570 0.259039
-0.012825 -0.172779 0.265367
-0.001430 -0.170387 0.252094
-0.027477 -0.166448 0.252554
-0.018108 -0.169747 0.252222
0.003919 -0.172287 0.258225
-0.021546 -0.171655 0.251774
-0.021636 -0.170132 0.253540
0.014283 -0.171317 0.251964
0.013579 0.153901 0.391976
-0.026812 0.153896 0.416501
-0.014134 0.153482 0.397842
0.009348 0.153974 0.435529
0.034863 0.153941 0.411673
-0.031524 0.154442 0.402757
0.034185 0.154327 0.397603
0.014214 0.154171 0.378940
0.014190 0.153907 0.403432
0.022263 0.154016 0.398204
0.009154 0.153893 0.411567
0.028225 0.154354 0.385303
0.000291 0.153565 0.417038
-0.002084 0.153870 0.395122
0.025796 0.154755 0.434980
-0.018238 0.154367 0.430270
0.041337 0.154200 0.422389
-0.025144 0.154257 0.389172
0.024879 0.153037 0.411629
0.001562 0.154153 0.385054
0.008942 0.153734 0.423800
-0.006674 0.153862 0.436459
0.005146 0.154449 0.400956
0.018876 0.154372 0.427620
-0.001781 0.154236 0.427209
0.015773 0.154135 0.417020
-0.015284 0.153242 0.408226
-0.011178 0.154464 0.380742
0.028720 0.154520 0.422403
-0.002786 0.153854 0.408232
-0.011488 0.153939 0.418401
0.045588 0.154661 0.406256
-0.025617 -0.070093 0.262303
-0.024118 -0.077166 0.281498
-0.024084 -0.076821 0.272088
-0.025774 -0.063052 0.283422
-0.022746 -0.101454 0.279420
-0.023468 -0.088371 0.277112
-0.025736 -0.062891 0.266825
-0.025191 -0.082043 0.260173
-0.022941 -0.097008 0.272560
-0.024538 -0.078595 0.265854
-0.023555 -0.094315 0.276953
-0.024182 -0.085916 0.266625
-0.023635 -0.075161 0.276475
-0.023538 -0.084033 0.270737
-0.025292 -0.078998 0.287346
-0.023304 -0.092515 0.281423
-0.024778 -0.081397 0.278554
-0.022711 -0.092547 0.268883
-0.025790 -0.055480 0.277470
-0.023136 -0.100033 0.265859
-0.024335 -0.068923 0.272877
-0.024562 -0.089402 0.287967
-0.022260 -0.106998 0.274140
-0.023719 -0.084864 0.283270
-0.023344 -0.097546 0.284887
-0.025041 -0.070820 0.285118
-0.025284 -0.060001 0.271905
-0.024138 -0.089628 0.263470
-0.022730 -0.088717 0.273151
-0.023870 -0.082187 0.274318
-0.025244 -0.067627 0.278555
-0.025355 -0.072800 0.268815
-0.040128 0.173939 0.351063
-0.079715 0.173603 0.379884
-0.066013 0.173118 0.357739
-0.045360 0.173692 0.399077
-0.018739 0.172875 0.371743
-0.082053 0.174113 0.365146
-0.018570 0.173543 0.356391
-0.038907 0.173814 0.337541
-0.038356 0.173627 0.363198
-0.030650 0.173737 0.356483
-0.045159 0.173127 0.372143
-0.024661 0.173432 0.343353
-0.053535 0.173460 0.378786
-0.054528 0.173345 0.354174
-0.028574 0.174068 0.398874
-0.071018 0.173871 0.391593
-0.011159 0.173554 0.384125
-0.076111 0.173869 0.349102
-0.029462 0.172951 0.371048
-0.050773 0.173449 0.344466
-0.045651 0.173223 0.385331
-0.061021 0.173440 0.401538
-0.048037 0.174204 0.360744
-0.035449 0.173745 0.390327
-0.055706 0.173571 0.389882
-0.036982 0.173564 0.378779
-0.067634 0.173057 0.368172
-0.062900 0.174147 0.340119
-0.024816 0.173766 0.384633
-0.056408 0.173411 0.368851
-0.064778 0.173427 0.379982
-0.007284 0.173758 0.365581
0.064490 0.173689 0.423068
0.020803 0.174143 0.448212
0.037708 0.174334 0.428679
0.062947 0.173723 0.457924
0.095092 0.172326 0.442923
0.014114 0.173935 0.438381
0.093723 0.174151 0.428997
0.069776 0.174618 0.411643
0.072171 0.174360 0.434422
0.078138 0.174627 0.425333
0.057960 0.173874 0.443010
0.086415 0.174892 0.415428
0.048942 0.173399 0.446385
0.054451 0.174433 0.429932
0.080450 0.172221 0.455969
0.030506 0.172458 0.453036
0.103504 0.173261 0.451218
0.022900 0.175123 0.424548
0.085410 0.173086 0.437821
0.052263 0.175698 0.420660
0.065098 0.173822 0.447313
0.043408 0.171958 0.456341
0.062382 0.174551 0.436715
0.073912 0.173530 0.452709
0.052517 0.173180 0.451151
0.078055 0.174279 0.445334
0.029635 0.172704 0.439177
0.040983 0.175373 0.413264
0.089172 0.173476 0.449782
0.045552 0.174302 0.437133
0.037699 0.173947 0.445785
0.107355 0.174361 0.435941
0.068105 0.152323 0.413608
0.035584 0.152530 0.430711
0.046045 0.152091 0.418767
0.063538 0.152537 0.444953
0.087455 0.152766 0.427397
0.031958 0.152432 0.421750
0.086578 0.152469 0.416557
0.068442 0.153045 0.403414
0.067458 0.152468 0.421404
0.076067 0.152759 0.418494
0.063650 0.151975 0.427781
0.080606 0.152822 0.407662
0.055920 0.152041 0.431309
0.053893 0.152269 0.415550
0.078277 0.153316 0.444724
0.040834 0.152799 0.440353
0.093516 0.152357 0.435749
0.037176 0.152962 0.412814
0.078530 0.151312 0.427355
0.058211 0.152989 0.408751
0.063672 0.152453 0.436538
0.050852 0.152848 0.445588
0.059629 0.152994 0.420126
0.072330 0.152954 0.438830
0.054468 0.153188 0.438573
0.070432 0.152504 0.430956
0.043900 0.151586 0.425527
0.048044 0.152868 0.405427
0.082216 0.153096 0.436710
0.053830 0.152257 0.424997
0.046818 0.152304 0.432026
0.097450 0.153014 0.423911
-0.020566 -0.121870 0.263669
-0.023729 -0.124390 0.286862
-0.022090 -0.124585 0.268323
-0.018188 -0.123628 0.294518
-0.001775 -0.141663 0.281138
-0.025440 -0.125233 0.275041
-0.011518 -0.125816 0.268971
-0.012695 -0.132789 0.253091
-0.005816 -0.135716 0.271115
-0.011899 -0.127839 0.261724
-0.009389 -0.134502 0.276527
-0.006384 -0.138123 0.258285
-0.014209 -0.127210 0.279303
-0.011426 -0.131091 0.268506
-0.009758 -0.129111 0.299832
-0.014500 -0.134463 0.286190
-0.006669 -0.135825 0.285867
-0.021489 -0.129893 0.265192
-0.015674 -0.120819 0.277969
-0.011766 -0.141269 0.261638
-0.014970 -0.123917 0.277095
-0.015247 -0.129849 0.301749
-0.003347 -0.143388 0.272116
-0.009037 -0.130776 0.290410
-0.009997 -0.138890 0.295671
-0.012627 -0.126739 0.283710
-0.027234 -0.119883 0.273224
-0.020902 -0.126135 0.257687
-0.006370 -0.132562 0.281062
-0.014509 -0.127203 0.272701
-0.020987 -0.122699 0.279710
-0.007167 -0.135293 0.269625
-0.012158 -0.131177 0.253257
-0.018754 -0.130913 0.258309
-0.019338 -0.131159 0.250564
-0.010035 -0.131319 0.266054
-0.005811 -0.148275 0.254381
-0.029816 -0.130903 0.252375
-0.008602 -0.133015 0.254758
-0.010383 -0.137368 0.251945
-0.006721 -0.141541 0.252726
-0.008285 -0.134660 0.252228
-0.009273 -0.138417 0.252149
-0.007917 -0.140413 0.252232
-0.008875 -0.132758 0.252773
-0.008827 -0.134505 0.252037
-0.005303 -0.132849 0.269950
-0.013232 -0.143922 0.254346
-0.006464 -0.135507 0.259798
-0.020126 -0.136465 0.251421
-0.009941 -0.129572 0.256316
-0.011066 -0.148623 0.251860
-0.008050 -0.132920 0.253419
-0.010243 -0.133641 0.272211
-0.006335 -0.156556 0.251997
-0.006881 -0.132492 0.258483
-0.005827 -0.144311 0.262878
-0.008079 -0.132571 0.254693
-0.019994 -0.129195 0.254443
-0.012632 -0.131447 0.251700
-0.006588 -0.135608 0.254660
-0.012584 -0.133488 0.251690
-0.011422 -0.131418 0.255031
-0.006184 -0.137907 0.253846
-0.025760 -0.046615 0.262387
-0.024295 -0.054194 0.280816
-0.023927 -0.054088 0.271645
-0.025843 -0.038724 0.282376
-0.023116 -0.081561 0.278757
-0.023670 -0.066695 0.276569
-0.025769 -0.038789 0.266508
-0.025556 -0.060187 0.260566
-0.023250 -0.076504 0.272274
-0.024621 -0.056088 0.265610
-0.023966 -0.073323 0.276329
-0.024563 -0.064567 0.266734
-0.023807 -0.051933 0.275656
-0.023644 -0.062095 0.270448
-0.025626 -0.056803 0.285897
-0.023727 -0.071555 0.280614
-0.024960 -0.058686 0.277682
-0.022926 -0.071554 0.268754
-0.025833 -0.030074 0.276734
-0.023627 -0.079712 0.265796
-0.024407 -0.045509 0.272191
-0.025039 -0.068133 0.286461
-0.022731 -0.087426 0.273936
-0.023975 -0.063035 0.282076
-0.023806 -0.077101 0.283683
-0.025189 -0.047510 0.283881
-0.025290 -0.035343 0.271314
-0.024371 -0.067672 0.263565
-0.022905 -0.067501 0.272833
-0.024065 -0.059963 0.273671
-0.025239 -0.043709 0.277668
-0.025591 -0.050141 0.268566
0.017502 0.174386 0.399135
-0.026295 0.175296 0.427889
-0.011967 0.175077 0.405470
0.011622 0.175014 0.447539
0.044915 0.174044 0.420056
-0.030215 0.175005 0.412901
0.043047 0.175017 0.405479
0.020061 0.175071 0.386079
0.020182 0.174428 0.411037
0.028970 0.175162 0.404550
0.010443 0.174053 0.421152
0.035908 0.174898 0.391452
0.001891 0.174300 0.427744
0.002855 0.174635 0.404190
0.030711 0.174913 0.445454
-0.018234 0.174973 0.438606
0.052386 0.174746 0.432464
-0.023552 0.174931 0.397594
0.033227 0.173967 0.418976
0.005266 0.174752 0.392268
0.013006 0.174733 0.433472
-0.006466 0.174454 0.448225
0.010808 0.175305 0.410332
0.024441 0.174896 0.437757
0.000468 0.175281 0.437250
0.022675 0.174992 0.426647
-0.015848 0.173644 0.416675
-0.007881 0.175473 0.387014
0.037696 0.174983 0.432598
-0.002027 0.174857 0.416764
-0.010353 0.175226 0.428366
0.057112 0.174763 0.413105
-0.044446 -0.046480 0.257524
-0.053144 -0.067177 0.260814
-0.055075 -0.059362 0.258908
-0.045711 -0.052802 0.257747
-0.034562 -0.094241 0.260564
-0.057562 -0.074507 0.261862
-0.036510 -0.048292 0.259513
-0.043992 -0.079992 0.258710
-0.039421 -0.083494 0.258840
-0.036543 -0.067975 0.258894
-0.046144 -0.085862 0.259027
-0.037172 -0.087119 0.259168
-0.040859 -0.061911 0.257736
-0.036814 -0.078257 0.258015
-0.039470 -0.069594 0.257381
-0.052532 -0.091910 0.260814
-0.033535 -0.063077 0.261227
-0.053601 -0.083793 0.259761
-0.040865 -0.037296 0.258412
-0.044823 -0.095402 0.258820
-0.039172 -0.054488 0.257306
-0.049871 -0.078141 0.257495
-0.039401 -0.101493 0.259380
-0.041714 -0.074546 0.258406
-0.040247 -0.089203 0.257761
-0.036521 -0.058404 0.258999
-0.053052 -0.044253 0.259974
-0.044440 -0.066815 0.257897
-0.033896 -0.081974 0.260410
-0.047500 -0.072258 0.257969
-0.048767 -0.059363 0.258150
-0.033898 -0.074629 0.260778
-0.052630 -0.012203 0.259528
-0.064069 -0.038156 0.280757
-0.065158 -0.034453 0.264385
-0.059653 -0.004446 0.285267
-0.058512 -0.096701 0.267936
-0.072588 -0.060926 0.272197
-0.048680 -0.004347 0.260075
-0.050972 -0.059351 0.260666
-0.058181 -0.082847 0.262150
-0.051521 -0.037931 0.259175
-0.059834 -0.075612 0.269426
-0.048763 -0.070112 0.261201
-0.055990 -0.032252 0.266743
-0.054558 -0.052398 0.261297
-0.057126 -0.043503 0.287719
-0.066784 -0.085232 0.278227
-0.053923 -0.041116 0.270620
-0.063156 -0.070982 0.265080
-0.056650 0.019982 0.266010
-0.058770 -0.094136 0.262372
-0.054958 -0.021292 0.260810
-0.061930 -0.066559 0.290639
-0.062162 -0.111412 0.266122
-0.059070 -0.054706 0.280821
-0.060361 -0.088458 0.285708
-0.055851 -0.020274 0.276051
-0.063146 0.006809 0.263722
-0.057390 -0.048469 0.260971
-0.055299 -0.065311 0.268390
-0.062293 -0.050046 0.267335
-0.061128 -0.014385 0.269034
-0.052755 -0.044272 0.261653
0.019352 -0.168406 0.253834
-0.000585 -0.170682 0.267289
0.007523 -0.170716 0.252668
0.022978 -0.168083 0.276482
0.028518 -0.173041 0.258909
-0.011150 -0.170450 0.254444
0.026183 -0.169645 0.255887
0.019778 -0.171967 0.251652
0.025599 -0.171897 0.255299
0.024299 -0.171415 0.253096
0.020750 -0.171242 0.254477
0.026209 -0.171637 0.252261
0.019743 -0.171828 0.258057
0.019967 -0.171592 0.253809
0.030181 -0.171437 0.283317
0.013071 -0.171947 0.265607
0.030288 -0.172094 0.268517
0.000163 -0.170807 0.252271
0.024925 -0.165467 0.257638
0.016128 -0.172206 0.254076
0.023490 -0.170784 0.258280
0.015864 -0.170494 0.286652
0.023530 -0.174334 0.254650
0.025395 -0.170750 0.267800
0.021398 -0.172958 0.271352
0.025386 -0.170320 0.259335
0.003339 -0.166770 0.256057
0.012948 -0.169336 0.252780
0.027311 -0.171936 0.262500
0.013737 -0.171348 0.254454
0.014253 -0.169125 0.258509
0.032028 -0.171292 0.256037
-0.049753 0.072021 0.298472
-0.060581 0.040752 0.299162
-0.065814 0.054052 0.294064
-0.052457 0.062855 0.299738
-0.036170 -0.005007 0.299434
-0.064782 0.030408 0.294015
-0.035082 0.072246 0.296820
-0.048741 0.018503 0.299596
-0.041931 0.014712 0.300098
-0.034005 0.041488 0.297150
-0.052901 0.009673 0.300300
-0.036090 0.006558 0.298393
-0.044467 0.048150 0.300199
-0.036034 0.022369 0.299302
-0.041509 0.037230 0.299066
-0.059392 0.000038 0.298000
-0.034222 0.048540 0.295609
-0.063818 0.013809 0.295352
-0.042153 0.085449 0.298911
-0.051333 -0.007432 0.301108
-0.040098 0.061708 0.299410
-0.057483 0.023765 0.297843
-0.042387 -0.014914 0.300077
-0.044749 0.029149 0.301410
-0.046615 0.002461 0.299617
-0.037966 0.055506 0.299474
-0.061842 0.074688 0.296884
-0.052335 0.044193 0.299299
-0.033788 0.016594 0.298087
-0.054500 0.031773 0.299135
-0.057892 0.054900 0.298870
-0.032973 0.030039 0.294693
-0.025100 -0.020295 0.262432
-0.022992 -0.028992 0.281718
-0.022699 -0.029423 0.272146
-0.024440 -0.010206 0.283627
-0.022597 -0.062721 0.279078
-0.022750 -0.043921 0.277162
-0.024531 -0.010794 0.266972
-0.025354 -0.037811 0.260835
-0.022744 -0.057289 0.272533
-0.023528 -0.032115 0.265766
-0.023415 -0.052300 0.276495
-0.024055 -0.042652 0.267368
-0.022916 -0.026044 0.276160
-0.022776 -0.039486 0.271075
-0.024650 -0.033261 0.286703
-0.022790 -0.050187 0.281024
-0.023990 -0.034469 0.278752
-0.022269 -0.050922 0.268881
-0.024276 0.000023 0.277561
-0.023483 -0.060484 0.265609
-0.023301 -0.019171 0.272472
-0.024246 -0.046309 0.287300
-0.022297 -0.069633 0.274037
-0.023234 -0.040090 0.282931
-0.023248 -0.057117 0.284310
-0.024106 -0.021434 0.285137
-0.023854 -0.005675 0.271587
-0.023856 -0.045596 0.263840
-0.022155 -0.046015 0.273556
-0.023255 -0.036541 0.274235
-0.024005 -0.016174 0.278428
-0.024520 -0.025285 0.269038
-0.046110 0.159037 0.338307
-0.086078 0.158772 0.367033
-0.073489 0.158236 0.345751
-0.052066 0.158909 0.390645
-0.022004 0.157814 0.360201
-0.087987 0.158533 0.352461
-0.022799 0.158585 0.342968
-0.044265 0.158641 0.324561
-0.045684 0.158563 0.350230
-0.035616 0.158305 0.345024
-0.051410 0.158388 0.360114
-0.030867 0.158141 0.330751
-0.060145 0.158159 0.366863
-0.061955 0.158327 0.340896
-0.032085 0.158891 0.389333
-0.078661 0.158732 0.379950
-0.015419 0.158338 0.373726
-0.082627 0.158694 0.337163
-0.033601 0.158281 0.358118
-0.056272 0.158203 0.329952
-0.051915 0.159162 0.375933
-0.068909 0.158296 0.392790
-0.055768 0.157997 0.348337
-0.040846 0.158689 0.379768
-0.061898 0.158459 0.380302
-0.043276 0.158519 0.366017
-0.075357 0.158378 0.355821
-0.070379 0.158530 0.326571
-0.029529 0.158743 0.373439
-0.063005 0.158351 0.356104
-0.071927 0.158589 0.367209
-0.011664 0.158954 0.352795
-0.044205 0.032659 0.271581
-0.053428 0.009519 0.300635
-0.051355 0.016625 0.291155
-0.044570 0.037264 0.301354
-0.034105 -0.061011 0.293918
-0.054843 -0.010642 0.297283
-0.040963 0.044143 0.283675
-0.040907 -0.017752 0.262126
-0.036228 -0.039698 0.289603
-0.040259 0.006870 0.273548
-0.040148 -0.031240 0.297166
-0.038557 -0.031831 0.274588
-0.042000 0.011069 0.297141
-0.036622 -0.015441 0.285126
-0.045322 0.002159 0.299607
-0.048016 -0.043641 0.296194
-0.039389 0.004135 0.292355
-0.046668 -0.030319 0.289425
-0.043115 0.064670 0.295672
-0.038731 -0.056593 0.277907
-0.038418 0.023675 0.288562
-0.048258 -0.019971 0.299134
-0.035337 -0.074366 0.288863
-0.037729 -0.011081 0.298596
-0.041073 -0.048747 0.297565
-0.041340 0.022369 0.299164
-0.054643 0.048103 0.296353
-0.043651 -0.001467 0.275010
-0.035260 -0.020542 0.293963
-0.042857 -0.003323 0.294134
-0.048362 0.025842 0.297646
-0.037021 -0.004203 0.284421
-0.103067 0.162102 0.282208
-0.124657 0.163220 0.311417
-0.121550 0.161913 0.291377
-0.108957 0.162326 0.333435
-0.086941 0.161761 0.303239
-0.125542 0.162760 0.299058
-0.087525 0.161815 0.287014
-0.103133 0.162513 0.267131
-0.103298 0.162164 0.292892
-0.096294 0.162071 0.287461
-0.103728 0.161809 0.301586
-0.092289 0.162077 0.274334
-0.111538 0.162046 0.307523
-0.113719 0.162264 0.284519
-0.092842 0.162669 0.333966
-0.122594 0.163315 0.323205
-0.083284 0.161779 0.315956
-0.124072 0.163238 0.281806
-0.095669 0.161319 0.303153
-0.111558 0.162485 0.275275
-0.107580 0.162483 0.319100
-0.118117 0.162737 0.337611
-0.111000 0.162643 0.291724
-0.099337 0.162546 0.323262
-0.114491 0.162967 0.322799
-0.102109 0.161906 0.310395
-0.118992 0.162498 0.298805
-0.119609 0.162635 0.271074
-0.092528 0.162571 0.315931
-0.112184 0.162033 0.300316
-0.119744 0.162638 0.309820
-0.081884 0.162278 0.296557
-0.025615 0.024138 0.274769
-0.026270 0.014136 0.293737
-0.022969 0.013048 0.285584
-0.027102 0.035426 0.294266
-0.024428 -0.027651 0.290204
-0.024447 -0.004127 0.290417
-0.024834 0.035110 0.280576
-0.026422 0.000258 0.272446
-0.023561 -0.020857 0.285397
-0.024171 0.009460 0.277744
-0.024572 -0.013610 0.289091
-0.024637 -0.005724 0.279781
-0.024005 0.017091 0.288353
-0.023448 0.000061 0.283387
-0.028241 0.006940 0.295207
-0.025267 -0.014397 0.292613
-0.025490 0.008674 0.290216
-0.022266 -0.013124 0.281916
-0.025841 0.048889 0.290094
-0.024161 -0.024889 0.277136
-0.024017 0.024471 0.284291
-0.028499 -0.008235 0.296557
