-0.010883 -0.047893 -0.119523
-0.048287 -0.050674 -0.152147
-0.059429 -0.046594 -0.139582
-0.030236 -0.060034 -0.099873
-0.037523 -0.080548 -0.124300
-0.019886 -0.047473 -0.111330
-0.067662 -0.050920 -0.129689
-0.017107 -0.071123 -0.106821
-0.010550 -0.049676 -0.124240
-0.022236 -0.051757 -0.114769
-0.003370 -0.053623 -0.100458
-0.047908 -0.060943 -0.131716
-0.029240 -0.050420 -0.111823
0.005908 -0.067345 -0.113064
-0.048213 -0.048115 -0.128324
0.246809 -0.017955 0.025488
0.260837 -0.017929 0.023959
0.247590 -0.015855 0.022938
0.273538 -0.012781 0.015434
0.277154 -0.014797 0.019149
0.262973 -0.014197 0.020556
0.255309 -0.017401 0.025814
0.267981 -0.011951 0.014360
0.255716 -0.013770 0.020992
0.263036 -0.009341 0.010996
0.258134 -0.011391 0.014089
0.251784 -0.011845 0.016277
0.270890 -0.015459 0.021955
0.253707 -0.013736 0.019739
0.262092 -0.012218 0.016044
0.257544 -0.009007 0.009752
0.264215 -0.017734 0.025782
0.266747 -0.012012 0.014194
0.253416 -0.009899 0.012363
0.245542 -0.010542 0.014254
0.259047 -0.021216 0.028101
0.253526 -0.019668 0.027533
0.257938 -0.015632 0.022428
0.242536 -0.013032 0.019921
0.268413 -0.019129 0.026948
0.269577 -0.012998 0.017358
0.265358 -0.015345 0.023805
0.272243 -0.015971 0.022281
0.251626 -0.013942 0.020781
0.259622 -0.013049 0.018081
0.274411 -0.018221 0.023827
0.249134 -0.009781 0.013023
0.104591 -0.013246 -0.019225
0.149903 -0.020690 -0.033513
0.114078 -0.014274 -0.024668
0.172266 -0.017294 -0.026327
0.185672 -0.016953 -0.025368
0.134123 -0.014782 -0.025678
0.128788 -0.008925 -0.013304
0.164665 -0.024856 -0.032658
0.130781 -0.022640 -0.032629
0.144826 -0.017776 -0.023866
0.129218 -0.012604 -0.015849
0.123152 -0.017676 -0.024793
0.167802 -0.014372 -0.024161
0.120620 -0.011151 -0.019602
0.157154 -0.019573 -0.029428
0.142270 -0.024091 -0.031038
0.146749 -0.016807 -0.027013
0.158613 -0.010949 -0.016034
0.122770 -0.021451 -0.030541
0.102612 -0.016032 -0.023623
0.136847 -0.010372 -0.015473
0.132278 -0.019722 -0.032495
0.142709 -0.011364 -0.017404
0.091055 -0.015484 -0.024222
0.152624 -0.013075 -0.021161
0.158082 -0.013571 -0.023469
0.147303 -0.010925 -0.020809
0.168940 -0.012629 -0.018924
0.109551 -0.021223 -0.030727
0.141494 -0.011406 -0.016190
0.174762 -0.019086 -0.028196
0.109066 -0.011078 -0.015826
-0.049090 -0.039173 -0.179066
-0.034828 -0.041333 -0.193603
-0.043709 -0.038946 -0.191371
-0.023246 -0.041201 -0.202202
-0.019877 -0.040943 -0.191516
-0.036353 -0.039592 -0.202109
-0.043122 -0.038706 -0.170678
-0.028826 -0.039988 -0.215929
-0.043487 -0.039875 -0.212117
-0.038848 -0.037444 -0.212699
-0.039164 -0.038875 -0.196536
-0.041928 -0.038646 -0.207114
-0.027196 -0.040708 -0.192069
-0.045138 -0.038323 -0.184922
-0.032041 -0.040884 -0.207324
-0.036388 -0.039286 -0.224056
-0.034033 -0.041065 -0.187521
-0.031105 -0.039807 -0.186261
-0.047752 -0.039038 -0.222267
-0.053859 -0.037030 -0.209732
-0.035711 -0.040758 -0.162082
-0.041254 -0.042589 -0.191473
-0.037242 -0.039762 -0.175834
-0.054115 -0.037627 -0.197819
-0.033985 -0.041990 -0.171575
-0.030746 -0.039250 -0.199228
-0.032501 -0.040306 -0.179861
-0.024833 -0.041106 -0.169991
-0.046169 -0.039132 -0.200788
-0.037068 -0.039444 -0.182865
-0.023710 -0.042758 -0.182195
-0.051807 -0.037286 -0.191275
0.226241 -0.080483 -0.005038
0.254792 -0.080257 -0.007248
0.233498 -0.080231 -0.010741
0.278811 -0.074551 -0.020204
0.286021 -0.076659 -0.013215
0.254665 -0.077323 -0.014287
0.243489 -0.080728 -0.001164
0.268741 -0.073380 -0.021672
0.244961 -0.076691 -0.017966
0.257509 -0.068150 -0.024075
0.246658 -0.078002 -0.015709
0.241645 -0.077531 -0.017693
0.275227 -0.077033 -0.010520
0.237338 -0.079153 -0.009117
0.259910 -0.075735 -0.019152
0.251115 -0.070636 -0.024725
0.265077 -0.079433 -0.007247
0.269228 -0.069131 -0.014263
0.239881 -0.072673 -0.025299
0.223686 -0.076383 -0.022910
0.252018 -0.079565 0.001152
0.242730 -0.082398 -0.002601
0.255879 -0.079341 -0.006407
0.218283 -0.078453 -0.012876
0.265243 -0.078791 0.001545
0.268409 -0.076333 -0.016004
0.259903 -0.079367 -0.004970
0.273114 -0.078184 -0.004697
0.233555 -0.078177 -0.016168
0.250298 -0.080374 -0.008034
0.279382 -0.079403 -0.006376
0.229874 -0.069639 -0.016746
0.223977 -0.009272 0.012058
0.236500 -0.007895 0.004602
0.228694 -0.008439 0.006056
0.250338 -0.008024 0.000047
0.253863 -0.007975 0.003924
0.239580 -0.007710 0.001642
0.231064 -0.010565 0.015732
0.245703 -0.007416 -0.005726
0.228572 -0.007291 -0.003153
0.239204 -0.006918 -0.004566
0.233915 -0.007713 0.003668
0.234080 -0.006971 -0.002568
0.248332 -0.008249 0.006502
0.229565 -0.008606 0.009979
0.242109 -0.007669 -0.002081
0.238224 -0.007203 -0.009437
0.238664 -0.009174 0.010638
0.243774 -0.008910 0.007947
0.231290 -0.006952 -0.007825
0.222691 -0.006803 -0.002339
0.236317 -0.012029 0.017930
0.232759 -0.008298 0.009049
0.234581 -0.009575 0.012319
0.221100 -0.006879 0.003274
0.239860 -0.009935 0.016215
0.245453 -0.007438 0.001876
0.243708 -0.009554 0.014329
0.248621 -0.010250 0.013354
0.227821 -0.007684 0.000801
0.240111 -0.008301 0.006866
0.252480 -0.009751 0.007976
0.222983 -0.007069 0.006329
0.290510 -0.047831 0.032871
0.305338 -0.052301 0.029791
0.290587 -0.042895 0.033493
0.316385 -0.034570 0.028383
0.319517 -0.042192 0.028831
0.302674 -0.042085 0.031543
0.297962 -0.040274 0.032012
0.310682 -0.045662 0.030370
0.302393 -0.048953 0.031581
0.306735 -0.032434 0.029924
0.302323 -0.030840 0.028873
0.293562 -0.038834 0.031267
0.314159 -0.042386 0.030195
0.297074 -0.034962 0.030801
0.309445 -0.040151 0.030182
0.301423 -0.036758 0.031153
0.306441 -0.046876 0.031165
0.310192 -0.030650 0.026624
0.297173 -0.042367 0.032689
0.290299 -0.033726 0.031500
0.300872 -0.045370 0.031460
0.296578 -0.051760 0.031433
0.305428 -0.037817 0.030727
0.287100 -0.039034 0.033382
0.310180 -0.048944 0.029857
0.310397 -0.035612 0.029203
0.306701 -0.040829 0.031299
0.315307 -0.038222 0.028714
0.295768 -0.046995 0.032769
0.301254 -0.034511 0.030825
0.315911 -0.048242 0.028583
0.295303 -0.029452 0.028555
-0.077835 -0.042798 -0.209820
-0.056720 -0.040432 -0.224999
-0.069779 -0.039935 -0.223114
-0.039350 -0.039390 -0.235425
-0.034427 -0.039024 -0.221918
-0.057165 -0.038661 -0.235186
-0.068210 -0.041130 -0.203513
-0.047226 -0.037480 -0.250073
-0.069778 -0.038131 -0.246119
-0.063244 -0.037376 -0.246173
-0.062498 -0.040151 -0.228095
-0.066785 -0.039473 -0.238930
-0.043104 -0.039700 -0.221369
-0.071620 -0.039989 -0.216269
-0.052001 -0.039546 -0.240700
-0.059880 -0.037706 -0.256110
-0.050565 -0.040340 -0.219459
-0.049165 -0.040701 -0.215587
-0.073795 -0.037946 -0.257374
-0.084025 -0.037233 -0.243045
-0.059373 -0.043311 -0.193192
-0.066587 -0.040608 -0.221063
-0.057367 -0.042547 -0.204908
-0.084075 -0.038195 -0.230171
-0.052824 -0.042820 -0.196763
-0.048566 -0.039814 -0.230830
-0.053567 -0.041755 -0.212359
-0.042461 -0.042641 -0.200125
-0.073819 -0.039231 -0.234342
-0.062121 -0.041074 -0.213565
-0.037973 -0.042196 -0.212110
-0.079757 -0.040489 -0.223137
0.250576 -0.033982 0.036348
0.287919 -0.042203 0.032822
0.257314 -0.023777 0.035940
0.303546 -0.017616 0.023700
0.308848 -0.025222 0.029571
0.280517 -0.021269 0.032372
0.271924 -0.023973 0.032059
0.297444 -0.024525 0.022633
0.276764 -0.034508 0.029166
0.284047 -0.013067 0.021453
0.273324 -0.016430 0.023439
0.261771 -0.018111 0.028847
0.295694 -0.025737 0.032164
0.267422 -0.018625 0.027727
0.288715 -0.020450 0.028973
0.275246 -0.014547 0.011888
0.286111 -0.028910 0.033736
0.291780 -0.017715 0.021362
0.264119 -0.017761 0.024869
0.249178 -0.016345 0.025507
0.274544 -0.032858 0.033779
0.269155 -0.044623 0.035490
0.281741 -0.020520 0.027532
0.245883 -0.020551 0.032391
0.291369 -0.036378 0.033450
0.290033 -0.019273 0.029502
0.283955 -0.024673 0.033448
0.299244 -0.024417 0.027147
0.263475 -0.027451 0.035688
0.272748 -0.018573 0.026384
0.301075 -0.036711 0.032635
0.260191 -0.012627 0.020765
-0.063218 -0.046734 -0.142560
-0.038865 -0.041483 -0.154259
-0.049999 -0.048269 -0.154834
-0.018000 -0.048667 -0.159925
-0.002735 -0.047208 -0.143964
-0.043011 -0.048861 -0.163051
-0.047939 -0.047214 -0.139091
-0.023204 -0.042777 -0.177648
-0.052920 -0.045838 -0.174973
-0.047746 -0.043214 -0.175880
-0.042969 -0.044539 -0.153843
-0.048890 -0.046444 -0.164193
-0.019501 -0.048404 -0.147776
-0.053851 -0.045424 -0.152627
-0.036023 -0.048144 -0.165628
-0.043200 -0.047276 -0.191446
-0.032453 -0.046866 -0.150844
-0.028568 -0.047490 -0.147440
-0.065491 -0.045380 -0.190994
-0.069669 -0.044695 -0.175312
-0.038094 -0.051833 -0.129825
-0.049158 -0.049056 -0.151333
-0.035826 -0.047114 -0.138176
-0.071104 -0.046469 -0.162803
-0.029123 -0.048606 -0.130635
-0.030611 -0.046504 -0.156777
-0.036316 -0.049064 -0.147248
-0.020725 -0.050745 -0.125544
-0.057205 -0.047438 -0.163720
-0.041701 -0.048250 -0.146493
-0.013950 -0.048784 -0.139171
-0.060221 -0.048545 -0.158288
0.260438 -0.074206 0.018586
0.295153 -0.076899 0.004980
0.270267 -0.076283 0.015422
0.317779 -0.070399 0.005963
0.323574 -0.072281 0.009767
0.288097 -0.076559 0.007277
0.276861 -0.071552 0.024269
0.308232 -0.075932 0.000257
0.284492 -0.078844 0.000552
0.294003 -0.066523 0.004189
0.284855 -0.072154 0.014110
0.278025 -0.076219 0.006096
0.310049 -0.074723 0.009424
0.269589 -0.071168 0.022135
0.301146 -0.077922 0.000789
0.291163 -0.074676 -0.002245
0.298817 -0.075554 0.013689
0.308302 -0.057646 0.017335
0.273529 -0.078786 0.000546
0.256881 -0.074379 0.004720
0.286948 -0.069195 0.021829
0.279557 -0.079146 0.008210
0.297298 -0.070375 0.020325
0.249538 -0.076523 0.013808
0.298794 -0.072920 0.016346
0.304670 -0.072687 0.009452
0.291009 -0.073650 0.015874
0.309537 -0.069711 0.020323
0.264671 -0.080300 0.005353
0.288107 -0.067538 0.024963
0.314128 -0.073755 0.011836
0.266589 -0.060067 0.014158
-0.081814 -0.040325 -0.222961
-0.061618 -0.038238 -0.238163
-0.074141 -0.037801 -0.236065
-0.045979 -0.037383 -0.250467
-0.041031 -0.037194 -0.235282
-0.061720 -0.036556 -0.249638
-0.072662 -0.039357 -0.216281
-0.053135 -0.034829 -0.265424
-0.073395 -0.035540 -0.260041
-0.067627 -0.034759 -0.261022
-0.067278 -0.038241 -0.241808
-0.071413 -0.037004 -0.253533
-0.049159 -0.037428 -0.235566
-0.075809 -0.037844 -0.229723
-0.057810 -0.037748 -0.255321
-0.065177 -0.035450 -0.272182
-0.055942 -0.038275 -0.232794
-0.055352 -0.038310 -0.230095
-0.078984 -0.035973 -0.272156
-0.088293 -0.035460 -0.257784
-0.063274 -0.041651 -0.205065
-0.071348 -0.038704 -0.234348
-0.062231 -0.040811 -0.218214
-0.087421 -0.036140 -0.243964
-0.058048 -0.040694 -0.210508
-0.054105 -0.037755 -0.245308
-0.059074 -0.039974 -0.225712
-0.048022 -0.040746 -0.212782
-0.077779 -0.037148 -0.248123
-0.067152 -0.039135 -0.226732
-0.044590 -0.039948 -0.225266
-0.083024 -0.038131 -0.237470
0.307639 -0.102910 0.006704
0.313894 -0.108640 0.002184
0.310129 -0.103445 0.006943
0.315802 -0.096661 0.002200
0.317487 -0.101611 0.003774
0.311958 -0.103625 0.002376
0.311710 -0.100416 0.007670
0.316894 -0.103570 -0.004675
0.312950 -0.104815 -0.002109
0.313003 -0.093841 -0.003903
0.310793 -0.097177 0.004117
0.310223 -0.100384 0.000162
0.313566 -0.103591 0.005022
0.309021 -0.097508 0.005637
0.314018 -0.102182 -0.001422
0.313112 -0.099189 -0.007237
0.311623 -0.105700 0.005494
0.314260 -0.093610 0.006316
0.308301 -0.103140 -0.003872
0.307288 -0.094640 -0.000199
0.312859 -0.102174 0.009822
0.311708 -0.106813 0.003156
0.311560 -0.100171 0.005649
0.304803 -0.100820 0.004547
0.313095 -0.103861 0.005895
0.312619 -0.099758 0.003773
0.312643 -0.102457 0.006758
0.314298 -0.099491 0.007578
0.308492 -0.105097 0.001693
0.311700 -0.095776 0.009309
0.313829 -0.104731 0.004937
0.310193 -0.089140 0.001817
-0.089017 -0.038337 -0.226210
-0.069248 -0.037026 -0.242691
-0.081535 -0.036724 -0.239925
-0.055462 -0.036256 -0.256149
-0.051072 -0.036678 -0.241457
-0.070101 -0.035922 -0.254089
-0.081549 -0.038539 -0.219040
-0.061400 -0.033667 -0.269397
-0.079674 -0.034280 -0.263892
-0.074864 -0.033335 -0.264664
-0.075053 -0.036773 -0.246121
-0.078506 -0.035566 -0.258131
-0.058556 -0.036658 -0.241610
-0.083269 -0.036219 -0.233409
-0.066058 -0.037139 -0.259330
-0.072258 -0.034671 -0.276194
-0.065251 -0.037670 -0.236850
-0.064601 -0.037105 -0.235776
-0.085347 -0.034687 -0.275691
-0.093857 -0.034192 -0.261716
-0.072273 -0.040617 -0.208428
-0.078131 -0.038012 -0.238685
-0.070667 -0.039098 -0.223078
-0.093992 -0.034883 -0.247281
-0.066744 -0.039489 -0.216079
-0.063247 -0.036386 -0.250137
-0.068655 -0.039052 -0.229609
-0.057967 -0.039723 -0.217715
-0.084309 -0.036098 -0.252057
-0.076125 -0.037416 -0.230429
-0.054731 -0.038794 -0.230369
-0.089281 -0.036087 -0.241434
-0.052901 -0.043046 -0.196079
-0.039766 -0.042007 -0.206698
-0.046712 -0.041081 -0.205944
-0.028487 -0.040654 -0.218901
-0.022138 -0.041672 -0.204665
-0.040769 -0.041755 -0.217305
-0.045215 -0.041674 -0.188687
-0.033754 -0.039601 -0.232465
-0.047535 -0.041043 -0.226318
-0.045532 -0.037052 -0.229083
-0.042310 -0.038901 -0.211822
-0.046452 -0.038827 -0.222650
-0.030202 -0.042525 -0.207439
-0.048497 -0.039095 -0.202172
-0.037658 -0.042341 -0.222529
-0.042717 -0.039754 -0.240942
-0.035080 -0.042452 -0.202845
-0.035287 -0.040969 -0.203378
-0.054857 -0.039846 -0.239542
-0.060049 -0.037542 -0.227409
-0.037397 -0.044111 -0.178129
-0.047391 -0.044051 -0.207361
-0.037399 -0.040941 -0.192598
-0.059240 -0.039319 -0.215078
-0.035858 -0.043731 -0.185795
-0.035194 -0.040021 -0.214696
-0.036985 -0.042926 -0.197384
-0.028106 -0.043535 -0.183255
-0.050432 -0.041118 -0.217321
-0.042143 -0.040915 -0.196632
-0.027162 -0.043630 -0.194411
-0.054993 -0.039526 -0.211627
-0.075086 -0.042916 -0.209108
-0.055431 -0.040036 -0.223864
-0.067161 -0.039952 -0.222076
-0.037072 -0.039699 -0.233442
-0.031357 -0.038940 -0.219152
-0.056019 -0.038825 -0.234178
-0.065682 -0.040782 -0.202353
-0.045286 -0.037755 -0.249379
-0.068348 -0.038492 -0.246177
-0.062566 -0.037675 -0.245636
-0.060346 -0.040203 -0.226422
-0.064933 -0.039559 -0.237486
-0.041054 -0.039796 -0.219278
-0.069483 -0.040252 -0.216255
-0.050389 -0.039734 -0.240184
-0.058462 -0.038234 -0.255870
-0.048800 -0.039925 -0.218532
-0.046714 -0.040866 -0.213743
-0.073204 -0.038320 -0.257294
-0.082728 -0.037201 -0.242676
-0.056441 -0.043114 -0.191558
-0.064626 -0.040139 -0.220963
-0.054473 -0.042689 -0.202889
-0.082469 -0.038131 -0.229538
-0.050852 -0.042719 -0.194450
-0.047131 -0.039872 -0.229450
-0.051283 -0.041835 -0.211141
-0.040234 -0.042616 -0.196712
-0.072117 -0.039258 -0.233381
-0.059717 -0.040996 -0.212147
-0.035392 -0.042083 -0.209491
-0.077805 -0.040927 -0.222675
0.303637 -0.069244 0.021226
0.317900 -0.071084 0.012924
0.305286 -0.065780 0.025268
0.333724 -0.055247 0.024148
0.336570 -0.062829 0.018528
0.314105 -0.064744 0.022841
0.312499 -0.062125 0.025609
0.325429 -0.066894 0.017415
0.315720 -0.069120 0.018452
0.323204 -0.056217 0.026898
0.318410 -0.053302 0.028022
0.309517 -0.063007 0.024350
0.328932 -0.064289 0.020210
0.312256 -0.058311 0.027106
0.325492 -0.063414 0.021844
0.318391 -0.062048 0.024183
0.320389 -0.067905 0.018881
0.326584 -0.053133 0.025470
0.311802 -0.066997 0.023050
0.305851 -0.057680 0.028938
0.315553 -0.065899 0.021580
0.309529 -0.071862 0.015856
0.320909 -0.060665 0.024459
0.301180 -0.062009 0.027262
0.322869 -0.068755 0.015461
0.327231 -0.058102 0.024038
0.321146 -0.062367 0.022847
0.332167 -0.060999 0.021298
0.307826 -0.068791 0.020604
0.316668 -0.057258 0.028255
0.331333 -0.068853 0.013622
0.311628 -0.052559 0.027992
0.298537 -0.074139 0.015166
0.313571 -0.077021 0.007378
0.302915 -0.076101 0.014751
0.323636 -0.072774 0.013698
0.328759 -0.072310 0.012859
0.309128 -0.075359 0.013201
0.305472 -0.071574 0.018894
0.319488 -0.075664 0.007079
0.308558 -0.077976 0.007684
0.313289 -0.074867 0.012061
0.308377 -0.074221 0.017355
0.306674 -0.076079 0.011921
0.321155 -0.073844 0.012605
0.304530 -0.072817 0.017223
0.317153 -0.075799 0.010543
0.313367 -0.076601 0.007775
0.312357 -0.075117 0.013170
0.317173 -0.070377 0.018458
0.305685 -0.077348 0.008637
0.299686 -0.075841 0.014163
0.310696 -0.070009 0.017817
0.305889 -0.077036 0.009175
0.310491 -0.073059 0.016563
0.295978 -0.075167 0.015830
0.313646 -0.072859 0.012471
0.316419 -0.073571 0.014284
0.314931 -0.071071 0.017806
0.321312 -0.070985 0.016496
0.300073 -0.077743 0.010554
0.311010 -0.071711 0.019113
0.323455 -0.074587 0.009327
0.301656 -0.071730 0.017384
-0.103042 -0.035317 -0.239644
-0.082491 -0.032481 -0.259479
-0.095451 -0.034033 -0.256113
-0.065587 -0.034126 -0.272004
-0.061362 -0.033148 -0.257395
-0.081674 -0.032661 -0.272357
-0.096009 -0.034651 -0.231972
-0.071711 -0.031099 -0.288121
-0.094350 -0.030389 -0.284165
-0.087549 -0.031831 -0.283871
-0.087747 -0.035101 -0.262390
-0.090550 -0.032745 -0.275199
-0.070020 -0.032875 -0.256645
-0.097878 -0.033929 -0.248703
-0.077576 -0.033521 -0.278495
-0.085294 -0.032057 -0.294877
-0.078327 -0.034608 -0.252185
-0.075725 -0.035675 -0.249917
-0.098706 -0.031092 -0.295078
-0.110101 -0.030417 -0.278795
-0.086860 -0.038224 -0.221081
-0.091041 -0.031879 -0.254713
-0.084953 -0.038702 -0.236439
-0.109420 -0.030583 -0.262057
-0.079851 -0.036216 -0.227238
-0.073394 -0.034021 -0.267435
-0.080793 -0.036451 -0.244542
-0.069508 -0.038486 -0.230609
-0.098388 -0.032076 -0.268200
-0.088520 -0.035299 -0.246607
-0.064581 -0.035491 -0.245831
-0.105302 -0.033852 -0.256243
0.276148 -0.018005 0.024361
0.289440 -0.017565 0.022344
0.276818 -0.015635 0.021970
0.301731 -0.013513 0.013775
0.304877 -0.015536 0.017533
0.291843 -0.014163 0.019101
0.283807 -0.017790 0.025053
0.296516 -0.012389 0.012293
0.284463 -0.013213 0.019242
0.291558 -0.009673 0.009732
0.286682 -0.011610 0.013432
0.281188 -0.011394 0.015188
0.299111 -0.015957 0.020560
0.282701 -0.014168 0.019161
0.290896 -0.012307 0.014586
0.286556 -0.009152 0.008101
0.292289 -0.017617 0.024494
0.294938 -0.012914 0.013210
0.282239 -0.009626 0.010785
0.274956 -0.010127 0.013338
0.287804 -0.021856 0.027146
0.282622 -0.019244 0.026682
0.286349 -0.015751 0.021304
0.271949 -0.012784 0.019223
0.296498 -0.019310 0.025780
0.297641 -0.013392 0.016368
0.293868 -0.015955 0.022709
0.300043 -0.016950 0.021132
0.280436 -0.013788 0.019637
0.287860 -0.013283 0.017326
0.302598 -0.018856 0.022461
0.278054 -0.009855 0.012558
0.288892 -0.026620 0.029813
0.304313 -0.030280 0.029115
0.286800 -0.022723 0.028284
0.314794 -0.018419 0.018836
0.318213 -0.022766 0.023445
0.301652 -0.022168 0.026204
0.296749 -0.021947 0.026829
0.309100 -0.022246 0.025099
0.300036 -0.026443 0.029783
0.304184 -0.014825 0.017805
0.298946 -0.015130 0.016641
0.290160 -0.019078 0.023891
0.311869 -0.022972 0.025475
0.294312 -0.017592 0.021752
0.303829 -0.019479 0.022721
0.297628 -0.015424 0.021024
0.305324 -0.025432 0.028811
0.308429 -0.015162 0.014673
0.295385 -0.018523 0.024749
0.287006 -0.015509 0.020914
0.299390 -0.026233 0.028972
0.294908 -0.029117 0.030925
0.300456 -0.019445 0.023812
0.283634 -0.019546 0.025897
0.309840 -0.027001 0.028243
0.308417 -0.018512 0.021014
0.304750 -0.020972 0.026099
0.312780 -0.020136 0.022130
0.293002 -0.023830 0.028485
0.299386 -0.017014 0.021173
0.314675 -0.027427 0.026303
0.291658 -0.012708 0.015709
-0.052727 -0.040979 -0.201662
-0.041887 -0.040682 -0.213337
-0.047651 -0.038836 -0.211839
-0.031683 -0.040021 -0.225149
-0.024128 -0.040550 -0.209672
-0.043129 -0.040297 -0.224291
-0.046116 -0.039408 -0.193507
-0.036921 -0.038159 -0.241640
-0.049798 -0.039426 -0.234024
-0.049836 -0.035674 -0.238310
-0.045126 -0.037615 -0.218081
-0.048273 -0.037239 -0.229645
-0.033474 -0.041141 -0.212854
-0.049742 -0.037629 -0.208669
-0.040992 -0.040837 -0.230342
-0.046045 -0.038361 -0.251292
-0.038613 -0.040449 -0.209107
-0.038924 -0.038941 -0.208548
-0.057587 -0.038887 -0.248468
-0.062240 -0.035814 -0.235428
-0.037679 -0.042194 -0.182341
-0.049602 -0.042640 -0.214929
-0.039404 -0.040465 -0.197355
-0.059712 -0.037205 -0.222376
-0.038017 -0.042330 -0.190616
-0.038755 -0.038926 -0.221187
-0.038766 -0.041594 -0.202901
-0.029731 -0.041838 -0.186733
-0.051658 -0.039075 -0.223958
-0.043045 -0.039915 -0.201930
-0.029537 -0.042498 -0.199384
-0.055848 -0.038262 -0.217875
-0.066428 -0.039926 -0.220772
-0.052283 -0.038423 -0.233219
-0.060382 -0.037544 -0.231300
-0.040164 -0.037910 -0.245724
-0.033639 -0.038403 -0.229562
-0.052657 -0.037755 -0.244768
-0.058355 -0.038716 -0.213712
-0.045804 -0.035491 -0.261488
-0.060997 -0.036618 -0.254558
-0.058871 -0.034135 -0.257601
-0.056127 -0.036989 -0.237513
-0.059774 -0.036134 -0.249436
-0.041934 -0.038534 -0.232140
-0.062078 -0.037021 -0.227692
-0.050067 -0.038858 -0.250680
-0.056152 -0.036157 -0.270169
-0.047266 -0.038317 -0.228822
-0.047489 -0.037623 -0.228109
-0.069204 -0.036995 -0.268019
-0.075223 -0.035154 -0.254619
-0.049158 -0.041294 -0.201904
-0.060347 -0.039576 -0.232917
-0.050257 -0.039670 -0.216177
-0.073251 -0.036153 -0.241412
-0.047784 -0.040211 -0.209092
-0.047094 -0.037509 -0.241003
-0.048894 -0.040180 -0.222519
-0.039246 -0.040574 -0.207339
-0.064439 -0.037574 -0.243885
-0.054693 -0.038691 -0.222019
-0.037880 -0.040445 -0.219771
-0.068619 -0.037500 -0.236747
0.293486 -0.079516 0.005853
0.307359 -0.079257 0.000833
0.298053 -0.080610 0.001682
0.317421 -0.078140 -0.003292
0.322962 -0.077904 -0.000451
0.306670 -0.079377 -0.001362
0.300198 -0.078958 0.009925
0.314443 -0.077761 -0.007308
0.301840 -0.079041 -0.004795
0.306862 -0.077594 -0.005926
0.302836 -0.080379 0.000067
0.301391 -0.079218 -0.004020
0.316460 -0.078416 0.001265
0.298016 -0.079231 0.004891
0.309617 -0.078929 -0.004694
0.306973 -0.077325 -0.010100
0.308970 -0.079356 0.003456
0.312315 -0.078638 0.002689
0.299025 -0.078401 -0.009765
0.291480 -0.079047 -0.005149
0.305455 -0.077772 0.011549
0.301844 -0.078601 0.003777
0.303893 -0.079334 0.006936
0.289133 -0.079882 0.000748
0.309638 -0.076848 0.009330
0.311656 -0.079270 -0.001600
0.310151 -0.078609 0.007002
0.315262 -0.077700 0.007958
0.295645 -0.080286 -0.001711
0.304890 -0.079555 0.003774
0.318543 -0.078446 0.002970
0.293086 -0.078208 0.000528
0.256637 -0.008521 0.008913
0.271131 -0.007485 -0.000177
0.261381 -0.008099 0.001731
0.284941 -0.008739 -0.005750
0.288532 -0.008115 -0.000279
0.273128 -0.007762 -0.003747
0.263645 -0.009379 0.013424
0.280394 -0.008558 -0.012343
0.261980 -0.007627 -0.008663
0.272035 -0.007720 -0.010281
0.267239 -0.007550 -0.000723
0.266883 -0.007227 -0.007005
0.282657 -0.007886 0.002291
0.262988 -0.007995 0.006545
0.276581 -0.008209 -0.007933
0.272591 -0.008363 -0.016658
0.272184 -0.008832 0.006876
0.278132 -0.008680 0.004384
0.263745 -0.007508 -0.015198
0.254955 -0.007044 -0.008212
0.269704 -0.010604 0.015824
0.266301 -0.007924 0.004450
0.267761 -0.008933 0.009485
0.253332 -0.006651 -0.001344
0.272830 -0.008864 0.014030
0.279151 -0.007839 -0.002791
0.277315 -0.008899 0.011578
0.282942 -0.010052 0.010272
0.260617 -0.007679 -0.003924
0.273103 -0.008210 0.003734
0.286611 -0.009525 0.004152
0.255593 -0.006600 0.002898
-0.075996 -0.039437 -0.223504
-0.058633 -0.037978 -0.236887
-0.068559 -0.036991 -0.234278
-0.046463 -0.036791 -0.248841
-0.041213 -0.037958 -0.234287
-0.059628 -0.037374 -0.247631
-0.067362 -0.037703 -0.216379
-0.051600 -0.035327 -0.262006
-0.067475 -0.036332 -0.256486
-0.064021 -0.033430 -0.258143
-0.062641 -0.035747 -0.240687
-0.066602 -0.035182 -0.251802
-0.048277 -0.038185 -0.236274
-0.070537 -0.035659 -0.229937
-0.055538 -0.038271 -0.252637
-0.061047 -0.035536 -0.269328
-0.054128 -0.038064 -0.232125
-0.053739 -0.037201 -0.231893
-0.074983 -0.035733 -0.268410
-0.082158 -0.034240 -0.255626
-0.058174 -0.040421 -0.205873
-0.067344 -0.039224 -0.235483
-0.057174 -0.037777 -0.220001
-0.082453 -0.035594 -0.242733
-0.055277 -0.039374 -0.213960
-0.052954 -0.036426 -0.244113
-0.056544 -0.039122 -0.225928
-0.046753 -0.039661 -0.212666
-0.072207 -0.037362 -0.246171
-0.062497 -0.037553 -0.225544
-0.045175 -0.039908 -0.224344
-0.076948 -0.036017 -0.238356
0.313561 -0.045286 0.030881
0.330905 -0.050600 0.025754
0.312821 -0.039497 0.031130
0.342470 -0.031930 0.018345
0.346589 -0.039473 0.019413
0.327115 -0.039805 0.026708
0.321046 -0.037914 0.027564
0.337154 -0.043421 0.023494
0.328638 -0.046639 0.027602
0.330328 -0.028974 0.022237
0.324963 -0.027842 0.021821
0.316736 -0.036045 0.027433
0.338657 -0.039588 0.023284
0.318725 -0.032414 0.026147
0.332774 -0.037603 0.023631
0.326783 -0.033278 0.024753
0.331108 -0.043498 0.026432
0.334984 -0.027678 0.016596
0.321734 -0.039341 0.029195
0.312203 -0.030065 0.027438
0.324760 -0.042918 0.027318
0.320054 -0.048742 0.028707
0.327376 -0.034476 0.024468
0.309490 -0.035772 0.031104
0.334512 -0.045633 0.024574
0.333642 -0.032710 0.022215
0.330053 -0.037476 0.025950
0.339718 -0.035800 0.020507
0.318816 -0.044228 0.029900
0.323208 -0.031791 0.024534
0.342322 -0.047036 0.021205
0.317651 -0.025716 0.022002
0.319275 -0.068409 0.017955
0.331972 -0.070335 0.008958
0.321724 -0.065550 0.021921
0.348799 -0.054809 0.019002
0.350640 -0.061216 0.013446
0.329522 -0.064252 0.019050
0.327789 -0.061744 0.021728
0.340545 -0.065819 0.012248
0.330859 -0.068353 0.014175
0.338392 -0.056581 0.022232
0.333932 -0.054081 0.023754
0.326167 -0.063325 0.020488
0.342433 -0.063081 0.015639
0.327465 -0.058614 0.023331
0.339840 -0.062952 0.017058
0.334587 -0.061967 0.018947
0.334508 -0.066550 0.014914
0.342020 -0.053079 0.020690
0.327353 -0.066767 0.018872
0.322827 -0.058162 0.025649
0.329944 -0.064535 0.018109
0.323645 -0.070874 0.012135
0.335309 -0.060213 0.020114
0.317553 -0.062472 0.024156
0.335559 -0.066793 0.011372
0.341375 -0.057495 0.019679
0.335274 -0.061013 0.018923
0.345751 -0.059953 0.016865
0.323348 -0.068190 0.017030
0.331743 -0.057070 0.024510
0.344530 -0.067471 0.008913
0.328244 -0.053088 0.024249
0.315080 -0.078115 0.009834
0.325230 -0.078033 0.005022
0.318998 -0.079438 0.006849
0.334071 -0.076285 0.003555
0.338810 -0.075180 0.005675
0.324533 -0.078410 0.005357
0.319578 -0.076937 0.012732
0.331815 -0.077054 -0.001024
0.321534 -0.079049 0.001316
0.324913 -0.077304 0.001401
0.322271 -0.079347 0.006446
0.321628 -0.079302 0.002589
0.331858 -0.076276 0.006763
0.318704 -0.077590 0.009310
0.327651 -0.078211 0.002645
0.325389 -0.077747 -0.002545
0.325402 -0.077413 0.007666
0.328688 -0.076388 0.008490
0.319491 -0.078845 -0.000830
0.314755 -0.079506 0.003414
0.323434 -0.074439 0.013553
0.320824 -0.077414 0.006544
0.322424 -0.077587 0.010053
0.312979 -0.079872 0.006874
0.325741 -0.074183 0.010136
0.328384 -0.077722 0.005189
0.327088 -0.075831 0.011739
0.331753 -0.074354 0.011349
0.316746 -0.080095 0.004737
0.323916 -0.077269 0.009308
0.333977 -0.075903 0.006329
0.316020 -0.077939 0.006382
0.307723 -0.055279 -0.020535
0.336738 -0.062170 -0.024460
0.314764 -0.041902 -0.029281
0.347897 -0.032772 -0.016382
0.352993 -0.042412 -0.015865
0.328837 -0.046338 -0.028473
0.325058 -0.035316 -0.015153
0.336629 -0.048465 -0.027035
0.322687 -0.057407 -0.031405
0.328284 -0.027754 -0.023274
0.326606 -0.026992 -0.022382
0.315842 -0.031719 -0.033983
0.347874 -0.044048 -0.024519
0.317975 -0.026822 -0.023310
0.337030 -0.039867 -0.027378
0.320767 -0.034872 -0.030499
0.339351 -0.053427 -0.023302
0.338713 -0.024910 -0.015242
0.312055 -0.046376 -0.037677
0.301181 -0.027866 -0.035275
0.335147 -0.049585 -0.004809
0.317949 -0.067161 -0.028204
0.338589 -0.032387 -0.018868
0.292403 -0.040414 -0.035403
0.341814 -0.061033 -0.012020
0.340361 -0.032429 -0.023824
0.342114 -0.041343 -0.019713
0.347935 -0.037970 -0.007690
0.310478 -0.057632 -0.033017
0.334253 -0.026405 -0.011483
0.349115 -0.054572 -0.014070
0.309971 -0.019363 -0.025741
0.203462 -0.037098 -0.035272
0.249292 -0.041967 -0.036445
0.211758 -0.028680 -0.032592
0.282892 -0.019072 -0.023725
0.294339 -0.029326 -0.031436
0.238532 -0.029809 -0.033956
0.234049 -0.021843 -0.030061
0.267558 -0.035122 -0.035126
0.239003 -0.036812 -0.037451
0.254591 -0.018087 -0.024395
0.237034 -0.014100 -0.019582
0.220474 -0.023649 -0.034034
0.278156 -0.028685 -0.031909
0.226954 -0.017038 -0.027533
0.263570 -0.028350 -0.032972
0.244240 -0.024841 -0.031686
0.255516 -0.035852 -0.035399
0.264873 -0.014783 -0.021194
0.227285 -0.030971 -0.035488
0.205827 -0.017785 -0.027360
0.242147 -0.032029 -0.032272
0.228144 -0.042882 -0.037370
0.252938 -0.021753 -0.027983
0.194642 -0.027417 -0.032620
0.264017 -0.040968 -0.033938
0.268466 -0.020813 -0.027107
0.254287 -0.027448 -0.032316
0.280007 -0.024745 -0.029344
0.218468 -0.040192 -0.036474
0.244728 -0.015820 -0.024250
0.285798 -0.038790 -0.034653
0.217203 -0.013954 -0.022691
0.229274 -0.006144 -0.007845
0.267091 -0.012993 -0.021712
0.239416 -0.009356 -0.014633
0.285841 -0.014252 -0.019583
0.295589 -0.012808 -0.015689
0.256977 -0.011597 -0.019580
0.246960 -0.005997 -0.004288
0.279257 -0.018231 -0.026952
0.250889 -0.014894 -0.025846
0.261926 -0.012348 -0.020985
0.251718 -0.010008 -0.013488
0.246461 -0.011749 -0.020214
0.280059 -0.010789 -0.014365
0.244194 -0.007956 -0.011478
0.273640 -0.015322 -0.024227
0.260908 -0.018573 -0.028263
0.265114 -0.010226 -0.016359
0.273687 -0.009407 -0.008538
0.244875 -0.014747 -0.026518
0.227278 -0.011136 -0.020880
0.257771 -0.005812 -0.002610
0.253159 -0.011648 -0.020222
0.260402 -0.007938 -0.007068
0.219717 -0.008688 -0.017854
0.267790 -0.008104 -0.008127
0.273827 -0.011741 -0.016959
0.265762 -0.008398 -0.007727
0.282992 -0.009588 -0.008292
0.235210 -0.013460 -0.022469
0.259288 -0.008773 -0.008870
0.288868 -0.013150 -0.015337
0.232651 -0.007015 -0.010562
0.310500 -0.103317 -0.000019
0.315880 -0.108715 -0.004988
0.312548 -0.102371 -0.004322
0.316985 -0.095061 -0.006808
0.317768 -0.100097 -0.004876
0.314279 -0.101785 -0.007480
0.313129 -0.097868 0.003085
0.317272 -0.102235 -0.008354
0.316193 -0.103951 -0.007248
0.315626 -0.090707 -0.008168
0.314655 -0.093695 -0.005792
0.312857 -0.097846 -0.008324
0.315802 -0.101859 -0.005848
0.312124 -0.094491 -0.004278
0.314996 -0.100109 -0.007492
0.314466 -0.096264 -0.009996
0.316212 -0.105656 -0.005552
0.316693 -0.089254 -0.004063
0.311730 -0.100952 -0.008918
0.309866 -0.091996 -0.007515
0.315695 -0.101877 0.005494
0.312853 -0.107109 -0.004142
0.315244 -0.096901 -0.005297
0.307151 -0.099595 -0.004081
0.314387 -0.104974 0.001051
0.316024 -0.098305 -0.007076
0.314779 -0.100874 -0.002798
0.316908 -0.097790 0.001586
0.311227 -0.104541 -0.006229
0.313682 -0.092031 0.002737
0.315151 -0.103837 -0.002397
0.314111 -0.084613 -0.007750
-0.105018 -0.030626 -0.263638
-0.086316 -0.031888 -0.283631
-0.097453 -0.030348 -0.280016
-0.077648 -0.030173 -0.298916
-0.074907 -0.031662 -0.282397
-0.089149 -0.029241 -0.294427
-0.099448 -0.032335 -0.251862
-0.081770 -0.025733 -0.311168
-0.095684 -0.028582 -0.304136
-0.092318 -0.027093 -0.309353
-0.094444 -0.033196 -0.288912
-0.094551 -0.030344 -0.300358
-0.081262 -0.029635 -0.283428
-0.098690 -0.031021 -0.273782
-0.087896 -0.030058 -0.300980
-0.091241 -0.027662 -0.322101
-0.089232 -0.033195 -0.277985
-0.087361 -0.029594 -0.280296
-0.104905 -0.029010 -0.319156
-0.108979 -0.027610 -0.304066
-0.088991 -0.035139 -0.241118
-0.096555 -0.032238 -0.281124
-0.092045 -0.034528 -0.263532
-0.109819 -0.029393 -0.289716
-0.087799 -0.033331 -0.255208
-0.084003 -0.030716 -0.291769
-0.089194 -0.033363 -0.268377
-0.079896 -0.034794 -0.256212
-0.099319 -0.031328 -0.292629
-0.093743 -0.031329 -0.268527
-0.079440 -0.033360 -0.270283
-0.103691 -0.027459 -0.284434
0.284907 -0.040111 -0.034596
0.321319 -0.051858 -0.030405
0.292289 -0.029812 -0.031023
0.339076 -0.024381 -0.013212
0.346523 -0.036865 -0.020051
0.307938 -0.035542 -0.030295
0.305628 -0.024400 -0.027831
0.327047 -0.039474 -0.029869
0.307839 -0.044875 -0.035704
0.315397 -0.022279 -0.020461
0.306743 -0.017139 -0.017090
0.294820 -0.023554 -0.032917
0.335316 -0.032510 -0.025430
0.301100 -0.019889 -0.025456
0.326373 -0.031456 -0.027760
0.308335 -0.032052 -0.030398
0.322631 -0.041323 -0.030126
0.323745 -0.019645 -0.012072
0.297663 -0.035853 -0.035838
0.282450 -0.020456 -0.028317
0.317644 -0.036445 -0.024938
0.303880 -0.052584 -0.034430
0.319840 -0.024248 -0.022787
0.275697 -0.029182 -0.033387
0.330856 -0.047287 -0.027167
0.327053 -0.024133 -0.021162
0.323915 -0.030822 -0.026492
0.338908 -0.027602 -0.018312
0.294681 -0.046558 -0.035453
0.315298 -0.020340 -0.018361
0.341382 -0.047440 -0.023892
0.289518 -0.013914 -0.019224
0.175292 -0.049833 -0.031104
0.216509 -0.053362 -0.034059
0.181130 -0.038764 -0.032430
0.250095 -0.023770 -0.026851
0.259124 -0.037048 -0.032969
0.208727 -0.037503 -0.033965
0.202783 -0.030220 -0.031042
0.234287 -0.043282 -0.034033
0.205958 -0.046762 -0.033296
0.221059 -0.022333 -0.026815
0.206914 -0.018101 -0.022805
0.189170 -0.032545 -0.033073
0.245134 -0.037450 -0.033412
0.195290 -0.024130 -0.029795
0.229858 -0.035606 -0.033159
0.210464 -0.029114 -0.031367
0.222569 -0.046739 -0.034389
0.232176 -0.018207 -0.024484
0.197642 -0.039556 -0.032129
0.179007 -0.022838 -0.028683
0.209692 -0.042288 -0.033108
0.196606 -0.055243 -0.033367
0.220735 -0.026138 -0.030216
0.168108 -0.033623 -0.031020
0.233222 -0.053705 -0.030951
0.235815 -0.026193 -0.029644
0.220616 -0.036320 -0.033159
0.247570 -0.030697 -0.030546
0.188810 -0.048646 -0.034654
0.210464 -0.021703 -0.027889
0.251497 -0.049396 -0.033205
0.189814 -0.019998 -0.026481
0.309165 -0.030046 0.029091
0.326320 -0.034616 0.026423
0.306677 -0.025307 0.027835
0.336041 -0.021547 0.013651
0.340533 -0.026688 0.017548
0.321940 -0.025425 0.023432
0.316267 -0.025234 0.024586
0.330992 -0.026502 0.021040
0.322883 -0.030357 0.027638
0.323888 -0.017268 0.014179
0.318100 -0.017718 0.014483
0.310008 -0.021532 0.022479
0.332289 -0.026578 0.021461
0.312886 -0.020382 0.020138
0.324444 -0.022916 0.019159
0.319350 -0.018584 0.018192
0.325629 -0.028691 0.025610
0.328565 -0.017882 0.009778
0.316348 -0.021763 0.023641
0.306298 -0.017320 0.020101
0.319406 -0.029745 0.026454
0.315611 -0.032000 0.029257
0.319600 -0.022166 0.020632
0.303518 -0.021680 0.025873
0.330017 -0.030735 0.024602
0.327457 -0.021663 0.017864
0.324121 -0.024287 0.023160
0.333171 -0.023650 0.017745
0.313366 -0.027645 0.027244
0.317531 -0.019517 0.018743
0.336528 -0.032615 0.021338
0.310735 -0.014448 0.013556
0.296353 -0.016594 0.020292
0.308941 -0.015583 0.015898
0.298479 -0.014157 0.017423
0.320566 -0.014447 0.008138
0.323259 -0.015941 0.011552
0.311990 -0.013522 0.012426
0.302536 -0.017596 0.022249
0.316309 -0.013084 0.003795
0.303831 -0.011386 0.011011
0.310778 -0.010342 0.003789
0.305624 -0.012144 0.010939
0.303111 -0.010452 0.009097
0.317963 -0.015688 0.015152
0.302111 -0.014306 0.016953
0.311531 -0.012324 0.007679
0.308168 -0.009905 0.000284
0.310300 -0.016482 0.019775
0.313555 -0.014434 0.010573
0.302153 -0.009190 0.003468
0.295437 -0.009408 0.008351
0.307148 -0.021421 0.023781
0.303348 -0.016675 0.022235
0.305102 -0.015802 0.017989
0.293157 -0.011540 0.015138
0.313742 -0.018833 0.022321
0.316036 -0.013529 0.011542
0.313092 -0.016487 0.019208
0.318043 -0.018342 0.017827
0.300570 -0.012620 0.013676
0.307253 -0.013510 0.014190
0.321515 -0.019174 0.016810
0.296994 -0.010264 0.011066
0.216531 -0.008110 -0.010617
0.247060 -0.013116 -0.024999
0.222755 -0.010148 -0.018552
0.265085 -0.016391 -0.024605
0.275132 -0.013443 -0.021865
0.239645 -0.012264 -0.022178
0.230602 -0.006829 -0.006274
0.259721 -0.018471 -0.029949
0.232221 -0.016539 -0.028572
0.243093 -0.014631 -0.024525
0.232940 -0.010321 -0.017499
0.231390 -0.013689 -0.023915
0.261197 -0.011533 -0.018472
0.226169 -0.008864 -0.014124
0.254120 -0.015535 -0.027143
0.242439 -0.019090 -0.031037
0.245198 -0.011819 -0.018380
0.254403 -0.008602 -0.013285
0.228800 -0.015865 -0.027597
0.212633 -0.013274 -0.024381
0.240010 -0.006883 -0.005292
0.237591 -0.012513 -0.022579
0.239892 -0.008645 -0.010301
0.206948 -0.010403 -0.019882
0.248805 -0.008175 -0.010844
0.254098 -0.012304 -0.020895
0.248201 -0.008770 -0.010554
0.261992 -0.010396 -0.011619
0.219779 -0.014627 -0.024525
0.243191 -0.010078 -0.013419
0.268242 -0.012871 -0.019104
0.216589 -0.007622 -0.014106
0.279723 -0.008610 0.006495
0.293841 -0.008362 -0.002728
0.283855 -0.008663 -0.000790
0.307376 -0.010692 -0.008260
0.310438 -0.010023 -0.002791
0.295227 -0.009010 -0.006260
0.285833 -0.009597 0.011680
0.302744 -0.010475 -0.014628
0.284835 -0.008694 -0.010910
0.294235 -0.009034 -0.012550
0.289700 -0.008180 -0.003265
0.289295 -0.008089 -0.009150
0.304549 -0.009256 -0.000082
0.285625 -0.008442 0.004400
0.299070 -0.009781 -0.010477
0.295023 -0.009918 -0.018851
0.293874 -0.009569 0.004668
0.300409 -0.009907 0.001994
0.285966 -0.008461 -0.017265
0.277679 -0.007583 -0.010559
0.291913 -0.010953 0.013836
0.289580 -0.008672 0.001485
0.290006 -0.009418 0.007366
0.276104 -0.006811 -0.003399
0.294759 -0.009054 0.011796
0.301112 -0.009228 -0.005104
0.299440 -0.009898 0.009774
0.304926 -0.011538 0.007898
0.283108 -0.008429 -0.006098
0.295127 -0.009248 0.001771
0.308323 -0.011077 0.001662
0.278400 -0.006763 0.000821
-0.089351 -0.033196 -0.258437
-0.072242 -0.032440 -0.274407
-0.083545 -0.030951 -0.270063
-0.059759 -0.032579 -0.285794
-0.052826 -0.033547 -0.268005
-0.073394 -0.031289 -0.285731
-0.081410 -0.032367 -0.250985
-0.064751 -0.029342 -0.301193
-0.082230 -0.029899 -0.295031
-0.079941 -0.028553 -0.298621
-0.079145 -0.032898 -0.277674
-0.081463 -0.030173 -0.289180
-0.062268 -0.031892 -0.271158
-0.085170 -0.031414 -0.266653
-0.070833 -0.033087 -0.291889
-0.077589 -0.030167 -0.310420
-0.069600 -0.031920 -0.268940
-0.068681 -0.031509 -0.267627
-0.092708 -0.031630 -0.308168
-0.100055 -0.029388 -0.294038
-0.069892 -0.035953 -0.238092
-0.081941 -0.032025 -0.272673
-0.072370 -0.035293 -0.253806
-0.096776 -0.029895 -0.280831
-0.068438 -0.033465 -0.247153
-0.067142 -0.032323 -0.280722
-0.070061 -0.034767 -0.261151
-0.058040 -0.035106 -0.245624
-0.087239 -0.032054 -0.283355
-0.075217 -0.033464 -0.260376
-0.058195 -0.035350 -0.259710
-0.091458 -0.031394 -0.274863
0.333212 -0.053719 0.023607
0.353759 -0.059235 0.012963
0.334271 -0.047294 0.025612
0.368300 -0.039836 0.006993
0.374293 -0.047885 0.004719
0.348709 -0.048950 0.018579
0.340991 -0.046055 0.022060
0.364547 -0.052648 0.007384
0.353620 -0.054923 0.014856
0.353136 -0.036829 0.013190
0.346440 -0.037021 0.016496
0.340341 -0.044532 0.020281
0.361985 -0.048747 0.012162
0.337584 -0.041140 0.022134
0.356866 -0.047554 0.013201
0.353898 -0.042182 0.012340
0.351881 -0.051164 0.016671
0.357916 -0.035064 0.007750
0.344809 -0.049617 0.019626
0.333479 -0.037877 0.023556
0.343762 -0.051406 0.019581
0.340553 -0.057128 0.018145
0.348060 -0.042075 0.017233
0.329376 -0.044419 0.027148
0.354073 -0.052669 0.014587
0.355968 -0.040440 0.014080
0.350411 -0.045079 0.018248
0.362272 -0.044606 0.011113
0.339536 -0.052310 0.022652
0.341928 -0.040148 0.019607
0.366874 -0.057037 0.007099
0.337774 -0.033840 0.017459
0.251980 -0.037750 -0.036588
0.294689 -0.047808 -0.036650
0.259757 -0.029395 -0.033326
0.321126 -0.023328 -0.020112
0.332989 -0.034629 -0.027441
0.281085 -0.033150 -0.035116
0.277913 -0.023919 -0.029790
0.307241 -0.038674 -0.034748
0.280459 -0.041096 -0.039266
0.293860 -0.021183 -0.023917
0.280306 -0.016028 -0.020224
0.265975 -0.024949 -0.035386
0.316338 -0.031553 -0.030602
0.271706 -0.019914 -0.027647
0.304010 -0.031143 -0.032915
0.285564 -0.029212 -0.032495
0.297908 -0.039549 -0.035464
0.304780 -0.017096 -0.017954
0.270342 -0.034793 -0.036265
0.252589 -0.020213 -0.029180
0.289226 -0.033809 -0.031004
0.274883 -0.047836 -0.037654
0.295395 -0.023226 -0.027090
0.242956 -0.028780 -0.034230
0.308177 -0.045542 -0.033110
0.307179 -0.023508 -0.026221
0.297086 -0.030529 -0.031097
0.320564 -0.026772 -0.024602
0.264348 -0.044251 -0.038423
0.288155 -0.018718 -0.023008
0.325216 -0.044011 -0.030507
0.261787 -0.015392 -0.022695
-0.118585 -0.028451 -0.283111
-0.094155 -0.024985 -0.299136
-0.112566 -0.027737 -0.296144
-0.077458 -0.028860 -0.312539
-0.070054 -0.027335 -0.296653
-0.096356 -0.026396 -0.310348
-0.109556 -0.028876 -0.276201
-0.084009 -0.021542 -0.324736
-0.107341 -0.022380 -0.320569
-0.100850 -0.023534 -0.323471
-0.103546 -0.030117 -0.305746
-0.106349 -0.026393 -0.315166
-0.081847 -0.025690 -0.296840
-0.112638 -0.026912 -0.292283
-0.092952 -0.026717 -0.317325
-0.101088 -0.024378 -0.335484
-0.091062 -0.027889 -0.294779
-0.090645 -0.026674 -0.296427
-0.117901 -0.024312 -0.334510
-0.128669 -0.023724 -0.319642
-0.096891 -0.032900 -0.265236
-0.107702 -0.024351 -0.292656
-0.097758 -0.032927 -0.282405
-0.125388 -0.025156 -0.304610
-0.091349 -0.028696 -0.271695
-0.085066 -0.028195 -0.308177
-0.094823 -0.031085 -0.287686
-0.078824 -0.033351 -0.274093
-0.113478 -0.026861 -0.308166
-0.100877 -0.029851 -0.289898
-0.077754 -0.029181 -0.287388
-0.119149 -0.025311 -0.302882
0.314629 -0.079435 -0.006080
0.327663 -0.077729 -0.005927
0.318516 -0.078410 -0.009361
0.343062 -0.071364 -0.011334
0.348783 -0.072630 -0.007174
0.329110 -0.074672 -0.009795
0.322494 -0.078398 -0.002705
0.336654 -0.071579 -0.014661
0.322015 -0.075229 -0.011954
0.329867 -0.071306 -0.015784
0.326311 -0.076954 -0.010981
0.322315 -0.075061 -0.014208
0.339608 -0.073990 -0.007260
0.320655 -0.077708 -0.008252
0.330790 -0.073201 -0.012865
0.325509 -0.069882 -0.018575
0.331659 -0.075664 -0.006091
0.336477 -0.074292 -0.010526
0.318990 -0.072296 -0.018708
0.313394 -0.076150 -0.015613
0.327069 -0.076743 -0.000645
0.320928 -0.078684 -0.003267
0.326223 -0.077523 -0.006079
0.309771 -0.078770 -0.010781
0.333783 -0.075150 -0.000758
0.335683 -0.074052 -0.010538
0.332083 -0.075435 -0.005061
0.339238 -0.074351 -0.002813
0.317336 -0.077521 -0.011287
0.325191 -0.076851 -0.009059
0.342577 -0.075170 -0.004635
0.317486 -0.075694 -0.014194
0.275022 -0.073404 -0.024744
0.305557 -0.074316 -0.015564
0.279852 -0.070420 -0.028292
0.339095 -0.052493 -0.029410
0.344718 -0.061551 -0.021416
0.307870 -0.064983 -0.027390
0.297730 -0.068085 -0.028503
0.321088 -0.061384 -0.028316
0.296059 -0.069626 -0.025207
0.316385 -0.049590 -0.035429
0.304755 -0.051266 -0.036588
0.286493 -0.063300 -0.035609
0.329742 -0.065415 -0.023614
0.293130 -0.057383 -0.034909
0.315806 -0.058834 -0.031470
0.299044 -0.053883 -0.038603
0.316760 -0.070706 -0.021088
0.326345 -0.048002 -0.035944
0.290536 -0.062104 -0.037881
0.276628 -0.057589 -0.040372
0.304648 -0.073420 -0.022218
0.289536 -0.076698 -0.017138
0.310176 -0.062243 -0.032024
0.267705 -0.068413 -0.032691
0.323800 -0.071755 -0.015947
0.327469 -0.057188 -0.028888
0.318200 -0.066339 -0.024753
0.335482 -0.062434 -0.027881
0.285041 -0.069447 -0.028414
0.306756 -0.056062 -0.032134
0.335053 -0.069377 -0.019520
0.288284 -0.049226 -0.040258
0.346415 -0.063008 0.012494
0.363944 -0.065753 -0.003847
0.357208 -0.057295 0.013865
0.388613 -0.044813 -0.004036
0.390721 -0.051085 -0.005309
0.366800 -0.057666 0.000065
0.354267 -0.052104 0.014551
0.380702 -0.058791 -0.015295
0.366007 -0.064531 -0.011749
0.373656 -0.045036 -0.007976
0.368330 -0.046312 0.006396
0.364333 -0.052515 -0.000677
0.377866 -0.056500 -0.001911
0.352320 -0.046923 0.017017
0.376854 -0.054465 -0.007682
0.372798 -0.050799 -0.016544
0.362814 -0.058981 0.007364
0.380567 -0.041391 0.000973
0.360467 -0.060808 -0.010691
0.357846 -0.044673 0.002740
0.353803 -0.057229 0.011092
0.351739 -0.068052 0.000538
0.367137 -0.049502 0.009763
0.345415 -0.056886 0.013693
0.358498 -0.059259 0.004633
0.376108 -0.045772 0.003297
0.364959 -0.052269 0.010346
0.375523 -0.050527 0.002682
0.353193 -0.064167 0.002586
0.361143 -0.043801 0.014453
0.378436 -0.060521 -0.003695
0.359799 -0.040044 0.008794
-0.110714 -0.028069 -0.283456
-0.089553 -0.027604 -0.301084
-0.104290 -0.027132 -0.295861
-0.077276 -0.028309 -0.312228
-0.070702 -0.029112 -0.295781
-0.093269 -0.026841 -0.309534
-0.102952 -0.028570 -0.274398
-0.082169 -0.022988 -0.324351
-0.101251 -0.024758 -0.319726
-0.097385 -0.023978 -0.323125
-0.099347 -0.030547 -0.304514
-0.099975 -0.027043 -0.314692
-0.081829 -0.026885 -0.297583
-0.104986 -0.027508 -0.292060
-0.090845 -0.028031 -0.316354
-0.096136 -0.025773 -0.335352
-0.090205 -0.028910 -0.295197
-0.088844 -0.025308 -0.295534
-0.112401 -0.026981 -0.333251
-0.119606 -0.024872 -0.318880
-0.090442 -0.032608 -0.264343
-0.101784 -0.026756 -0.296194
-0.094080 -0.032582 -0.281716
-0.117062 -0.026037 -0.306051
-0.088728 -0.028836 -0.273727
-0.085257 -0.028405 -0.306643
-0.090960 -0.031195 -0.286432
-0.078023 -0.032306 -0.273781
-0.106481 -0.028939 -0.308327
-0.095688 -0.029367 -0.286896
-0.078364 -0.030713 -0.287417
-0.110884 -0.024427 -0.301940
0.331819 -0.075104 0.001517
0.344370 -0.072563 0.000093
0.339046 -0.073628 -0.003612
0.372167 -0.059061 -0.006811
0.376836 -0.059318 0.000620
0.350356 -0.068226 -0.004754
0.341251 -0.071559 0.006157
0.358960 -0.063658 -0.011827
0.338252 -0.070988 -0.009403
0.355046 -0.062183 -0.014174
0.350358 -0.070403 -0.006261
0.344040 -0.070845 -0.009889
0.363092 -0.065240 -0.000730
0.341710 -0.070971 0.000497
0.354130 -0.065288 -0.009121
0.346389 -0.063151 -0.016917
0.351795 -0.069450 0.001098
0.368909 -0.059005 -0.003976
0.335412 -0.069342 -0.016368
0.334378 -0.073205 -0.014003
0.348309 -0.066402 0.006880
0.333539 -0.077382 0.000334
0.352778 -0.068694 0.000136
0.327377 -0.076554 -0.005231
0.349021 -0.067249 0.004617
0.360815 -0.064295 -0.005678
0.351413 -0.067667 0.004564
0.364603 -0.062986 0.007545
0.333271 -0.074666 -0.008014
0.349112 -0.068907 0.000983
0.363498 -0.064886 0.004355
0.344583 -0.064789 -0.009296
0.302796 -0.009721 0.001017
0.322843 -0.013981 -0.011178
0.306528 -0.011374 -0.007538
0.335367 -0.018962 -0.015952
0.339091 -0.017649 -0.009956
0.318583 -0.014233 -0.014985
0.309475 -0.011193 0.007609
0.329939 -0.019523 -0.022967
0.310023 -0.014513 -0.019224
0.317092 -0.015322 -0.019477
0.313399 -0.012527 -0.010162
0.311062 -0.012662 -0.016468
0.329966 -0.014708 -0.006640
0.309279 -0.010949 -0.002231
0.324664 -0.017088 -0.018792
0.318991 -0.018178 -0.027566
0.319029 -0.013846 -0.002189
0.326427 -0.014693 -0.003242
0.306360 -0.014118 -0.026019
0.299543 -0.011400 -0.019302
0.315989 -0.013080 0.009533
0.316253 -0.013437 -0.008232
0.314232 -0.012557 0.003094
0.297905 -0.009196 -0.011241
0.320765 -0.011511 0.008079
0.326705 -0.014799 -0.011887
0.324455 -0.014024 0.004740
0.331137 -0.016990 0.002834
0.305405 -0.012650 -0.013588
0.317574 -0.013158 -0.003306
0.334887 -0.018069 -0.005047
0.300423 -0.008598 -0.005032
-0.069581 -0.038372 -0.230332
-0.058732 -0.033010 -0.246529
-0.064455 -0.034811 -0.242532
-0.041100 -0.037419 -0.256364
-0.029523 -0.036937 -0.235950
-0.058274 -0.035993 -0.259323
-0.062781 -0.036728 -0.222224
-0.047373 -0.032671 -0.275970
-0.067739 -0.033872 -0.270423
-0.067494 -0.033274 -0.274201
-0.061374 -0.035749 -0.248545
-0.063973 -0.034410 -0.259888
-0.043906 -0.036545 -0.241007
-0.067071 -0.036067 -0.241387
-0.053756 -0.036802 -0.265922
-0.061985 -0.034550 -0.285736
-0.052257 -0.034034 -0.240999
-0.049292 -0.036375 -0.237219
-0.078137 -0.035508 -0.284838
-0.083617 -0.033220 -0.269295
-0.050714 -0.040133 -0.208279
-0.066915 -0.033778 -0.246129
-0.051745 -0.039266 -0.223390
-0.079979 -0.034603 -0.254952
-0.050803 -0.037534 -0.214312
-0.050999 -0.035807 -0.252652
-0.052708 -0.039133 -0.235070
-0.039383 -0.039385 -0.209902
-0.071326 -0.035447 -0.256586
-0.056404 -0.038063 -0.231746
-0.037828 -0.037672 -0.226564
-0.073789 -0.037634 -0.248337
-0.090060 -0.031454 -0.271386
-0.074845 -0.029717 -0.287553
-0.085900 -0.028754 -0.282368
-0.059324 -0.032053 -0.296835
-0.048361 -0.032823 -0.277152
-0.076156 -0.030089 -0.297948
-0.082742 -0.031276 -0.263842
-0.065065 -0.027175 -0.311487
-0.085820 -0.027742 -0.307282
-0.084550 -0.027093 -0.311735
-0.082883 -0.032057 -0.290378
-0.083971 -0.028424 -0.300872
-0.062509 -0.029959 -0.282195
-0.087603 -0.029953 -0.280813
-0.073619 -0.031871 -0.304108
-0.082699 -0.029112 -0.322096
-0.071865 -0.029496 -0.281752
-0.069816 -0.029432 -0.279332
-0.098905 -0.031162 -0.320967
-0.106340 -0.028004 -0.307466
-0.068951 -0.034862 -0.249388
-0.085200 -0.028252 -0.285472
-0.073401 -0.034673 -0.265194
-0.099949 -0.029206 -0.295318
-0.068155 -0.030275 -0.257508
-0.068707 -0.030873 -0.292520
-0.071235 -0.034229 -0.274124
-0.056116 -0.034301 -0.254628
-0.090742 -0.030791 -0.296315
-0.075604 -0.032611 -0.271721
-0.057805 -0.033244 -0.270436
-0.094629 -0.029847 -0.289465
0.323572 -0.015939 0.011027
0.347686 -0.022706 -0.002010
0.329273 -0.014755 0.003061
0.355765 -0.027119 -0.009903
0.361941 -0.027848 -0.005702
0.338582 -0.019382 -0.008040
0.327102 -0.018975 0.016281
0.353175 -0.025292 -0.018564
0.336879 -0.016302 -0.011374
