-0.069819 -0.044055 0.280362
-0.047972 -0.040928 0.237843
-0.036050 -0.045758 0.215183
-0.283882 -0.037302 0.030167
-0.009463 -0.058562 0.197822
-0.246043 -0.037153 0.027144
-0.301600 -0.040086 -0.018336
-0.275618 -0.038333 -0.007044
-0.019333 -0.056442 0.177134
-0.301876 0.036393 -0.001647
-0.250829 -0.044395 -0.001010
-0.224335 -0.062448 0.002931
0.001527 -0.044256 0.182039
-0.280246 0.021674 -0.003617
-0.229363 -0.028548 0.011693
-0.019009 -0.034609 0.165405
-0.247650 -0.017631 -0.000651
-0.036286 -0.050042 0.142232
-0.176768 -0.058999 0.022937
-0.188789 -0.056193 0.015403
-0.262401 -0.024236 -0.029665
0.000656 -0.059955 0.148295
-0.199921 -0.062044 -0.006066
-0.238759 -0.036545 -0.028312
-0.210232 -0.019815 -0.002229
-0.010495 -0.053012 0.129623
0.004480 -0.054822 0.139606
-0.151888 -0.068862 0.008638
-0.114003 -0.055429 0.043669
-0.289056 -0.015701 -0.073718
-0.172159 -0.075531 -0.010281
-0.167254 -0.016174 0.016719
-0.206587 -0.032663 -0.024034
-0.189536 -0.061200 -0.024433
-0.151357 -0.024060 0.021878
-0.180300 -0.011431 0.003906
0.015201 -0.057234 0.130743
-0.119794 -0.052181 0.027797
-0.135017 -0.080170 -0.000337
0.042177 -0.070366 0.135996
-0.096888 -0.047075 0.040738
-0.171276 -0.006978 0.002535
-0.010836 -0.044022 0.103252
-0.172340 -0.048518 -0.022000
-0.012428 -0.054458 0.095774
-0.198520 -0.000825 -0.023134
-0.018181 -0.048829 0.089445
-0.076986 -0.056456 0.040398
-0.011947 -0.073185 0.080581
0.038981 -0.066138 0.121481
-0.144245 -0.056986 -0.012869
-0.092667 -0.078464 0.015276
-0.123600 -0.076876 -0.009148
-0.106636 -0.078584 0.002310
-0.010144 -0.080910 0.073685
0.019888 -0.055144 0.107515
0.004592 -0.053420 0.096548
0.019254 -0.065547 0.099205
-0.087986 -0.053666 0.021927
-0.053049 -0.070196 0.037188
0.007001 -0.059931 0.086095
-0.079928 -0.071188 0.012966
-0.029121 -0.056272 0.055030
0.037580 -0.055903 0.103607
0.042160 -0.057329 0.103456
-0.099272 -0.078073 -0.013696
-0.158306 -0.038180 -0.041589
-0.011980 -0.071482 0.052756
-0.125798 -0.035255 -0.023361
0.020638 -0.062369 0.073337
-0.071367 -0.080465 -0.005228
-0.052166 -0.073397 0.011408
-0.047133 -0.039938 0.022221
-0.064580 -0.086203 -0.016148
-0.118618 -0.009944 -0.022498
0.010244 -0.063050 0.051070
-0.004866 -0.091738 0.025050
0.024210 -0.071358 0.054127
0.036699 -0.058824 0.067815
-0.085958 -0.060710 -0.026728
0.002368 -0.050034 0.042497
-0.029087 -0.077831 0.004609
-0.105184 -0.037067 -0.035223
0.042032 -0.073053 0.059404
-0.011887 -0.054370 0.027267
-0.105413 -0.032445 -0.034298
-0.052507 -0.019168 0.011002
-0.016170 -0.076959 0.007011
0.001991 -0.071177 0.021994
0.012438 -0.055529 0.037119
0.028164 -0.048640 0.050321
0.051331 -0.041463 0.069692
-0.037935 -0.083735 -0.019419
0.017141 -0.072836 0.024872
0.038087 -0.055657 0.045575
0.003200 -0.048796 0.021633
0.035510 -0.058285 0.040844
-0.060342 -0.024089 -0.019209
-0.057874 -0.054461 -0.031427
-0.005963 -0.084073 -0.008552
-0.004340 -0.084339 -0.011211
-0.075514 -0.037292 -0.044319
0.014584 -0.033779 0.023497
-0.037532 -0.053514 -0.027483
0.003714 -0.022938 0.015216
-0.004621 -0.014884 0.009589
0.042997 -0.076183 0.012975
-0.032315 -0.041917 -0.029632
-0.021374 -0.068914 -0.037045
0.019381 -0.040003 0.002393
-0.011407 -0.011203 -0.007803
-0.025729 -0.070815 -0.047614
0.031617 -0.089504 -0.014774
-0.010780 -0.060035 -0.034999
-0.020190 -0.026552 -0.029071
-0.041436 -0.041727 -0.055034
-0.024222 -0.048493 -0.045326
0.039354 -0.089256 -0.017060
-0.019825 -0.038323 -0.038989
0.031877 -0.051785 -0.007899
0.082046 -0.038903 0.035054
-0.016567 -0.047177 -0.047075
0.084218 -0.065524 0.019769
0.028331 -0.056174 -0.018219
0.014843 -0.032171 -0.022542
0.028283 -0.061749 -0.028126
0.017985 -0.003466 -0.009519
0.060867 -0.036047 0.007369
0.008319 -0.060683 -0.046691
-0.013905 -0.051604 -0.059064
-0.046782 -0.060359 -0.092507
0.082684 -0.032928 0.018298
-0.009193 -0.028838 -0.048387
0.028367 -0.007023 -0.011366
0.029849 -0.027233 -0.021465
-0.009620 -0.062063 -0.066891
0.019296 -0.047538 -0.040231
0.044288 -0.074634 -0.038836
0.020420 -0.047038 -0.044633
0.085225 -0.085743 -0.016662
0.021718 -0.036361 -0.043282
0.115576 -0.051512 0.019634
0.088622 -0.086508 -0.017023
-0.007893 -0.052786 -0.076428
-0.012625 -0.045427 -0.076953
-0.007577 -0.052735 -0.078821
0.017980 -0.056135 -0.060990
-0.000183 -0.063943 -0.080171
0.125825 -0.084412 0.002628
0.127747 -0.056666 0.015673
0.101402 -0.009052 0.018396
0.054454 -0.060846 -0.043505
0.049740 -0.056810 -0.047780
0.062974 -0.068812 -0.046999
-0.015891 -0.048525 -0.096509
0.143554 -0.078720 0.007119
0.070365 -0.021094 -0.019992
0.079366 -0.076562 -0.039145
0.013930 -0.044573 -0.074288
-0.000909 -0.052097 -0.089223
0.029886 -0.053083 -0.066935
0.160394 -0.057116 0.028765
0.079535 -0.056382 -0.036487
0.110118 -0.070068 -0.020600
0.094640 -0.073181 -0.034030
0.123219 -0.083318 -0.020851
0.072551 -0.038657 -0.038952
-0.004894 -0.061613 -0.108548
0.032251 -0.051159 -0.076506
0.094351 -0.027977 -0.020961
0.071053 -0.061474 -0.063086
-0.035964 -0.036556 -0.135240
0.095479 -0.044103 -0.039173
0.195973 -0.054681 0.030060
0.018385 -0.046930 -0.099435
0.019648 -0.069305 -0.110090
0.034357 -0.025753 -0.081003
0.004461 -0.072669 -0.126353
0.038896 -0.035757 -0.083651
0.053729 -0.068035 -0.087467
0.012401 -0.046814 -0.109213
-0.007715 -0.032758 -0.118849
0.027978 -0.038550 -0.097243
0.146576 -0.044715 -0.013826
-0.005525 -0.054436 -0.132710
-0.042235 -0.043076 -0.157543
0.028687 -0.038957 -0.102025
0.001322 -0.059031 -0.132909
-0.011044 -0.028009 -0.129008
0.189176 -0.069229 -0.001261
0.013224 -0.047659 -0.123631
0.155365 -0.076667 -0.032163
-0.001209 -0.036801 -0.132080
-0.031583 -0.029941 -0.153202
0.015438 -0.045349 -0.125149
0.137031 -0.004631 -0.018065
0.001443 -0.046815 -0.140547
0.019444 -0.029847 -0.119278
0.003306 -0.065021 -0.148372
0.005339 -0.056160 -0.142762
0.007123 -0.043811 -0.136635
-0.037661 -0.050077 -0.174278
0.145116 -0.026454 -0.028558
0.028745 -0.038519 -0.122948
0.004551 -0.015567 -0.133111
0.012497 -0.051499 -0.145684
0.005426 -0.032791 -0.143377
0.064425 -0.035163 -0.100724
0.012238 -0.051226 -0.150210
0.045417 -0.050598 -0.126491
-0.037672 -0.044728 -0.187069
0.099807 -0.049909 -0.086713
0.050889 -0.067450 -0.132210
0.006763 -0.051989 -0.158955
0.017963 -0.066464 -0.159332
0.034910 -0.057771 -0.142639
-0.017425 -0.050072 -0.178823
0.073146 -0.040845 -0.106660
0.015104 -0.033733 -0.147384
-0.014361 -0.036793 -0.171858
-0.032850 -0.031603 -0.184943
0.019900 -0.043184 -0.151158
0.197521 -0.004084 -0.000727
0.230106 -0.089277 -0.016419
0.165645 0.007366 -0.023084
-0.048203 -0.042000 -0.208407
-0.022942 -0.046168 -0.196223
-0.027984 -0.041560 -0.198477
-0.048087 -0.025957 -0.208726
0.010107 -0.061807 -0.182763
0.157322 -0.000010 -0.046897
-0.020772 -0.032081 -0.197532
0.252899 -0.063460 -0.008387
-0.027282 -0.045869 -0.214465
0.267918 -0.042571 0.005856
0.005291 -0.058226 -0.197924
0.275984 -0.057038 0.003828
-0.033734 -0.043396 -0.222574
-0.046325 -0.039720 -0.231200
-0.015610 -0.041120 -0.209561
-0.021350 -0.048674 -0.218559
-0.055145 -0.049810 -0.247810
-0.011223 -0.039305 -0.213414
-0.021880 -0.041100 -0.223568
-0.030391 -0.037473 -0.232691
0.288022 -0.048251 -0.004194
0.243857 -0.031382 -0.029688
0.252150 -0.023952 -0.020175
-0.068723 -0.016374 -0.258366
0.275830 -0.043007 -0.013750
0.208419 -0.028333 -0.056694
0.236738 -0.002492 -0.030336
-0.032623 -0.033900 -0.248488
0.258749 -0.031197 -0.030138
-0.060618 -0.034850 -0.274227
0.304802 -0.068260 -0.018317
-0.058121 -0.021822 -0.270357
0.000793 -0.045421 -0.242346
-0.021227 -0.035158 -0.255693
0.265236 0.025682 -0.014092
