-0.377439 -0.070939 0.127444
-0.316041 -0.111107 0.143667
-0.325448 -0.072701 0.146495
-0.282728 -0.141914 0.140813
-0.314200 -0.028703 0.157464
-0.353641 -0.014359 0.129082
-0.269971 -0.090091 0.147293
-0.394791 -0.045712 0.067674
-0.324444 -0.084201 0.098529
-0.247886 -0.132333 0.131573
-0.370731 -0.074678 0.060591
-0.267738 -0.064210 0.137425
-0.367732 -0.018688 0.072166
-0.293202 0.011941 0.132773
-0.231869 -0.087755 0.134514
-0.248222 -0.037008 0.144522
-0.398263 -0.031266 0.028495
-0.263501 -0.012007 0.140500
-0.399204 -0.071850 0.001179
-0.292905 -0.029830 0.101082
-0.189728 -0.064010 0.149065
-0.265226 -0.063914 0.089117
-0.225129 -0.007414 0.140241
-0.204535 -0.009933 0.150275
-0.297843 -0.077495 0.034922
-0.190796 -0.098490 0.106253
-0.308280 0.037185 0.067685
-0.226268 -0.085292 0.075320
-0.342213 -0.071690 -0.014230
-0.395822 -0.065711 -0.054254
-0.379231 -0.020742 -0.020990
-0.241460 0.016632 0.102599
-0.358824 0.012509 0.007201
-0.195489 -0.053144 0.086634
-0.196223 -0.021516 0.100666
-0.239271 -0.022810 0.066687
-0.126997 -0.070159 0.129959
-0.132075 -0.019585 0.146082
-0.162371 0.042370 0.147799
-0.390390 -0.039471 -0.074355
-0.346100 -0.093838 -0.077579
-0.087742 -0.058441 0.137467
-0.249278 -0.082912 -0.005062
-0.377020 -0.003449 -0.071751
-0.387831 -0.067221 -0.111393
-0.282308 0.022669 0.000351
-0.286504 -0.069204 -0.050935
-0.038600 -0.045378 0.146701
-0.159724 -0.065971 0.034246
-0.081304 -0.019934 0.115111
-0.084656 0.038253 0.137817
-0.101443 -0.067963 0.070916
-0.201378 -0.085793 -0.022955
-0.353192 0.004632 -0.102836
-0.311864 -0.077882 -0.112466
-0.362371 -0.049999 -0.139195
-0.059735 -0.075344 0.082503
-0.127443 0.085754 0.103950
-0.033484 0.038907 0.149104
-0.336202 -0.081119 -0.147021
-0.296879 -0.037532 -0.095982
-0.213954 0.044872 0.006605
-0.231371 -0.080465 -0.066664
0.000928 -0.069374 0.114700
-0.288560 0.019491 -0.067261
-0.297047 -0.116726 -0.141909
0.016103 -0.005886 0.149473
-0.089945 -0.081937 0.031284
-0.255576 -0.085724 -0.102420
-0.118101 0.026016 0.055369
-0.165411 0.065918 0.035204
0.051859 -0.056278 0.132716
-0.017909 -0.028727 0.092853
-0.240546 -0.140266 -0.131456
-0.261038 -0.118177 -0.146823
-0.270641 -0.020101 -0.108708
-0.146010 -0.017342 -0.012374
-0.295358 -0.074531 -0.156231
0.019942 0.032769 0.135741
-0.129669 -0.063335 -0.027085
-0.208678 -0.020254 -0.068597
-0.313908 0.007299 -0.139363
-0.312985 -0.022876 -0.153289
-0.025299 0.078826 0.108559
-0.170987 -0.062060 -0.071260
-0.247524 0.014228 -0.097636
-0.037147 -0.085826 0.017281
0.048422 0.001095 0.119365
-0.243330 -0.014145 -0.110020
0.042767 -0.068039 0.082543
0.007489 -0.074380 0.053453
-0.213235 -0.080583 -0.121912
-0.255729 -0.045215 -0.139604
0.110215 -0.026666 0.144276
-0.058611 -0.004728 0.027444
0.059993 0.063798 0.146452
-0.189053 -0.110757 -0.131511
-0.075742 -0.053935 -0.018281
-0.268487 0.006524 -0.145288
0.120817 -0.069377 0.114126
0.118911 0.020713 0.151335
-0.143525 -0.096463 -0.101753
-0.231436 -0.013355 -0.131517
-0.238418 -0.045625 -0.153662
-0.013770 -0.024077 0.028308
-0.244798 0.041603 -0.123039
-0.171827 -0.025677 -0.097902
-0.069484 -0.066922 -0.039516
0.168023 -0.070861 0.133749
-0.070816 0.121130 0.042294
0.159889 -0.026108 0.144901
-0.202633 -0.056684 -0.151785
0.214727 -0.115474 0.132865
0.102559 -0.072720 0.068415
-0.169562 0.051356 -0.085925
0.009980 -0.074064 -0.007870
-0.090129 -0.043742 -0.075761
-0.208382 -0.010447 -0.153402
0.230438 -0.143805 0.113919
-0.117604 0.044989 -0.058840
0.191812 -0.082913 0.113080
0.078963 0.104325 0.114582
-0.114793 0.107632 -0.028737
0.070922 -0.079009 0.023044
0.145805 -0.050668 0.086551
0.175182 -0.094438 0.087567
0.146808 0.060412 0.136784
0.210517 -0.032062 0.140660
-0.152239 -0.056491 -0.147812
0.014765 0.121715 0.062212
-0.011452 -0.033024 -0.033865
0.183047 -0.018500 0.111844
-0.066008 -0.062254 -0.098501
0.236991 -0.051102 0.127982
0.189131 0.002660 0.115965
-0.003426 -0.078344 -0.063421
0.118476 -0.065537 0.032210
-0.167688 -0.017320 -0.162578
0.219399 0.030670 0.147313
0.047002 0.066497 0.035977
-0.176853 0.039141 -0.149244
0.060417 -0.068541 -0.019241
0.269744 -0.081173 0.125745
0.247661 -0.029056 0.128085
-0.099229 -0.033873 -0.132688
-0.093841 -0.055641 -0.144870
-0.129718 0.054199 -0.124109
0.122092 -0.003448 0.036929
-0.001549 -0.064233 -0.083641
-0.086766 0.002924 -0.120819
-0.135248 0.021195 -0.153518
0.214749 -0.068197 0.065686
0.267295 -0.060929 0.090013
-0.046734 -0.050913 -0.139639
0.240299 -0.013863 0.091263
0.104921 -0.013811 -0.010963
0.306733 -0.079621 0.100072
0.183242 -0.073234 0.013688
0.226375 0.059366 0.101160
-0.093972 0.043848 -0.149529
0.115967 -0.065017 -0.041233
0.157050 0.103791 0.065571
0.063542 -0.067052 -0.082084
0.317576 -0.038811 0.114925
0.297949 0.037609 0.133724
-0.010469 -0.056990 -0.139854
0.040489 0.139009 -0.012863
-0.025004 0.133958 -0.065726
0.255610 -0.088205 0.034350
-0.053911 -0.003602 -0.161237
0.025325 -0.058066 -0.126412
0.284562 -0.021787 0.080849
0.231238 0.027228 0.061643
0.050752 0.020594 -0.076216
-0.036181 0.045618 -0.134734
-0.057114 0.094448 -0.132577
-0.044338 0.082674 -0.130969
0.119472 -0.098759 -0.094798
0.165472 0.044391 0.004715
0.219071 -0.070661 -0.013126
0.360952 -0.042650 0.101279
0.163890 -0.066042 -0.051867
0.316192 -0.060456 0.047027
0.034664 -0.023221 -0.147416
0.045948 -0.027405 -0.142759
0.011061 0.024797 -0.147199
0.085754 -0.068313 -0.137495
0.039022 0.005773 -0.146266
0.152395 -0.080600 -0.102946
0.039967 0.091706 -0.111121
0.184973 -0.131198 -0.115485
0.050233 0.038822 -0.145680
0.092662 0.129466 -0.073122
0.120905 -0.003236 -0.115821
0.369781 0.025433 0.073894
0.191543 0.033424 -0.050912
0.100230 -0.036420 -0.153484
0.301492 -0.054766 -0.013991
0.262239 0.082432 0.013107
0.267217 -0.065687 -0.054555
0.090880 0.115749 -0.100708
0.144093 -0.027643 -0.131085
0.388786 -0.020799 0.042017
0.159351 -0.071298 -0.148725
0.228187 -0.052071 -0.088275
0.272662 0.049368 -0.012934
0.099836 0.006188 -0.160632
0.374276 -0.051848 0.011767
0.220660 0.043378 -0.056983
0.174756 0.009116 -0.109305
0.157915 0.114905 -0.078548
0.090495 0.083401 -0.147134
0.351308 0.058926 0.030118
0.170076 -0.038126 -0.150576
0.160317 0.070993 -0.108210
0.258153 -0.039988 -0.088699
0.104957 0.078216 -0.149067
0.238251 -0.107365 -0.138883
0.201670 -0.074748 -0.151049
0.158054 -0.001241 -0.148120
0.137387 0.061857 -0.136256
0.207867 -0.004230 -0.115839
0.187796 -0.007812 -0.134810
0.153382 -0.003900 -0.158664
0.166501 0.007663 -0.142867
0.205152 -0.059863 -0.147630
0.391331 0.028825 0.026295
0.193499 -0.012632 -0.139342
0.227932 -0.025970 -0.120808
0.299482 -0.086093 -0.097710
0.234459 0.079778 -0.067224
0.230383 0.033370 -0.092718
0.244972 0.006683 -0.102872
0.338732 -0.062262 -0.070853
0.181848 -0.009945 -0.160815
0.268591 -0.095452 -0.139471
0.222617 -0.038942 -0.151393
0.224150 -0.023623 -0.145140
0.387685 0.006001 -0.014427
0.376556 -0.046080 -0.046778
0.245207 -0.064105 -0.153200
0.263834 -0.050751 -0.142205
0.256593 -0.011273 -0.129854
0.215726 0.036891 -0.149181
0.272031 0.005496 -0.125060
0.252338 -0.020146 -0.156686
0.284201 -0.016208 -0.138126
0.362608 0.070103 -0.044469
0.382725 -0.012542 -0.082361
0.308813 -0.032928 -0.145574
0.388608 0.020494 -0.065413
0.355525 -0.026728 -0.113715
0.297457 0.011460 -0.149390
0.299046 0.021280 -0.146872
0.338403 0.033090 -0.136471
0.339644 0.013955 -0.147504
