-0.357725 -0.099624 0.180335
-0.435647 -0.049023 0.140563
-0.321222 -0.142504 0.177137
-0.375230 -0.055932 0.173681
-0.423561 -0.025582 0.140549
-0.332397 -0.099025 0.177111
-0.340788 -0.063845 0.180315
-0.399662 -0.043857 0.140522
-0.292300 -0.140958 0.178814
-0.321471 -0.117332 0.163871
-0.354514 -0.037843 0.171250
-0.310096 -0.080814 0.177204
-0.387847 -0.020697 0.140506
-0.324039 -0.041598 0.180297
-0.282870 -0.101730 0.177094
-0.334402 -0.107158 0.128474
-0.326284 -0.055659 0.158229
-0.334039 -0.024480 0.162310
-0.285155 -0.139456 0.147488
-0.291092 -0.049804 0.180257
-0.358689 -0.015949 0.140471
-0.320188 -0.074356 0.138704
-0.264182 -0.070812 0.180225
-0.296725 -0.142856 0.119068
-0.257920 -0.115098 0.161249
-0.266516 -0.126411 0.136412
-0.253552 -0.040827 0.173540
-0.240597 -0.070796 0.169792
-0.330799 -0.011407 0.125932
-0.283451 -0.019782 0.156403
-0.249844 -0.085108 0.150967
-0.301955 -0.015660 0.140407
-0.243121 -0.050271 0.145760
-0.253304 -0.105721 0.110651
-0.258030 -0.024258 0.140351
-0.210087 -0.067281 0.140296
-0.290479 -0.011482 0.098272
-0.225898 -0.015273 0.140315
-0.194442 -0.032385 0.140276
-0.163637 -0.070507 0.140241
-0.302794 -0.085055 0.020367
-0.318088 -0.101472 -0.000607
-0.148474 -0.048887 0.140223
-0.133466 -0.069782 0.140206
-0.249628 -0.011557 0.070247
-0.153511 -0.019163 0.140229
-0.140163 -0.071319 0.114190
-0.082679 -0.084460 0.151180
-0.169532 0.019393 0.131553
-0.113165 -0.052463 0.141024
-0.161804 -0.069169 0.080324
-0.133466 0.019032 0.140206
-0.053463 -0.083491 0.152627
-0.169632 0.071118 0.131405
-0.087219 -0.039431 0.143681
-0.096257 -0.010401 0.144692
-0.144432 -0.010875 0.107510
-0.139609 0.061536 0.138441
-0.357131 -0.098961 -0.107450
-0.191212 -0.067467 0.034303
-0.169707 0.109922 0.131294
-0.338017 -0.119732 -0.107472
-0.029118 -0.087230 0.146385
-0.058602 -0.039033 0.143724
-0.144360 0.028272 0.107623
-0.319944 -0.140428 -0.108756
-0.169766 0.140108 0.131208
-0.062800 -0.010280 0.144629
-0.036993 -0.059269 0.140509
-0.106320 0.048326 0.136280
-0.143790 0.058669 0.108515
-0.211005 -0.054982 0.003329
-0.132169 0.087548 0.126701
-0.075033 0.022796 0.139990
0.010099 -0.085624 0.151846
-0.025563 -0.030437 0.144460
-0.340724 -0.094472 -0.130266
-0.034884 -0.002036 0.144316
-0.297448 -0.118767 -0.112558
-0.323653 -0.115747 -0.133406
-0.003600 -0.050394 0.142786
-0.079670 0.052207 0.132147
0.041539 -0.084564 0.152925
-0.248343 -0.052739 -0.055103
-0.139796 0.102730 0.098707
-0.036802 0.030646 0.140854
-0.095155 0.090949 0.122469
-0.114247 0.109155 0.115437
0.006498 -0.026067 0.144837
0.023081 -0.053925 0.142227
-0.276966 -0.135193 -0.129107
-0.051598 0.051735 0.131162
-0.128302 0.131818 0.108938
-0.269603 -0.096605 -0.107554
-0.259999 -0.038237 -0.073344
-0.300651 -0.143770 -0.156888
0.070099 -0.087820 0.149320
-0.328943 -0.112999 -0.171111
0.033243 -0.025812 0.144868
-0.296070 -0.093858 -0.139641
0.014872 0.006003 0.143661
-0.004941 0.034355 0.140220
0.057872 -0.057220 0.141434
-0.283359 -0.023623 -0.109900
-0.058196 0.098370 0.119451
-0.087203 0.129778 0.111103
0.100964 -0.086597 0.152232
-0.020010 0.059443 0.129044
-0.256842 -0.113864 -0.136491
0.063793 -0.025522 0.144904
-0.134979 0.136431 0.064794
0.087574 -0.060535 0.140621
0.019489 0.046263 0.134987
-0.273728 -0.133365 -0.174810
0.044668 0.025781 0.141189
-0.015173 0.092686 0.120641
0.084837 -0.001949 0.144103
-0.250416 -0.093646 -0.156629
0.106424 -0.025109 0.145342
0.127855 -0.075258 0.136666
0.157715 -0.088586 0.151088
-0.036548 0.132136 0.106843
0.023511 0.074912 0.124900
-0.010506 0.126304 0.111736
0.061819 0.049672 0.131040
0.010845 0.104329 0.117561
0.142983 -0.036231 0.144022
0.095748 0.033114 0.139920
0.152531 0.067584 0.189785
0.125976 0.013453 0.142391
0.199359 -0.091259 0.146100
0.181461 -0.066015 0.139445
0.061596 0.090152 0.120847
0.090272 0.065096 0.126994
0.030021 0.128727 0.110312
0.167431 0.046311 0.166855
0.194811 -0.035510 0.144099
0.247301 -0.123064 0.140296
0.174812 0.005655 0.143172
0.169455 0.082892 0.172435
0.143542 0.044193 0.134683
0.227172 -0.053282 0.149118
0.065971 0.122982 0.110921
0.218970 -0.100037 0.121535
0.240272 -0.086433 0.142101
0.273776 -0.132469 0.142057
0.094593 0.105242 0.116860
0.176286 0.043598 0.135920
0.120944 0.096191 0.118987
0.233827 -0.023887 0.145982
0.302731 -0.138156 0.141616
0.213752 0.009287 0.142675
0.223544 -0.074171 0.110510
0.265077 -0.109313 0.122226
0.156345 0.071319 0.125055
0.284043 -0.096031 0.139093
0.265643 -0.060236 0.139089
0.230294 -0.035739 0.120439
0.317091 -0.112337 0.142006
0.270060 -0.034534 0.141915
0.291037 -0.070544 0.137840
0.143715 0.107590 0.112927
0.263398 0.009090 0.144725
0.234968 0.038880 0.136774
0.208823 0.058485 0.126708
0.304933 -0.107957 0.118434
0.109959 0.128141 0.079738
0.184174 0.082935 0.111647
0.236407 -0.020990 0.100683
0.320590 -0.062332 0.141793
0.250481 -0.086896 0.080028
0.344359 -0.104447 0.137607
0.298743 -0.026999 0.139870
0.292643 -0.001797 0.144776
0.313033 -0.081789 0.122388
0.151684 0.109413 0.088619
0.323727 -0.037418 0.139812
0.227076 0.055140 0.109192
0.355239 -0.025887 0.160428
0.262774 0.049824 0.127912
0.263455 -0.005665 0.100685
0.201594 0.076066 0.090183
0.295380 -0.065807 0.091307
0.357926 -0.061709 0.135912
0.347247 -0.092099 0.114096
0.331189 -0.005319 0.141950
0.293375 0.038140 0.132171
0.355205 0.015535 0.160232
0.252707 0.054855 0.103662
0.333131 -0.045376 0.114801
0.319178 0.023310 0.134850
0.177436 0.094357 0.065490
0.137138 0.121913 0.047189
0.380113 -0.090075 0.123904
0.300079 -0.024306 0.095734
0.246439 -0.078397 0.032478
0.214722 0.069285 0.066018
0.339297 -0.061109 0.089057
0.392769 -0.025912 0.142317
0.285653 0.050655 0.098301
0.373940 -0.012343 0.128508
0.195736 0.083216 0.043401
0.175963 0.096773 0.034089
0.396782 -0.050981 0.121442
0.340062 -0.020287 0.093405
0.363416 0.023050 0.127195
0.401006 -0.091221 0.100372
0.130597 0.126389 0.002820
0.277603 -0.078945 0.009528
0.395342 0.019084 0.136491
0.154179 0.112301 0.006626
0.409835 -0.026310 0.117977
0.180734 0.094414 0.007518
0.225943 0.063554 0.016882
0.335266 0.046455 0.086885
0.206740 0.076883 0.008274
0.385123 0.033894 0.110572
0.334468 -0.088642 0.017605
0.401017 -0.005365 0.100465
0.163350 0.105636 -0.020605
0.129564 0.126137 -0.040852
0.190325 0.087494 -0.019244
0.413408 -0.090714 0.055623
0.415448 -0.049092 0.075355
0.370657 0.042307 0.082498
0.409019 -0.019969 0.080038
0.216859 0.069692 -0.017526
0.424957 -0.071195 0.066473
0.349941 0.047043 0.065524
0.158577 0.108186 -0.050902
0.416633 0.008995 0.086816
0.275842 -0.078912 -0.057392
0.398846 0.034565 0.082290
0.186201 0.089595 -0.049350
0.325474 -0.096896 -0.035587
0.428599 -0.009098 0.068517
0.372839 0.043577 0.047034
0.422102 -0.050661 0.036046
0.420752 -0.077916 0.021658
0.411862 -0.020641 0.040663
0.201723 0.077518 -0.074858
0.169542 0.097418 -0.091874
0.420308 0.027727 0.054277
0.423277 -0.055608 0.009820
0.315890 -0.105812 -0.092267
0.403119 0.036211 0.026292
0.434598 -0.024699 0.015644
0.432233 -0.079881 -0.013474
0.417810 -0.033197 -0.009704
0.335842 -0.121048 -0.127207
0.422507 0.028975 0.001329
0.425102 -0.070668 -0.054384
0.401040 0.037871 -0.027309
0.423013 0.025856 -0.034635
0.439723 -0.026268 -0.061981
0.424221 0.006109 -0.064830
