-0.327770 -0.045014 0.143290
-0.338270 -0.053355 0.160616
-0.317729 -0.049644 0.166927
-0.356111 -0.063003 0.138459
-0.343100 -0.043634 0.165792
-0.313083 -0.065315 0.159169
-0.354029 -0.041758 0.147615
-0.356205 -0.034414 0.166151
-0.336088 -0.028401 0.165130
-0.345700 -0.027550 0.161987
-0.315684 -0.019628 0.155614
-0.310306 -0.020343 0.163070
-0.330984 -0.022761 0.160374
-0.343773 -0.031675 0.170620
-0.322561 -0.019007 0.148141
-0.345881 -0.027069 0.152460
-0.332909 -0.019866 0.148821
-0.337834 -0.024558 0.157559
-0.341280 -0.023952 0.154157
-0.320683 -0.022228 0.165150
-0.343313 -0.027878 0.164601
-0.331096 -0.020811 0.154058
-0.336434 -0.019834 0.140927
-0.331448 -0.026219 0.167110
-0.327469 -0.022183 0.161311
-0.345965 -0.022325 0.142808
-0.353249 -0.027617 0.150145
-0.336488 -0.032999 0.171814
-0.345647 -0.036760 0.169534
-0.337191 -0.027434 0.166937
-0.358853 -0.030046 0.157881
-0.327195 -0.032860 0.173097
-0.323679 -0.021139 0.159744
-0.328540 -0.025675 0.169588
-0.320359 -0.024656 0.168761
-0.347363 -0.027272 0.157986
-0.336894 -0.024021 0.161974
-0.314410 -0.025968 0.169717
-0.349547 -0.026980 0.156795
-0.356683 -0.084453 0.155836
-0.325754 -0.098534 0.143259
-0.342399 -0.073625 0.149539
-0.316636 -0.062354 0.138604
-0.313406 -0.070555 0.146024
-0.331383 -0.074912 0.142524
-0.339975 -0.068638 0.163366
-0.321681 -0.081677 0.131112
-0.331972 -0.088630 0.134419
-0.327767 -0.050934 0.135668
-0.331950 -0.057774 0.144148
-0.336306 -0.067287 0.137889
-0.323713 -0.075827 0.143580
-0.344859 -0.060559 0.150966
-0.325780 -0.070978 0.136562
-0.328699 -0.063994 0.127497
-0.329984 -0.081272 0.147162
-0.322119 -0.047100 0.146768
-0.342175 -0.074320 0.128160
-0.353960 -0.058323 0.135775
-0.334003 -0.076797 0.166698
-0.341197 -0.099465 0.145157
-0.325815 -0.063865 0.152669
-0.364308 -0.071124 0.146485
-0.329630 -0.090949 0.157273
-0.325897 -0.065447 0.143367
-0.332857 -0.071463 0.152224
-0.322401 -0.070789 0.157057
-0.348323 -0.085414 0.140398
-0.331599 -0.055872 0.161802
-0.321348 -0.085867 0.150976
-0.338272 -0.040358 0.141959
-0.317036 -0.146964 0.158835
-0.290765 -0.144353 0.146585
-0.302641 -0.142019 0.150072
-0.272504 -0.134203 0.137148
-0.268168 -0.131408 0.151318
-0.290426 -0.140239 0.142734
-0.302842 -0.142388 0.168266
-0.278705 -0.138256 0.126846
-0.299746 -0.146740 0.131930
-0.290147 -0.133640 0.133144
-0.293667 -0.139646 0.148539
-0.295518 -0.140447 0.137810
-0.278445 -0.137865 0.147462
-0.305192 -0.140074 0.157741
-0.285712 -0.139055 0.136211
-0.289177 -0.137847 0.118380
-0.287808 -0.140908 0.150945
-0.279248 -0.132137 0.152497
-0.306658 -0.139536 0.122410
-0.316134 -0.141594 0.134412
-0.290689 -0.139553 0.172770
-0.302918 -0.150950 0.151766
-0.288130 -0.137555 0.160115
-0.322970 -0.144235 0.147050
-0.291469 -0.144430 0.164403
-0.283111 -0.136308 0.143829
-0.290637 -0.139502 0.160190
-0.278673 -0.135910 0.168745
-0.310554 -0.145251 0.141105
-0.292895 -0.137750 0.158656
-0.277332 -0.138841 0.157531
-0.307763 -0.137442 0.147093
-0.311551 -0.055694 0.179229
-0.290425 -0.064879 0.177801
-0.307762 -0.050423 0.180212
-0.276044 -0.042910 0.176064
-0.273600 -0.050598 0.176266
-0.293662 -0.049951 0.178880
-0.297287 -0.047905 0.180222
-0.283113 -0.053320 0.174753
-0.295103 -0.058198 0.176125
-0.289245 -0.040104 0.176466
-0.295142 -0.039066 0.177157
-0.304707 -0.046729 0.177149
-0.281999 -0.049533 0.178871
-0.299533 -0.042734 0.178905
-0.286253 -0.047705 0.177804
-0.295786 -0.045597 0.171999
-0.289744 -0.054542 0.179394
-0.284625 -0.038099 0.175739
-0.303479 -0.050308 0.176238
-0.312197 -0.042407 0.177390
-0.295853 -0.052948 0.178590
-0.300401 -0.063028 0.177923
-0.290626 -0.046626 0.178354
-0.316363 -0.047547 0.179017
-0.284376 -0.058082 0.179051
-0.285060 -0.043310 0.178365
-0.289208 -0.049262 0.180013
-0.279959 -0.045895 0.177252
-0.301931 -0.055217 0.180130
-0.293818 -0.043486 0.179193
-0.279027 -0.056755 0.177002
-0.303643 -0.037096 0.176477
-0.381297 -0.020542 0.141183
-0.357893 -0.015531 0.138183
-0.370270 -0.017617 0.137836
-0.336745 -0.013174 0.132752
-0.328990 -0.013420 0.136683
-0.354133 -0.014521 0.135975
-0.365315 -0.020124 0.142995
-0.342856 -0.011726 0.126560
-0.367659 -0.015201 0.130472
-0.354365 -0.013476 0.129550
-0.361888 -0.016150 0.135723
-0.365576 -0.015117 0.132186
-0.340077 -0.014067 0.138728
-0.367597 -0.017740 0.139313
-0.351240 -0.013382 0.132484
-0.356993 -0.012790 0.121973
-0.352110 -0.016370 0.140847
-0.347178 -0.015357 0.136314
-0.369513 -0.013851 0.122943
-0.379880 -0.016972 0.130873
-0.359090 -0.020178 0.143701
-0.367302 -0.019069 0.143737
-0.359223 -0.017551 0.141030
-0.384836 -0.017817 0.136995
-0.347608 -0.018043 0.145127
-0.345581 -0.013855 0.135874
-0.349370 -0.016768 0.141759
-0.340358 -0.016263 0.141196
-0.371379 -0.016889 0.135269
-0.357958 -0.015797 0.136868
-0.334942 -0.014823 0.139898
-0.376087 -0.018059 0.135413
-0.315597 -0.147744 0.154179
-0.288603 -0.145242 0.142024
-0.300922 -0.144537 0.144942
-0.270505 -0.137112 0.133023
-0.267094 -0.134261 0.147363
-0.288177 -0.142675 0.137736
-0.300289 -0.144608 0.164182
-0.276987 -0.139698 0.123082
-0.296891 -0.147313 0.127729
-0.287798 -0.136181 0.129144
-0.291475 -0.142424 0.143278
-0.293142 -0.142698 0.132914
-0.275851 -0.140723 0.141828
-0.303283 -0.142011 0.153252
-0.283523 -0.141743 0.131927
-0.286258 -0.140276 0.114863
-0.283967 -0.143184 0.146210
-0.276488 -0.134409 0.148099
-0.303847 -0.141231 0.118427
-0.315323 -0.143571 0.129800
-0.287592 -0.141292 0.169190
-0.299224 -0.150751 0.147046
-0.285181 -0.139926 0.154935
-0.321856 -0.145169 0.142127
-0.287432 -0.145241 0.159175
-0.279810 -0.139395 0.138727
-0.287627 -0.141863 0.155172
-0.276182 -0.138626 0.164938
-0.308256 -0.146321 0.135984
-0.289816 -0.140131 0.154745
-0.275411 -0.140207 0.152851
-0.306637 -0.139061 0.142535
-0.345087 -0.084906 0.149318
-0.320193 -0.098968 0.136976
-0.333280 -0.074434 0.141954
-0.311654 -0.062280 0.133845
-0.308229 -0.071688 0.138845
-0.324890 -0.075337 0.136777
-0.329998 -0.068196 0.157679
-0.317235 -0.082459 0.128442
-0.324171 -0.089013 0.131227
-0.320837 -0.051682 0.132001
-0.324181 -0.058156 0.138324
-0.328069 -0.067643 0.133359
-0.319065 -0.076800 0.137440
-0.334043 -0.060998 0.144464
-0.320996 -0.071804 0.132694
-0.321932 -0.065744 0.127076
-0.323583 -0.082973 0.139867
-0.316061 -0.046740 0.141189
-0.331140 -0.075193 0.127175
-0.342923 -0.058007 0.132729
-0.325887 -0.076909 0.161356
-0.332023 -0.099134 0.136550
-0.320102 -0.064335 0.144542
-0.353394 -0.071487 0.139795
-0.323117 -0.091536 0.150214
-0.319958 -0.066414 0.137573
-0.326063 -0.072271 0.145094
-0.317385 -0.071332 0.151327
-0.338039 -0.085264 0.134996
-0.323716 -0.055383 0.156833
-0.316774 -0.086305 0.143522
-0.327989 -0.040306 0.135814
-0.286260 -0.081488 0.178238
-0.265726 -0.090060 0.177460
-0.282204 -0.072937 0.179181
-0.252102 -0.060203 0.175906
-0.251576 -0.071718 0.175228
-0.267622 -0.071667 0.178130
-0.271262 -0.068953 0.179404
-0.258170 -0.076613 0.175940
-0.269022 -0.082468 0.176519
-0.261970 -0.057162 0.178232
-0.267461 -0.054849 0.177473
-0.279254 -0.067286 0.176385
-0.257439 -0.071142 0.178395
-0.272981 -0.060895 0.177847
-0.259724 -0.068401 0.177997
-0.268050 -0.065715 0.174991
-0.264034 -0.078202 0.178937
-0.258673 -0.052220 0.176086
-0.276884 -0.072881 0.176764
-0.285458 -0.059137 0.176739
-0.270008 -0.076743 0.177705
-0.275852 -0.088825 0.177632
-0.263566 -0.066667 0.178379
-0.289478 -0.069447 0.177742
-0.259818 -0.082697 0.178258
-0.259098 -0.061863 0.177771
-0.263234 -0.071305 0.179024
-0.256146 -0.066077 0.176372
-0.276583 -0.079785 0.178665
-0.267021 -0.061066 0.178585
-0.255714 -0.080441 0.176294
-0.275680 -0.050695 0.176409
-0.341690 -0.041795 0.170238
-0.305404 -0.046455 0.159391
-0.330355 -0.024843 0.164707
-0.288716 -0.021267 0.148273
-0.283011 -0.020923 0.164091
-0.313601 -0.023165 0.153627
-0.329189 -0.029664 0.175914
-0.295512 -0.034799 0.139615
-0.322000 -0.042923 0.144744
-0.315009 -0.019310 0.142346
-0.320074 -0.022033 0.159289
-0.326352 -0.021396 0.148794
-0.295632 -0.023897 0.162108
-0.330186 -0.025334 0.167160
-0.304222 -0.020630 0.144447
-0.315608 -0.019134 0.130730
-0.309615 -0.029484 0.168373
-0.301395 -0.021889 0.163801
-0.331144 -0.024206 0.134558
-0.339109 -0.022387 0.143907
-0.320543 -0.031937 0.178846
-0.326614 -0.047275 0.168497
-0.314233 -0.024296 0.172888
-0.347435 -0.026385 0.158987
-0.308808 -0.043054 0.178889
-0.305840 -0.020349 0.157684
-0.312807 -0.026056 0.173415
-0.297673 -0.023729 0.174183
-0.333717 -0.032946 0.153539
-0.321277 -0.022853 0.167057
-0.291172 -0.040268 0.171632
-0.337400 -0.022402 0.158270
-0.333670 -0.141577 0.135869
-0.301932 -0.147151 0.118791
-0.327075 -0.143157 0.127330
-0.282279 -0.133894 0.116146
-0.275247 -0.143468 0.122540
-0.311591 -0.143379 0.120258
-0.322292 -0.142389 0.146580
-0.288457 -0.143344 0.112823
-0.311314 -0.145439 0.116561
-0.308751 -0.122122 0.114724
-0.317373 -0.128715 0.118690
-0.320687 -0.138082 0.115454
-0.289448 -0.144124 0.121051
-0.331940 -0.129607 0.131110
-0.302644 -0.144310 0.115707
-0.308021 -0.137592 0.110090
-0.298093 -0.147695 0.125005
-0.295552 -0.120317 0.122466
-0.325490 -0.136804 0.109716
-0.344372 -0.126470 0.113795
-0.309720 -0.144060 0.152598
-0.314393 -0.145515 0.128957
-0.304263 -0.137112 0.130168
-0.346313 -0.135796 0.122134
-0.297860 -0.146914 0.141038
-0.297153 -0.138123 0.118775
-0.308552 -0.145520 0.133059
-0.289147 -0.143342 0.143588
-0.326234 -0.143665 0.118241
-0.314477 -0.127811 0.139597
-0.286483 -0.149085 0.127878
-0.334078 -0.113516 0.119525
-0.297529 -0.131446 0.174020
-0.278640 -0.135273 0.161075
-0.284782 -0.121369 0.172325
-0.248344 -0.095859 0.156730
-0.254254 -0.109477 0.165235
-0.271448 -0.120499 0.156669
-0.276378 -0.115547 0.175798
-0.265593 -0.121355 0.140827
-0.278784 -0.132698 0.143140
-0.257820 -0.090297 0.148164
-0.263347 -0.096430 0.168387
-0.274654 -0.111453 0.157481
-0.265333 -0.119637 0.162119
-0.281280 -0.105579 0.172897
-0.259879 -0.110505 0.147890
-0.267021 -0.107203 0.137750
-0.271943 -0.126259 0.167531
-0.250388 -0.087332 0.167836
-0.284294 -0.122144 0.142698
-0.279904 -0.100418 0.154024
-0.276218 -0.125512 0.174130
-0.291830 -0.138770 0.166054
-0.263371 -0.104743 0.172730
-0.298688 -0.118968 0.167368
-0.277871 -0.133691 0.174823
-0.260849 -0.101628 0.163152
-0.269229 -0.116028 0.171715
-0.260358 -0.109059 0.174022
-0.292452 -0.132547 0.155628
-0.263249 -0.098857 0.174282
-0.266769 -0.125749 0.171090
-0.267436 -0.086901 0.163475
-0.374109 -0.017104 0.133491
-0.345995 -0.011052 0.122224
-0.360026 -0.014835 0.124117
-0.324950 -0.010102 0.110912
-0.317083 -0.010009 0.122707
-0.343008 -0.011644 0.116023
-0.359477 -0.016504 0.137986
-0.329871 -0.009845 0.095830
-0.359421 -0.012475 0.103232
-0.346822 -0.011698 0.102855
-0.352836 -0.013655 0.121626
-0.353986 -0.012471 0.111528
-0.328344 -0.010315 0.123918
-0.360096 -0.014858 0.131156
-0.338602 -0.010942 0.108590
-0.344960 -0.011256 0.087125
-0.341966 -0.012666 0.128364
-0.336346 -0.012839 0.128715
-0.362150 -0.012503 0.091564
-0.372856 -0.014318 0.107532
-0.350380 -0.015582 0.138734
-0.354898 -0.013084 0.131010
-0.350875 -0.014144 0.134293
-0.376431 -0.015198 0.121246
-0.340485 -0.013319 0.139863
-0.336828 -0.010783 0.118866
-0.339825 -0.013684 0.134597
-0.330180 -0.013258 0.135679
-0.363814 -0.013867 0.116228
-0.348900 -0.012570 0.128066
-0.323350 -0.011185 0.129992
-0.370377 -0.016120 0.125607
-0.291513 -0.135652 0.150393
-0.274976 -0.135201 0.142778
-0.275209 -0.128375 0.142225
-0.256434 -0.116092 0.130979
-0.261324 -0.116734 0.141971
-0.266567 -0.127641 0.133330
-0.270438 -0.127244 0.160291
-0.267506 -0.126115 0.121131
-0.273119 -0.135575 0.125620
-0.260490 -0.114141 0.125053
-0.261079 -0.119902 0.140902
-0.265929 -0.125521 0.133234
-0.266779 -0.128297 0.136489
-0.273727 -0.122566 0.147224
-0.262906 -0.122828 0.129454
-0.262728 -0.122373 0.115445
-0.268832 -0.130210 0.142767
-0.254624 -0.110771 0.143200
-0.276116 -0.127960 0.120827
-0.282062 -0.123567 0.130533
-0.264892 -0.127569 0.164839
-0.281879 -0.141341 0.136888
-0.262074 -0.121415 0.146133
-0.299118 -0.129313 0.139846
-0.274136 -0.133709 0.152563
-0.261848 -0.119770 0.135861
-0.267325 -0.125116 0.149721
-0.262118 -0.120816 0.158227
-0.285555 -0.134997 0.133350
-0.259954 -0.117487 0.154104
-0.267530 -0.125707 0.148237
-0.266276 -0.113766 0.135897
-0.318847 -0.108145 0.158054
-0.276194 -0.120606 0.147409
-0.302565 -0.093334 0.155001
-0.254979 -0.076756 0.144675
-0.253274 -0.089086 0.151929
-0.282843 -0.094093 0.149046
-0.293084 -0.089232 0.163375
-0.265201 -0.101322 0.138969
-0.286314 -0.109763 0.140498
-0.272549 -0.066733 0.145009
-0.282623 -0.072848 0.151113
-0.292613 -0.085388 0.144393
-0.265818 -0.093560 0.150705
-0.299450 -0.077859 0.156721
-0.270119 -0.089741 0.143472
-0.276535 -0.080658 0.137994
-0.276484 -0.102069 0.152723
-0.263268 -0.063980 0.152530
-0.299021 -0.094858 0.135634
-0.313206 -0.076413 0.142546
-0.285406 -0.101352 0.165748
-0.298997 -0.122246 0.152347
-0.271750 -0.080650 0.159765
-0.325997 -0.091638 0.149903
-0.276133 -0.111848 0.161301
-0.267275 -0.079140 0.149673
-0.279103 -0.090813 0.158060
-0.264040 -0.087650 0.161337
-0.306900 -0.108088 0.147160
-0.279362 -0.073350 0.162431
-0.263321 -0.106742 0.155671
-0.297415 -0.061732 0.147529
-0.438277 -0.046706 0.097886
-0.403223 -0.055983 0.072775
-0.435735 -0.041575 0.086282
-0.366343 -0.021550 0.059238
-0.346595 -0.035674 0.084171
-0.422940 -0.039924 0.070872
-0.434593 -0.037251 0.108405
-0.379171 -0.049789 0.045266
-0.422966 -0.052483 0.052349
-0.416437 -0.016052 0.051106
-0.425303 -0.024317 0.081159
-0.433527 -0.025099 0.064471
-0.383231 -0.044203 0.075887
-0.438542 -0.022659 0.094696
-0.401689 -0.036319 0.052688
-0.420887 -0.029949 0.034112
-0.407479 -0.048021 0.090814
-0.388329 -0.014710 0.086192
-0.435650 -0.041566 0.046242
-0.440172 -0.019029 0.055587
-0.425988 -0.046943 0.116709
-0.428957 -0.056878 0.083132
-0.405117 -0.026419 0.100485
-0.444840 -0.031311 0.075727
-0.407417 -0.055365 0.110365
-0.404933 -0.026046 0.074929
-0.426300 -0.038133 0.096324
-0.384714 -0.036467 0.111393
-0.438169 -0.051063 0.067848
-0.424631 -0.016265 0.107601
-0.372245 -0.054396 0.096966
-0.436463 -0.012035 0.076796
-0.358615 -0.093572 0.132609
-0.318821 -0.106467 0.112568
-0.352442 -0.080323 0.122932
-0.297909 -0.061287 0.111573
-0.288747 -0.075336 0.119004
-0.333875 -0.079704 0.112479
-0.346860 -0.071742 0.140286
-0.307617 -0.090171 0.102717
-0.333689 -0.096551 0.104859
-0.325636 -0.052187 0.110247
-0.336534 -0.054236 0.119090
-0.346095 -0.066785 0.109916
-0.305638 -0.080859 0.115725
-0.349914 -0.057287 0.127525
-0.318920 -0.076733 0.107173
-0.332793 -0.063476 0.102340
-0.322008 -0.089628 0.121999
-0.311244 -0.047286 0.123156
-0.347333 -0.079163 0.103036
-0.361129 -0.054761 0.108574
-0.336184 -0.086679 0.147287
-0.341722 -0.107075 0.122090
-0.319973 -0.062004 0.127318
-0.364757 -0.071131 0.117433
-0.320748 -0.101664 0.136858
-0.313853 -0.064706 0.116278
-0.330443 -0.076187 0.127685
-0.305965 -0.073379 0.138442
-0.353140 -0.092986 0.111450
-0.333053 -0.051780 0.139327
-0.300248 -0.096491 0.127730
-0.348199 -0.040232 0.117565
-0.271250 -0.045221 0.178217
-0.249273 -0.054531 0.172224
-0.262920 -0.039340 0.177535
-0.251431 -0.042077 0.163721
-0.248516 -0.044144 0.167441
-0.253444 -0.040780 0.170943
-0.260809 -0.040512 0.177869
-0.248540 -0.043932 0.155313
-0.251515 -0.048576 0.164642
-0.257023 -0.035132 0.158424
-0.259429 -0.037398 0.170979
-0.261351 -0.037947 0.170210
-0.249950 -0.043860 0.171389
-0.267057 -0.035905 0.175838
-0.253405 -0.040572 0.164978
-0.253322 -0.038713 0.148850
-0.253372 -0.042797 0.175512
-0.257876 -0.036408 0.168118
-0.262488 -0.038653 0.158736
-0.272234 -0.034093 0.167081
-0.258929 -0.046320 0.176740
-0.257956 -0.052481 0.175625
-0.258599 -0.038956 0.175618
-0.280513 -0.037813 0.176147
-0.252031 -0.048242 0.176882
-0.255068 -0.039327 0.171842
-0.255341 -0.040679 0.176031
-0.253556 -0.042297 0.172957
-0.262110 -0.044038 0.174445
-0.261204 -0.037283 0.174630
-0.249244 -0.049551 0.170868
-0.268606 -0.032193 0.170671
-0.259097 -0.076059 0.173914
-0.245248 -0.084057 0.167605
-0.245540 -0.070171 0.172008
-0.241195 -0.062868 0.162035
-0.242202 -0.068884 0.165943
-0.241449 -0.071567 0.160264
-0.247859 -0.066640 0.175668
-0.242999 -0.073282 0.145743
-0.243506 -0.079718 0.153686
-0.243232 -0.058014 0.151022
-0.243119 -0.060250 0.168565
-0.243227 -0.065753 0.159897
-0.243039 -0.073947 0.165615
-0.252365 -0.060800 0.173251
-0.241658 -0.067137 0.153843
-0.241255 -0.065221 0.139156
-0.243894 -0.074563 0.170088
-0.244464 -0.056117 0.169861
-0.247335 -0.070959 0.146904
-0.250938 -0.057605 0.158547
-0.247767 -0.072902 0.175245
-0.249088 -0.084062 0.166389
-0.244415 -0.063962 0.172683
-0.263447 -0.068751 0.171015
-0.247408 -0.079127 0.174436
-0.243716 -0.064864 0.166195
-0.243612 -0.068063 0.172269
-0.244420 -0.067266 0.171831
-0.251382 -0.074932 0.162109
-0.246163 -0.058856 0.174232
-0.244265 -0.074712 0.171392
-0.245524 -0.050484 0.165699
-0.351874 -0.015694 0.131560
-0.328046 -0.011869 0.119686
-0.338656 -0.013606 0.122376
-0.310279 -0.009408 0.113985
-0.303704 -0.008813 0.121340
-0.325721 -0.010473 0.117481
-0.338810 -0.014881 0.136098
-0.313862 -0.009248 0.102171
-0.339984 -0.013226 0.106663
-0.328270 -0.010920 0.107769
-0.333124 -0.012632 0.120652
-0.333578 -0.012058 0.112583
-0.314095 -0.009405 0.124243
-0.339111 -0.013157 0.128943
-0.322156 -0.009924 0.111956
-0.327257 -0.010947 0.095334
-0.327258 -0.011476 0.126779
-0.321321 -0.011189 0.127791
-0.339403 -0.012162 0.098925
-0.350106 -0.014387 0.110507
-0.330347 -0.013726 0.137436
-0.335305 -0.020925 0.126033
-0.331894 -0.012730 0.132293
-0.354821 -0.014143 0.119235
-0.325079 -0.015788 0.135009
-0.320201 -0.009632 0.119150
-0.322258 -0.011459 0.134466
-0.313995 -0.010698 0.133796
-0.342983 -0.012937 0.116519
-0.328847 -0.010655 0.124812
-0.308746 -0.010919 0.127385
-0.347967 -0.014866 0.124246
-0.304965 -0.023506 0.164218
-0.284270 -0.020105 0.156573
-0.295628 -0.020372 0.157814
-0.265119 -0.020167 0.148874
-0.260381 -0.020375 0.155046
-0.280168 -0.019038 0.152286
-0.292256 -0.024858 0.167577
-0.270915 -0.017656 0.141975
-0.294002 -0.018130 0.147349
-0.282454 -0.017769 0.144668
-0.288495 -0.019605 0.154885
-0.289990 -0.018122 0.148017
-0.268727 -0.020550 0.156997
-0.293844 -0.021070 0.160956
-0.278087 -0.018538 0.147811
-0.283142 -0.017081 0.136998
-0.280094 -0.021316 0.162065
-0.275702 -0.021234 0.157652
-0.293776 -0.016731 0.138418
-0.304099 -0.018551 0.147587
-0.286072 -0.026541 0.168425
-0.291384 -0.023566 0.164816
-0.286641 -0.022243 0.163222
-0.307950 -0.019294 0.155713
-0.276773 -0.024629 0.168305
-0.273375 -0.019630 0.153906
-0.276864 -0.022601 0.164879
-0.269624 -0.023488 0.164357
-0.296648 -0.019198 0.151784
-0.284827 -0.019829 0.157581
-0.263192 -0.022984 0.161388
-0.302216 -0.019956 0.156922
-0.279075 -0.140438 0.147102
-0.272158 -0.140195 0.138162
-0.267171 -0.134383 0.136892
-0.246164 -0.117825 0.123850
-0.253015 -0.120411 0.134836
-0.258544 -0.132926 0.124264
-0.261270 -0.130364 0.156824
-0.261110 -0.130803 0.115697
-0.268108 -0.140044 0.119258
-0.252039 -0.114400 0.118062
-0.251224 -0.119555 0.134426
-0.258370 -0.127664 0.124093
-0.257199 -0.132755 0.130636
-0.262876 -0.126575 0.142313
-0.253678 -0.125323 0.123089
-0.258806 -0.124204 0.111054
-0.260725 -0.134955 0.136758
-0.242723 -0.113644 0.137324
-0.272254 -0.132817 0.112721
-0.269909 -0.124387 0.120605
-0.258909 -0.131135 0.161389
-0.275954 -0.144970 0.130474
-0.251460 -0.122810 0.140475
-0.283940 -0.133947 0.131010
-0.269089 -0.136996 0.150768
-0.251920 -0.123037 0.128549
-0.258336 -0.129963 0.143461
-0.253529 -0.122950 0.154273
-0.277919 -0.138509 0.123176
-0.250259 -0.120451 0.150867
-0.260638 -0.130484 0.145117
-0.252954 -0.113853 0.126788
-0.263747 -0.092995 0.161221
-0.254316 -0.102387 0.152823
-0.251953 -0.086988 0.154069
-0.245516 -0.075719 0.145501
-0.249479 -0.083877 0.148669
-0.249036 -0.087059 0.143408
-0.248303 -0.080554 0.166941
-0.252100 -0.089620 0.133303
-0.253253 -0.097037 0.138713
-0.247462 -0.069924 0.137761
-0.246828 -0.072324 0.151539
-0.248030 -0.081010 0.143915
-0.250922 -0.091576 0.148957
-0.251704 -0.074607 0.157236
-0.248659 -0.082098 0.139525
-0.248721 -0.079687 0.128588
-0.251367 -0.093457 0.153458
-0.246314 -0.066612 0.154438
-0.254224 -0.086838 0.133695
-0.256903 -0.070310 0.141745
-0.250045 -0.088174 0.167131
-0.257194 -0.103428 0.146799
-0.248391 -0.078715 0.155511
-0.275587 -0.082988 0.150867
-0.254404 -0.097650 0.162102
-0.249893 -0.080334 0.148847
-0.249820 -0.084079 0.156572
-0.249575 -0.082146 0.159684
-0.259800 -0.092731 0.144742
-0.246784 -0.071428 0.162648
-0.252146 -0.089352 0.158336
-0.247286 -0.060602 0.146502
-0.412823 -0.073818 0.094603
-0.355456 -0.086140 0.061020
-0.399524 -0.064406 0.079584
-0.340112 -0.048230 0.051601
-0.325169 -0.060288 0.079753
-0.381341 -0.066178 0.061079
-0.399755 -0.060652 0.106937
-0.343871 -0.075141 0.030599
-0.378371 -0.080253 0.039379
-0.377756 -0.038202 0.043851
-0.383917 -0.045196 0.077136
-0.394365 -0.052491 0.055878
-0.343769 -0.070014 0.065883
-0.410452 -0.044729 0.093807
-0.362885 -0.063040 0.043162
-0.374581 -0.055389 0.022229
-0.363230 -0.071207 0.083959
-0.353093 -0.032821 0.082189
-0.401457 -0.062893 0.030381
-0.416257 -0.042264 0.046419
-0.382281 -0.069550 0.114661
-0.386471 -0.085741 0.076695
-0.358730 -0.049697 0.100490
-0.422699 -0.057191 0.071901
-0.367589 -0.082066 0.103926
-0.365301 -0.053402 0.067125
-0.384046 -0.062352 0.092449
-0.351475 -0.063142 0.113823
-0.408735 -0.075894 0.058526
-0.384072 -0.039647 0.107427
-0.340800 -0.080044 0.094767
-0.405045 -0.027455 0.072177
-0.321183 -0.018725 0.148422
-0.300458 -0.015830 0.137486
-0.310068 -0.016319 0.139287
-0.282632 -0.014088 0.130761
-0.276826 -0.013815 0.137854
-0.297577 -0.013992 0.133885
-0.309767 -0.018960 0.153448
-0.286707 -0.012146 0.120512
-0.310969 -0.015209 0.125385
-0.300724 -0.013857 0.125104
-0.305030 -0.015836 0.137329
-0.305384 -0.014615 0.128929
-0.286459 -0.014182 0.140549
-0.310377 -0.016597 0.145502
-0.294617 -0.013512 0.128690
-0.299293 -0.013176 0.114996
-0.298663 -0.015857 0.144035
-0.293577 -0.015868 0.143942
-0.309493 -0.013940 0.117348
-0.319648 -0.016061 0.127855
-0.302277 -0.018628 0.155109
-0.306605 -0.023853 0.144070
-0.303261 -0.016932 0.149189
-0.323822 -0.016253 0.136113
-0.296637 -0.020361 0.153010
-0.291840 -0.014125 0.135773
-0.294029 -0.016060 0.151129
-0.286273 -0.015922 0.150483
-0.313148 -0.015028 0.132552
-0.300896 -0.014508 0.141344
-0.280448 -0.016087 0.144758
-0.318411 -0.017216 0.140493
-0.320321 -0.069320 0.150994
-0.281533 -0.082761 0.133454
-0.309753 -0.056280 0.145631
-0.265146 -0.043848 0.128182
-0.255612 -0.052140 0.141265
-0.296827 -0.057378 0.132795
-0.309977 -0.048014 0.157628
-0.269677 -0.066707 0.121004
-0.296183 -0.075087 0.123523
-0.291816 -0.036071 0.127176
-0.299234 -0.040546 0.140464
-0.305509 -0.045952 0.129385
-0.271372 -0.058189 0.137713
-0.313443 -0.039168 0.149803
-0.281430 -0.053550 0.125110
-0.293761 -0.043913 0.116782
-0.288185 -0.064809 0.142565
-0.277482 -0.036882 0.143357
-0.312281 -0.057679 0.117993
-0.321522 -0.039741 0.124894
-0.300919 -0.060391 0.161929
-0.303764 -0.087007 0.138626
-0.282770 -0.042649 0.152471
-0.326733 -0.051197 0.138138
-0.289069 -0.076955 0.152872
-0.280577 -0.044089 0.138016
-0.294427 -0.052321 0.148279
-0.271973 -0.050442 0.155440
-0.315138 -0.070877 0.131002
-0.297628 -0.036219 0.157197
-0.265855 -0.073861 0.146358
-0.312919 -0.031881 0.138185
-0.396790 -0.017373 0.082935
-0.346027 -0.018199 0.056163
-0.371511 -0.014127 0.061637
-0.313686 -0.009774 0.041461
-0.301787 -0.009347 0.063132
-0.350196 -0.011200 0.048644
-0.375346 -0.014687 0.095363
-0.321828 -0.011052 0.021650
-0.368116 -0.016524 0.030845
-0.352805 -0.012018 0.032222
-0.360628 -0.012538 0.060668
-0.365992 -0.013760 0.043099
-0.321356 -0.009974 0.062600
-0.374493 -0.013796 0.078076
-0.337333 -0.011304 0.036467
-0.350500 -0.012280 0.011848
-0.343208 -0.010041 0.066970
-0.333187 -0.011611 0.079259
-0.374357 -0.014506 0.015941
-0.392571 -0.015549 0.034930
-0.357224 -0.010979 0.101751
-0.363803 -0.030473 0.065364
-0.347931 -0.011521 0.088682
-0.402745 -0.016624 0.057180
-0.343551 -0.022133 0.092246
-0.337326 -0.009694 0.053112
-0.349034 -0.011716 0.080521
-0.324837 -0.010487 0.092926
-0.382764 -0.014079 0.049640
-0.361181 -0.011544 0.082037
-0.315092 -0.012436 0.078355
-0.389640 -0.014706 0.067928
-0.266312 -0.058234 0.155823
-0.239891 -0.069366 0.146181
-0.250809 -0.050812 0.146582
-0.243177 -0.049759 0.138240
-0.240143 -0.054045 0.144644
-0.245302 -0.054158 0.140229
-0.250585 -0.049054 0.165227
-0.241544 -0.057351 0.130295
-0.242149 -0.062779 0.136390
-0.249240 -0.043442 0.134351
-0.247441 -0.046561 0.145081
-0.250484 -0.049037 0.138210
-0.241527 -0.057130 0.142092
-0.258077 -0.045424 0.152118
-0.244231 -0.052255 0.136876
-0.243882 -0.049199 0.123797
-0.242617 -0.058636 0.147395
-0.248038 -0.042791 0.146234
-0.255808 -0.051712 0.127382
-0.267381 -0.045139 0.136022
-0.244507 -0.054675 0.170371
-0.249590 -0.069971 0.144421
-0.244904 -0.048963 0.152756
-0.280214 -0.049400 0.144705
-0.243301 -0.064197 0.159091
-0.246595 -0.051106 0.143305
-0.246602 -0.052007 0.151951
-0.243770 -0.053223 0.159520
-0.259894 -0.058872 0.141125
-0.247954 -0.044819 0.159966
-0.241199 -0.059201 0.153865
-0.256023 -0.038567 0.140470
-0.316931 -0.122342 0.108743
-0.266644 -0.127955 0.108543
-0.299312 -0.107910 0.109956
-0.238630 -0.088050 0.111308
-0.244511 -0.101394 0.112638
-0.268167 -0.107644 0.108320
-0.272478 -0.100801 0.113570
-0.253266 -0.111016 0.108310
-0.271388 -0.119099 0.107642
-0.248975 -0.081783 0.109871
-0.263614 -0.081776 0.109859
-0.283685 -0.101801 0.108475
-0.253048 -0.104449 0.110455
-0.276124 -0.091984 0.108522
-0.251884 -0.101543 0.109646
-0.260783 -0.097913 0.108459
-0.260175 -0.112998 0.108284
-0.242132 -0.074516 0.111965
-0.280150 -0.109740 0.106851
-0.304492 -0.092891 0.110400
-0.265776 -0.114774 0.115563
-0.288006 -0.128438 0.106906
-0.253135 -0.096337 0.108499
-0.325177 -0.106963 0.110197
-0.257414 -0.120451 0.110528
-0.247246 -0.090761 0.108336
-0.258044 -0.105049 0.111174
-0.246407 -0.097056 0.115573
-0.295566 -0.121097 0.107909
-0.254859 -0.088317 0.112668
-0.251860 -0.117646 0.108914
-0.282158 -0.075631 0.110247
-0.317223 -0.015643 0.136675
-0.283360 -0.009756 0.125785
-0.302614 -0.012951 0.127218
-0.251650 -0.006894 0.114823
-0.238872 -0.006769 0.124996
-0.280560 -0.009087 0.120939
-0.299297 -0.015238 0.140023
-0.260729 -0.005705 0.105036
-0.297113 -0.010140 0.111075
-0.283394 -0.007270 0.110291
-0.292089 -0.012127 0.126194
-0.293320 -0.010005 0.118442
-0.258655 -0.008233 0.127153
-0.302122 -0.014203 0.132751
-0.275045 -0.009087 0.114684
-0.283034 -0.005341 0.102720
-0.274343 -0.010513 0.130143
-0.266840 -0.009853 0.130234
-0.298913 -0.009823 0.102856
-0.314375 -0.010564 0.114115
-0.287333 -0.014994 0.142495
-0.296430 -0.012113 0.133702
-0.285187 -0.011471 0.136375
-0.320894 -0.013111 0.126185
-0.273085 -0.014023 0.142837
-0.267079 -0.008317 0.122193
-0.276789 -0.011649 0.133612
-0.260692 -0.012267 0.137119
-0.304235 -0.011195 0.121067
-0.287803 -0.011827 0.130884
-0.250095 -0.009909 0.131279
-0.313051 -0.013586 0.128872
-0.262683 -0.091857 0.155643
-0.253364 -0.102689 0.138186
-0.252149 -0.084483 0.142666
-0.236950 -0.065107 0.125391
-0.243296 -0.077710 0.135278
-0.245941 -0.082870 0.123177
-0.247710 -0.073947 0.163081
-0.248153 -0.086552 0.107863
-0.251845 -0.097354 0.115259
-0.240118 -0.058518 0.114149
-0.241860 -0.063850 0.139094
-0.246139 -0.072730 0.122333
-0.245337 -0.088787 0.132156
-0.251195 -0.067436 0.149956
-0.241949 -0.075622 0.117759
-0.243004 -0.071907 0.103700
-0.247575 -0.093653 0.141442
-0.235383 -0.057036 0.144101
-0.253706 -0.083472 0.108009
-0.253747 -0.060616 0.120341
-0.247657 -0.087028 0.165959
-0.258699 -0.104529 0.130439
-0.241436 -0.070646 0.146479
-0.266507 -0.077576 0.136188
-0.253414 -0.100196 0.158238
-0.242239 -0.071842 0.131603
-0.246475 -0.079955 0.145979
-0.242615 -0.076134 0.157467
-0.259843 -0.090384 0.124665
-0.241388 -0.060870 0.160232
-0.248600 -0.087142 0.151400
-0.243777 -0.050112 0.132397
-0.279485 -0.044441 0.162098
-0.247591 -0.056542 0.146081
-0.266080 -0.038478 0.150400
-0.248585 -0.037320 0.136959
-0.242789 -0.040167 0.149209
-0.257397 -0.040651 0.141614
-0.267897 -0.037124 0.169486
-0.246682 -0.044174 0.127824
-0.255166 -0.050208 0.134132
-0.261139 -0.030623 0.134680
-0.260412 -0.034514 0.148465
-0.265147 -0.035130 0.137618
-0.247925 -0.043567 0.143374
-0.273893 -0.032484 0.157027
-0.252419 -0.039589 0.136062
-0.254232 -0.035216 0.121711
-0.251707 -0.046506 0.151515
-0.255154 -0.032567 0.150123
-0.270318 -0.038486 0.124426
-0.281198 -0.032487 0.134985
-0.257518 -0.041248 0.175295
-0.262472 -0.057585 0.149563
-0.254544 -0.035429 0.158649
-0.288941 -0.036541 0.147030
-0.254109 -0.052141 0.165694
-0.254864 -0.036493 0.144418
-0.258294 -0.039599 0.158610
-0.250328 -0.039769 0.166492
-0.273722 -0.046171 0.141093
-0.260999 -0.032647 0.163671
-0.245884 -0.046932 0.158094
-0.272318 -0.028624 0.144329
-0.437259 -0.036137 0.044560
-0.413389 -0.043327 0.018074
-0.429178 -0.024266 0.026812
-0.380229 -0.015712 -0.001582
-0.368234 -0.014281 0.024684
-0.419426 -0.021227 0.007355
-0.431193 -0.023839 0.063849
-0.396580 -0.033551 -0.021911
-0.427101 -0.042785 -0.010482
-0.414444 -0.015159 -0.013900
-0.422482 -0.020827 0.021696
-0.426624 -0.018760 0.001964
-0.395386 -0.022534 0.018961
-0.429258 -0.021477 0.040750
-0.405252 -0.018033 -0.009004
-0.421362 -0.019029 -0.032862
-0.417325 -0.028130 0.032679
-0.395900 -0.013873 0.034444
-0.432046 -0.026273 -0.020100
-0.431100 -0.021448 -0.006855
-0.424052 -0.023359 0.075366
-0.433177 -0.046195 0.020461
-0.408530 -0.018645 0.047785
-0.440771 -0.027243 0.017220
-0.422822 -0.042540 0.056363
-0.405832 -0.014667 0.013290
-0.422558 -0.021707 0.045068
-0.396058 -0.017968 0.060104
-0.437722 -0.033436 0.007394
-0.421905 -0.014287 0.050553
-0.388980 -0.036532 0.043815
-0.427471 -0.015599 0.024911
-0.280087 -0.036187 0.154743
-0.252258 -0.048849 0.142275
-0.271070 -0.026205 0.148676
-0.252985 -0.025925 0.138642
-0.245662 -0.028991 0.147191
-0.263069 -0.028318 0.141267
-0.271244 -0.026205 0.160003
-0.252288 -0.035556 0.124908
-0.262165 -0.042618 0.131169
-0.266946 -0.019507 0.134713
-0.267148 -0.020843 0.147429
-0.269937 -0.022007 0.138134
-0.253268 -0.032424 0.142877
-0.275018 -0.020330 0.150878
-0.258214 -0.027282 0.134785
-0.259936 -0.022995 0.118399
-0.259175 -0.036266 0.149545
-0.261507 -0.022582 0.147370
-0.274415 -0.028059 0.122211
-0.281384 -0.018198 0.134995
-0.264403 -0.033810 0.164463
-0.270203 -0.049268 0.150132
-0.262681 -0.023697 0.154390
-0.287127 -0.024053 0.146082
-0.260359 -0.043431 0.160049
-0.260766 -0.024202 0.145212
-0.262418 -0.028088 0.154386
-0.254636 -0.028762 0.157659
-0.276343 -0.035677 0.139845
-0.267410 -0.020935 0.154582
-0.249388 -0.040071 0.153206
-0.276070 -0.015541 0.144381
-0.287915 -0.017076 0.143534
-0.268919 -0.015547 0.135114
-0.280051 -0.015423 0.139229
-0.254677 -0.017802 0.131810
-0.247226 -0.017488 0.134686
-0.269087 -0.015483 0.135129
-0.276684 -0.018319 0.145061
-0.257995 -0.014970 0.127912
-0.276833 -0.014112 0.131196
-0.271260 -0.014980 0.130421
-0.276044 -0.017112 0.137640
-0.276441 -0.015364 0.133842
-0.260222 -0.016725 0.137615
-0.279113 -0.017053 0.140226
-0.266870 -0.016046 0.132728
-0.267370 -0.014397 0.125441
-0.268792 -0.016835 0.141210
-0.264320 -0.018200 0.137047
-0.278318 -0.013892 0.125848
-0.287365 -0.014064 0.132935
-0.272995 -0.019645 0.145248
-0.276856 -0.015463 0.143425
-0.274023 -0.017603 0.142086
-0.290948 -0.014663 0.138846
-0.265900 -0.017362 0.146412
-0.264146 -0.016353 0.136750
-0.265558 -0.018013 0.142366
-0.258960 -0.019121 0.141312
-0.281017 -0.015121 0.135352
-0.272253 -0.016468 0.137480
-0.253403 -0.019154 0.138803
-0.284918 -0.015884 0.137693
-0.438004 -0.059117 0.029106
-0.388328 -0.074267 -0.008053
-0.430864 -0.055357 0.009157
-0.374647 -0.041654 -0.020490
-0.356742 -0.053077 0.009322
-0.415908 -0.056563 -0.011768
-0.434851 -0.051815 0.045523
-0.374580 -0.066225 -0.044111
-0.414945 -0.069711 -0.036085
-0.415390 -0.032143 -0.032208
-0.420163 -0.038019 0.002894
-0.429270 -0.043984 -0.018912
-0.374872 -0.061859 -0.004183
-0.439348 -0.036443 0.022596
-0.396227 -0.055278 -0.030922
-0.412051 -0.049948 -0.054352
-0.399449 -0.062253 0.015955
-0.390701 -0.025741 0.012170
-0.435318 -0.054915 -0.044998
-0.443313 -0.033112 -0.027020
-0.420137 -0.061371 0.059101
-0.420956 -0.076031 0.004949
-0.394145 -0.044674 0.034373
-0.443888 -0.044733 -0.001325
-0.403098 -0.072506 0.044855
-0.401021 -0.046916 -0.004560
-0.421505 -0.054961 0.025197
-0.384510 -0.056721 0.053609
-0.436618 -0.064546 -0.013255
-0.423738 -0.030576 0.041455
-0.370358 -0.069391 0.029538
-0.437344 -0.018358 0.001402
-0.334000 -0.049630 0.146651
-0.291716 -0.059375 0.119562
-0.323236 -0.044237 0.127014
-0.275660 -0.036993 0.104074
-0.265096 -0.038865 0.132421
-0.306388 -0.049008 0.115999
-0.325889 -0.046763 0.160858
-0.279702 -0.051982 0.092328
-0.312571 -0.055839 0.100650
-0.305804 -0.033501 0.101188
-0.309878 -0.035358 0.127754
-0.317547 -0.036844 0.107801
-0.278831 -0.046368 0.120607
-0.324880 -0.036069 0.139803
-0.297527 -0.045279 0.102408
-0.305687 -0.037956 0.079063
-0.295719 -0.049876 0.133969
-0.286719 -0.035360 0.134430
-0.326141 -0.047975 0.086098
-0.335048 -0.036775 0.097583
-0.309281 -0.044646 0.177173
-0.314210 -0.061712 0.132396
-0.292003 -0.035430 0.147314
-0.344321 -0.043574 0.118674
-0.300440 -0.056976 0.157600
-0.293474 -0.036347 0.118395
-0.309480 -0.044711 0.144109
-0.283823 -0.040877 0.167046
-0.329355 -0.054604 0.111759
-0.308766 -0.034500 0.152891
-0.278916 -0.053155 0.147541
-0.328804 -0.033403 0.120867
-0.229901 -0.068567 0.139192
-0.204857 -0.072533 0.136048
-0.225194 -0.065000 0.141904
-0.187529 -0.059671 0.140566
-0.182271 -0.067557 0.140488
-0.209739 -0.065646 0.141106
-0.214943 -0.064712 0.140609
-0.195056 -0.069968 0.133298
-0.211784 -0.071241 0.135115
-0.204303 -0.056471 0.139730
-0.210602 -0.053823 0.140945
-0.222272 -0.063835 0.140371
-0.192044 -0.066653 0.140319
-0.217245 -0.059242 0.141088
-0.199412 -0.065703 0.139934
-0.209840 -0.063431 0.130582
-0.203659 -0.068305 0.139914
-0.198526 -0.053846 0.138902
-0.221629 -0.066750 0.135015
-0.230339 -0.059199 0.140879
-0.212136 -0.068120 0.138659
-0.217387 -0.071667 0.137646
-0.205557 -0.063362 0.140736
-0.235544 -0.063082 0.141776
-0.196429 -0.068661 0.139122
-0.198048 -0.061502 0.141586
-0.204808 -0.065325 0.140875
-0.190116 -0.063449 0.139118
-0.220640 -0.068891 0.140762
-0.210918 -0.059356 0.141390
-0.188410 -0.071485 0.138941
-0.221198 -0.052899 0.139287
-0.309567 -0.013698 0.109373
-0.285360 -0.020833 0.095756
-0.297234 -0.011522 0.100999
-0.273408 -0.011769 0.092894
-0.266582 -0.010667 0.098966
-0.287891 -0.010446 0.096617
-0.298586 -0.012180 0.115241
-0.275583 -0.011657 0.084151
-0.295895 -0.018048 0.089457
-0.289227 -0.011655 0.088323
-0.293121 -0.012417 0.099151
-0.293577 -0.012141 0.092860
-0.276677 -0.010204 0.100067
-0.298282 -0.011496 0.105836
-0.285087 -0.010664 0.091763
-0.287472 -0.011383 0.076762
-0.289779 -0.011879 0.102335
-0.283545 -0.011070 0.103162
-0.297537 -0.011871 0.081167
-0.307663 -0.012837 0.091395
-0.290356 -0.010806 0.118197
-0.295899 -0.035530 0.100859
-0.291050 -0.011061 0.109449
-0.316169 -0.012166 0.099059
-0.288632 -0.024496 0.109485
-0.284044 -0.010725 0.097028
-0.286168 -0.010325 0.109607
-0.276979 -0.009417 0.111582
-0.301681 -0.012764 0.096339
-0.291789 -0.010399 0.103979
-0.273781 -0.015978 0.103774
-0.305185 -0.011398 0.102159
-0.206598 -0.069792 0.134390
-0.172554 -0.075853 0.132556
-0.202213 -0.062095 0.136949
-0.149461 -0.053791 0.137672
-0.142284 -0.066684 0.138794
-0.179303 -0.064250 0.137160
-0.187487 -0.060390 0.138011
-0.162177 -0.070989 0.136357
-0.181506 -0.071836 0.135064
-0.170717 -0.050438 0.137532
-0.182222 -0.046499 0.136540
-0.197175 -0.058510 0.134842
-0.155036 -0.065874 0.136922
-0.190317 -0.051860 0.137804
-0.164050 -0.062486 0.138189
-0.180434 -0.057817 0.137742
-0.170451 -0.069399 0.136865
-0.161893 -0.047011 0.136469
-0.190781 -0.065694 0.136061
-0.207014 -0.051701 0.136094
-0.180380 -0.067303 0.136854
-0.189182 -0.074660 0.133313
-0.170857 -0.058511 0.138337
-0.213647 -0.059087 0.136324
-0.160344 -0.073037 0.137195
-0.161582 -0.055622 0.138197
-0.171150 -0.064279 0.138669
-0.151688 -0.060039 0.138384
-0.193667 -0.070118 0.134995
-0.179320 -0.052599 0.137991
-0.149554 -0.073705 0.136124
-0.198070 -0.044532 0.136078
-0.321053 -0.068123 0.117012
-0.277235 -0.078182 0.099274
-0.310811 -0.054376 0.108257
-0.250871 -0.033700 0.098306
-0.242555 -0.047571 0.106379
-0.290224 -0.054527 0.097739
-0.304852 -0.046085 0.124086
-0.263042 -0.064242 0.087532
-0.292530 -0.071396 0.088381
-0.281731 -0.027502 0.095251
-0.291001 -0.027821 0.107431
-0.304147 -0.041529 0.097208
-0.259434 -0.054585 0.103300
-0.309125 -0.031899 0.115345
-0.272835 -0.050315 0.092783
-0.288251 -0.039598 0.083421
-0.276640 -0.063751 0.108732
-0.265505 -0.022227 0.110730
-0.307268 -0.055417 0.086741
-0.322682 -0.030336 0.093162
-0.293286 -0.061529 0.128576
-0.299432 -0.079512 0.107516
-0.274434 -0.037778 0.115457
-0.327672 -0.046762 0.103279
-0.277286 -0.074372 0.121136
-0.267062 -0.038263 0.103640
-0.284441 -0.050734 0.114156
-0.259661 -0.047138 0.123761
-0.312088 -0.066930 0.097250
-0.288031 -0.027451 0.124177
-0.253902 -0.068431 0.113575
-0.307410 -0.016322 0.105402
-0.242822 -0.018929 0.141206
-0.220577 -0.023647 0.139884
-0.235959 -0.015221 0.142133
-0.204450 -0.015620 0.135746
-0.197337 -0.016374 0.140045
-0.220728 -0.014680 0.140012
-0.228811 -0.017756 0.140484
-0.209810 -0.015479 0.130259
-0.228340 -0.019580 0.135900
-0.220638 -0.013342 0.132354
-0.226881 -0.015149 0.137368
-0.233287 -0.014405 0.137691
-0.208735 -0.016611 0.140375
-0.230509 -0.015224 0.139868
-0.218115 -0.015427 0.137417
-0.225372 -0.013506 0.123169
-0.218774 -0.017323 0.141732
-0.216289 -0.015146 0.136771
-0.234801 -0.013663 0.129576
-0.243096 -0.014289 0.135659
-0.225839 -0.020338 0.139055
-0.232068 -0.026424 0.141874
-0.223504 -0.015770 0.139888
-0.248878 -0.014119 0.140055
-0.213546 -0.021469 0.140361
-0.214546 -0.016199 0.139778
-0.218374 -0.015491 0.141120
-0.207670 -0.015594 0.138304
-0.233692 -0.016785 0.141013
-0.225797 -0.015161 0.139485
-0.204267 -0.020436 0.141916
-0.238685 -0.013095 0.136793
-0.243476 -0.016122 0.140829
-0.206866 -0.016820 0.135114
-0.229139 -0.013038 0.136857
-0.174096 -0.014372 0.120961
-0.160357 -0.013934 0.134604
-0.206233 -0.013454 0.127261
-0.222960 -0.017426 0.140651
-0.184677 -0.012351 0.103173
-0.220688 -0.013802 0.114490
-0.207879 -0.012927 0.111032
-0.216643 -0.014516 0.131252
-0.223849 -0.012347 0.124423
-0.183010 -0.014619 0.133091
-0.226136 -0.015033 0.138660
-0.199170 -0.013769 0.118638
-0.210142 -0.011901 0.092244
-0.199300 -0.014345 0.138628
-0.194779 -0.015255 0.136566
-0.230426 -0.011573 0.100000
-0.242387 -0.012673 0.118038
-0.214312 -0.019596 0.137960
-0.223636 -0.020014 0.140480
-0.209025 -0.014063 0.139738
-0.250185 -0.013259 0.134473
-0.194503 -0.018015 0.141693
-0.194580 -0.014334 0.130570
-0.204150 -0.014316 0.139381
-0.182736 -0.015560 0.136584
-0.231786 -0.013723 0.128726
-0.214594 -0.013302 0.139933
-0.174463 -0.016891 0.141014
-0.238684 -0.011742 0.133611
-0.204964 -0.030842 0.136664
-0.165998 -0.041153 0.139199
-0.192186 -0.020905 0.136914
-0.142578 -0.013326 0.135952
-0.138141 -0.023066 0.141212
-0.168832 -0.021916 0.138539
-0.178961 -0.021526 0.138200
-0.156952 -0.025486 0.134265
-0.176305 -0.031406 0.135801
-0.165096 -0.007764 0.133596
-0.174252 -0.009421 0.134698
-0.186218 -0.017424 0.133815
-0.151611 -0.024213 0.138827
-0.182526 -0.013705 0.136149
-0.160795 -0.019880 0.137571
-0.174680 -0.013890 0.131342
-0.163235 -0.027716 0.140892
-0.154808 -0.007666 0.134721
-0.185006 -0.023357 0.132035
-0.203068 -0.012104 0.131740
-0.172155 -0.027915 0.138527
-0.184090 -0.039771 0.137657
-0.163062 -0.017307 0.137522
-0.215505 -0.020844 0.136713
-0.154899 -0.035180 0.141091
-0.157655 -0.013679 0.138863
-0.163110 -0.022518 0.139434
-0.150622 -0.018334 0.138793
-0.187857 -0.030555 0.137136
-0.170306 -0.014065 0.138171
-0.146307 -0.032092 0.140573
-0.189660 -0.004400 0.130381
-0.213707 -0.040470 0.138741
-0.189052 -0.049351 0.138123
-0.210558 -0.033094 0.140511
-0.171992 -0.023697 0.140159
-0.167730 -0.035645 0.141190
-0.193152 -0.033244 0.140784
-0.198887 -0.030097 0.140288
-0.180923 -0.038919 0.138162
-0.195423 -0.043601 0.138051
-0.187704 -0.020554 0.139863
-0.194569 -0.017606 0.138835
-0.206896 -0.028902 0.138899
-0.176423 -0.034655 0.140697
-0.200719 -0.023386 0.140050
-0.183017 -0.031403 0.140614
-0.195630 -0.027467 0.135261
-0.188033 -0.041008 0.140398
-0.182021 -0.018250 0.138326
-0.203811 -0.034039 0.138123
-0.212895 -0.022053 0.139048
-0.195922 -0.038105 0.138907
-0.201669 -0.048745 0.138536
-0.189069 -0.028686 0.140052
-0.218784 -0.028179 0.140137
-0.180561 -0.044297 0.139715
-0.181591 -0.026108 0.140714
-0.187390 -0.033841 0.140637
-0.173687 -0.029145 0.139564
-0.203115 -0.039729 0.140495
-0.194600 -0.023827 0.139807
-0.172466 -0.042969 0.140414
-0.204753 -0.016479 0.137132
-0.334616 -0.087582 0.034308
-0.295115 -0.102478 0.029269
-0.322958 -0.072087 0.032318
-0.261623 -0.047639 0.032147
-0.247052 -0.070050 0.033309
-0.301245 -0.075146 0.031556
-0.309124 -0.065217 0.041782
-0.279372 -0.082322 0.025028
-0.301049 -0.087952 0.027670
-0.290063 -0.037000 0.028158
-0.303999 -0.035558 0.033196
-0.313902 -0.061882 0.030375
-0.279008 -0.071568 0.032998
-0.315797 -0.047913 0.034415
-0.290544 -0.068372 0.029069
-0.298360 -0.060674 0.024527
-0.292062 -0.081293 0.032497
-0.280278 -0.015502 0.034949
-0.309526 -0.074212 0.024774
-0.333288 -0.040417 0.031601
-0.303748 -0.078892 0.049220
-0.313217 -0.098161 0.033218
-0.292309 -0.057508 0.033712
-0.346284 -0.066398 0.033390
-0.289072 -0.090573 0.040143
-0.281894 -0.056686 0.033026
-0.296971 -0.069929 0.034305
-0.273333 -0.065211 0.038973
-0.318667 -0.083203 0.030612
-0.299819 -0.039498 0.042881
-0.267852 -0.090229 0.031886
-0.315273 -0.007047 0.032937
-0.175939 -0.071166 0.140044
-0.152175 -0.076966 0.136394
-0.169373 -0.068729 0.141340
-0.139253 -0.066925 0.137302
-0.133243 -0.072134 0.140203
-0.157665 -0.070352 0.137669
-0.163855 -0.068866 0.141124
-0.145793 -0.073233 0.123303
-0.161804 -0.074163 0.127210
-0.157905 -0.063176 0.129033
-0.161379 -0.063297 0.137324
-0.167807 -0.067714 0.135901
-0.143627 -0.071181 0.140643
-0.165485 -0.066295 0.140192
-0.152184 -0.069958 0.133866
-0.159461 -0.068318 0.115489
-0.154742 -0.071609 0.141446
-0.152268 -0.061338 0.138702
-0.170926 -0.069844 0.122658
-0.176775 -0.064589 0.133057
-0.160834 -0.072212 0.140602
-0.163480 -0.075874 0.137482
-0.158867 -0.068222 0.140793
-0.181543 -0.067390 0.138855
-0.147112 -0.072954 0.141378
-0.151363 -0.068040 0.140381
-0.154485 -0.068599 0.142810
-0.142861 -0.068815 0.141034
-0.167702 -0.072243 0.138129
-0.159836 -0.064846 0.140848
-0.138496 -0.075594 0.140964
-0.169634 -0.059462 0.136758
-0.223207 -0.072699 0.118768
-0.161645 -0.075623 0.088308
-0.200588 -0.072229 0.101682
-0.123980 -0.074462 0.078860
-0.114288 -0.074007 0.101230
-0.174882 -0.074182 0.084593
-0.198662 -0.069243 0.129173
-0.137432 -0.076401 0.062823
-0.188288 -0.075451 0.065912
-0.174179 -0.071266 0.071991
-0.182689 -0.071491 0.096183
-0.192230 -0.070888 0.080583
-0.134842 -0.073924 0.093173
-0.201632 -0.070046 0.114370
-0.154210 -0.075146 0.069637
-0.172025 -0.075113 0.057362
-0.154923 -0.070210 0.105768
-0.144488 -0.069082 0.112465
-0.200300 -0.074543 0.058452
-0.220627 -0.073003 0.074152
-0.181652 -0.069342 0.132086
-0.186474 -0.072422 0.099209
-0.162522 -0.068186 0.123346
-0.228867 -0.071698 0.093075
-0.157989 -0.074244 0.127492
-0.153742 -0.071685 0.088583
-0.172565 -0.071681 0.111694
-0.139382 -0.071279 0.124051
-0.211184 -0.075301 0.080893
-0.181484 -0.069349 0.120889
-0.127771 -0.077026 0.114059
-0.215518 -0.066311 0.101094
-0.338196 -0.091937 0.019346
-0.301775 -0.103921 0.017338
-0.325248 -0.079900 0.019046
-0.273472 -0.061408 0.017973
-0.260200 -0.078910 0.018931
-0.306369 -0.083192 0.018994
-0.310999 -0.076510 0.025397
-0.287900 -0.087815 0.012288
-0.307236 -0.092769 0.014977
-0.297588 -0.052179 0.015181
-0.308778 -0.052301 0.019853
-0.317699 -0.073429 0.017793
-0.288720 -0.079394 0.019840
-0.319084 -0.062638 0.020140
-0.298377 -0.077798 0.017224
-0.304414 -0.071522 0.009936
-0.298774 -0.087593 0.019064
-0.289836 -0.034913 0.020505
-0.315581 -0.082383 0.011490
-0.336924 -0.055831 0.018195
-0.308347 -0.086251 0.029717
-0.318560 -0.100447 0.019788
-0.300206 -0.071117 0.018918
-0.350616 -0.076987 0.019429
-0.296409 -0.093523 0.025171
-0.291907 -0.069011 0.019747
-0.302543 -0.079539 0.020849
-0.284573 -0.074825 0.022673
-0.323142 -0.088884 0.017722
-0.305343 -0.056804 0.026296
-0.279794 -0.093635 0.018272
-0.319377 -0.027733 0.018846
-0.351891 -0.090503 0.005044
-0.310519 -0.097807 -0.009297
-0.336611 -0.084404 -0.001059
-0.286691 -0.063365 -0.012273
-0.271099 -0.082886 -0.007598
-0.321634 -0.088328 -0.008429
-0.330044 -0.081077 0.014987
-0.296940 -0.090224 -0.027913
-0.321397 -0.094353 -0.021293
-0.314374 -0.051733 -0.019929
-0.323027 -0.054450 -0.003826
-0.329895 -0.073703 -0.010682
-0.298450 -0.085671 -0.006321
-0.340181 -0.061044 0.001784
-0.310964 -0.082323 -0.014981
-0.317639 -0.074604 -0.034544
-0.310341 -0.090251 -0.003236
-0.300354 -0.041271 -0.001667
-0.338144 -0.086330 -0.030050
-0.355915 -0.054848 -0.014259
-0.322595 -0.089857 0.027814
-0.330111 -0.098218 -0.003108
-0.311539 -0.071593 0.002649
-0.366970 -0.077722 -0.007566
-0.311191 -0.093600 0.011826
-0.306959 -0.069166 -0.006418
-0.319114 -0.083619 0.001575
-0.296397 -0.080206 0.013305
-0.343026 -0.093425 -0.012649
-0.320413 -0.055269 0.013631
-0.291454 -0.094722 -0.001223
-0.337974 -0.031020 -0.006511
-0.346090 -0.012092 0.098935
-0.289100 -0.004913 0.069837
-0.317127 -0.010795 0.072534
-0.241049 -0.001382 0.045315
-0.229525 -0.001550 0.076243
-0.285461 -0.007753 0.055100
-0.315469 -0.013717 0.109731
-0.254931 -0.001407 0.024445
-0.308454 -0.007561 0.034798
-0.289128 -0.004264 0.035297
-0.299798 -0.007880 0.072523
-0.302743 -0.007209 0.052219
-0.251443 -0.003213 0.070313
-0.319727 -0.009242 0.092443
-0.272498 -0.007922 0.042679
-0.289278 -0.003388 0.012735
-0.269998 -0.004499 0.079884
-0.262077 -0.002512 0.088933
-0.317993 -0.010772 0.017083
-0.339900 -0.010845 0.035746
-0.296556 -0.007823 0.119177
-0.304099 -0.006654 0.082285
-0.283122 -0.006279 0.100931
-0.354483 -0.011814 0.067378
-0.278042 -0.006391 0.114644
-0.266887 -0.002233 0.057895
-0.285261 -0.006318 0.089991
-0.256854 -0.006851 0.112557
-0.328038 -0.010158 0.056089
-0.294053 -0.009382 0.094954
-0.244989 -0.002941 0.093453
-0.337064 -0.012178 0.077947
-0.271221 -0.078305 0.091632
-0.216065 -0.080467 0.069469
-0.253057 -0.065541 0.081371
-0.173873 -0.056271 0.066777
-0.159163 -0.060311 0.079416
-0.230433 -0.066178 0.069074
-0.249633 -0.064954 0.101670
-0.188480 -0.072324 0.050163
-0.234991 -0.078500 0.053034
-0.221677 -0.050537 0.063208
-0.231779 -0.053196 0.081071
-0.245340 -0.058304 0.065919
-0.186944 -0.063232 0.075371
-0.253320 -0.055184 0.091185
-0.207296 -0.063416 0.058457
-0.225239 -0.059471 0.046003
-0.210545 -0.067000 0.082436
-0.192807 -0.048632 0.085029
-0.250968 -0.068202 0.046212
-0.268668 -0.057906 0.061757
-0.232556 -0.069225 0.107824
-0.245388 -0.082324 0.082355
-0.211741 -0.056425 0.094695
-0.280813 -0.065204 0.075695
-0.213877 -0.076016 0.098605
-0.204667 -0.054432 0.074479
-0.227541 -0.063523 0.088725
-0.189334 -0.062626 0.102861
-0.261218 -0.077211 0.066363
-0.232008 -0.051870 0.097369
-0.177930 -0.076459 0.086739
-0.258501 -0.048618 0.078903
-0.377744 -0.073861 0.010421
-0.319290 -0.089948 -0.024239
-0.360263 -0.060955 -0.009074
-0.304057 -0.040761 -0.033592
-0.292473 -0.055636 -0.008128
-0.341621 -0.064055 -0.025155
-0.361605 -0.054362 0.026020
-0.310776 -0.073354 -0.054838
-0.338244 -0.082940 -0.045899
-0.337730 -0.029306 -0.042179
-0.343983 -0.037515 -0.008544
-0.354310 -0.047051 -0.030434
-0.307792 -0.068878 -0.021782
-0.374059 -0.036688 0.007726
