-0.231560 -0.366683 0.212581
-0.202347 -0.374276 0.202097
-0.168750 -0.379479 0.212522
-0.217183 -0.295296 0.211572
-0.139511 -0.379917 0.212289
-0.210465 -0.266869 0.206426
-0.111626 -0.380448 0.211901
-0.204113 -0.229945 0.205550
-0.199002 -0.180557 0.212843
-0.062973 -0.372367 0.208459
-0.187911 -0.140473 0.205894
-0.020646 -0.372256 0.207089
-0.179149 -0.092429 0.206519
-0.176499 -0.060636 0.212432
0.022178 -0.379940 0.212021
-0.169912 -0.029225 0.211851
0.066061 -0.380856 0.211373
-0.168117 0.009724 0.212887
0.098714 -0.372192 0.208059
-0.165476 -0.017946 0.169729
-0.158623 0.021539 0.192041
-0.146677 -0.005851 0.185930
-0.157879 0.049051 0.188020
0.136163 -0.373091 0.210138
-0.114765 -0.013387 0.183688
-0.151253 0.084028 0.187590
-0.155367 0.038137 0.148279
-0.150723 0.142574 0.187916
-0.149542 0.069633 0.156735
-0.062881 -0.001843 0.186932
-0.119234 -0.013844 0.134741
-0.146741 0.101171 0.158546
-0.152505 0.189796 0.186822
-0.156039 0.034842 0.114225
-0.025064 -0.005383 0.186898
-0.146250 0.129245 0.154218
-0.159146 0.229857 0.187249
-0.148211 0.167921 0.166827
-0.150462 0.063171 0.118050
-0.124356 -0.014168 0.102081
-0.046533 -0.009283 0.158261
-0.146626 0.102915 0.130331
-0.181016 0.300792 0.187585
0.002736 -0.005283 0.185231
-0.147730 0.162699 0.139134
-0.203405 0.373698 0.187990
-0.163750 0.264732 0.170804
-0.155796 0.035663 0.074265
0.237559 -0.349626 0.184826
-0.150248 0.064279 0.088451
-0.185125 0.338969 0.180596
-0.152094 0.202624 0.145711
-0.130642 -0.014566 0.061994
-0.157393 0.234664 0.151659
-0.146199 0.132643 0.111215
-0.050840 -0.009557 0.117833
-0.208614 0.380815 0.161832
0.237559 -0.299888 0.184826
-0.151984 0.052871 0.056329
0.054384 -0.001695 0.185608
-0.177036 0.314466 0.153182
-0.211714 -0.382767 -0.199111
-0.146108 0.113893 0.086379
-0.229211 -0.356353 -0.201841
-0.168075 0.282650 0.140002
-0.135353 -0.014863 0.031954
0.015798 -0.005375 0.146408
-0.152046 0.202660 0.112069
0.231709 -0.250927 0.187212
-0.155541 0.036525 0.032375
-0.157465 0.235356 0.118140
-0.148769 0.175980 0.089511
-0.185679 -0.378159 -0.201580
-0.190437 0.353600 0.135128
-0.148675 0.074440 0.042998
-0.055409 -0.009847 0.074951
-0.210987 0.372420 0.126843
-0.221838 -0.314739 -0.201814
-0.146489 0.103351 0.055217
-0.165968 0.274570 0.112351
0.235381 -0.212174 0.186776
-0.141267 -0.015237 -0.005756
0.103462 0.008155 0.186931
-0.146958 0.153582 0.060091
0.013415 -0.005528 0.107095
-0.155342 0.037199 -0.000395
-0.215144 -0.283640 -0.202381
-0.157539 0.236075 0.083225
-0.173692 0.303457 0.097113
0.074091 -0.001720 0.144601
-0.152168 0.203948 0.066609
0.235381 -0.162423 0.186776
-0.218488 0.377301 0.092011
-0.147702 0.084405 0.011279
-0.190257 0.353283 0.095812
-0.146428 -0.015564 -0.038663
-0.145990 0.114146 0.018130
0.146690 0.004731 0.186137
-0.060892 -0.010195 0.023487
-0.146439 0.143479 0.028647
0.231709 -0.121795 0.187212
-0.207853 -0.242573 -0.202334
-0.149737 0.185240 0.042186
-0.181503 0.328863 0.081541
-0.127964 -0.372460 -0.205493
-0.149516 0.068061 -0.012534
-0.165612 0.273355 0.067127
-0.155135 0.037898 -0.034397
-0.153838 0.215306 0.044379
-0.174000 0.304701 0.066243
0.010894 -0.005689 0.065485
-0.221002 0.376063 0.059151
0.073394 -0.001767 0.106861
0.231709 -0.071903 0.187212
-0.151814 -0.015904 -0.073009
-0.191074 0.355525 0.064435
-0.200616 -0.201811 -0.202286
-0.158803 0.242856 0.035251
-0.146703 0.150107 0.000996
-0.081003 -0.381598 -0.203736
-0.064768 -0.010441 -0.012892
0.196426 0.007570 0.185849
-0.183730 0.335507 0.048654
-0.154311 0.218728 0.017031
-0.146160 0.108226 -0.026862
-0.150165 0.189355 0.003769
0.008904 -0.005817 0.032646
-0.149223 0.069569 -0.052800
0.231156 -0.092151 0.152248
-0.169559 0.288991 0.027024
0.072846 -0.001803 0.077180
-0.195161 0.365612 0.040281
-0.193433 -0.161349 -0.202239
0.128433 0.001686 0.115894
-0.157442 -0.016260 -0.108892
0.177200 0.004747 0.149859
-0.152861 0.047920 -0.080007
0.238446 -0.022063 0.177307
-0.068836 -0.010699 -0.051071
-0.164741 0.270066 0.003263
-0.152842 0.209292 -0.015267
-0.146184 0.140486 -0.044297
-0.148935 0.179419 -0.029192
-0.181309 0.328614 0.012523
-0.034009 -0.372351 -0.206245
-0.164765 -0.016546 -0.134773
-0.171872 0.297647 0.003206
-0.186048 -0.116209 -0.201942
-0.146362 0.101667 -0.068199
-0.158282 0.240727 -0.014043
0.238493 -0.049759 0.146889
0.216519 0.016793 0.154399
-0.006937 -0.379400 -0.202178
0.224643 -0.086476 0.108425
0.072078 -0.001855 0.035625
-0.189316 0.351179 -0.004865
-0.178295 0.319302 -0.013152
-0.169247 0.288101 -0.022989
-0.146655 0.151416 -0.068457
-0.148827 0.071608 -0.107269
-0.073110 -0.010970 -0.091186
-0.160882 0.253398 -0.039221
-0.154106 0.218084 -0.051090
-0.153525 0.044544 -0.130688
0.238473 -0.010671 0.133333
0.004643 -0.006090 -0.037657
-0.148814 0.178936 -0.070362
-0.146066 0.139582 -0.092303
-0.164759 -0.016940 -0.181064
-0.172583 -0.046665 -0.202481
0.029846 -0.372266 -0.205943
0.214264 0.017344 0.115633
0.238558 -0.042072 0.105459
-0.191731 0.357512 -0.035480
-0.148644 0.072554 -0.132517
-0.146175 0.104352 -0.117419
-0.076082 -0.011159 -0.119080
0.220150 -0.093031 0.063968
-0.155423 0.035712 -0.158585
-0.181690 0.329986 -0.044840
-0.171885 0.298013 -0.054379
-0.161732 0.257701 -0.069616
-0.153288 0.213002 -0.086503
0.064164 -0.381740 -0.203988
-0.146766 0.155464 -0.117971
-0.149185 0.182554 -0.107599
-0.148455 0.073525 -0.158439
0.236777 -0.001575 0.093743
-0.145705 0.115104 -0.142660
-0.155125 0.041016 -0.185119
0.218605 -0.081726 0.036218
-0.173351 0.303274 -0.085846
-0.193244 0.361378 -0.078525
-0.146162 0.143360 -0.143099
-0.182690 0.333102 -0.087846
0.238635 -0.040456 0.056055
-0.215712 0.374184 -0.097657
0.218038 -0.093257 0.014049
0.222421 0.014633 0.066700
0.238614 -0.011241 0.066231
-0.159033 0.245109 -0.116662
0.109149 -0.372179 -0.206628
-0.150643 0.195314 -0.140883
-0.146237 0.103152 -0.183037
-0.169385 0.289218 -0.119808
-0.154981 0.223802 -0.138517
-0.192002 0.358477 -0.114782
-0.146225 0.145828 -0.176267
0.238685 -0.041413 0.024542
0.218068 -0.091654 -0.013704
0.155457 -0.381567 -0.203891
-0.160755 0.253570 -0.143983
-0.210854 0.374851 -0.131532
-0.181897 0.330987 -0.131243
-0.148262 0.174885 -0.178292
-0.167741 0.283075 -0.144052
0.238685 -0.011596 0.024542
-0.154743 0.222767 -0.171242
0.221260 0.015238 0.012737
-0.173727 0.304961 -0.156264
0.219277 -0.093712 -0.046876
0.204593 -0.384721 -0.199759
-0.190713 0.355469 -0.152387
0.238728 -0.021968 -0.002881
-0.165064 0.272621 -0.174613
-0.159827 0.248859 -0.182988
0.238763 -0.049808 -0.025627
0.231481 -0.346035 -0.177636
0.238916 -0.378673 -0.193956
-0.173571 0.304185 -0.182896
-0.184839 0.339797 -0.180236
-0.202587 0.376837 -0.176811
0.237002 -0.001716 -0.022300
0.220160 0.015697 -0.028078
0.238449 -0.314528 -0.180350
0.221740 -0.081232 -0.079838
0.238791 -0.019127 -0.043181
0.238828 -0.047739 -0.067275
0.231481 -0.265739 -0.177636
0.224066 -0.093266 -0.101656
0.230498 0.008856 -0.061060
0.238838 -0.019531 -0.073426
0.238449 -0.234466 -0.180350
0.231481 -0.204562 -0.177636
0.238877 -0.041541 -0.098559
0.218440 0.016405 -0.090891
0.237155 -0.001812 -0.101182
0.238449 -0.165842 -0.180350
0.231214 -0.092059 -0.150214
0.238928 -0.049837 -0.131218
0.216643 0.016881 -0.132422
0.238449 -0.116280 -0.180350
0.238939 -0.020394 -0.137923
0.238449 -0.066718 -0.180350
0.225125 0.013347 -0.166847
0.239004 -0.017140 -0.179428
