0.178661 -0.384033 -0.202536
0.196985 -0.382135 -0.199079
0.220157 -0.385061 -0.202955
0.176411 -0.380405 -0.202208
-0.195399 0.304071 -0.142484
-0.189424 0.279095 -0.169361
-0.196404 0.310360 -0.164986
-0.202740 0.337003 -0.176749
-0.190699 0.312665 -0.176214
-0.198575 0.320228 -0.177331
-0.204247 0.334054 -0.134341
-0.190337 0.303087 -0.188303
-0.191374 0.290612 -0.184755
-0.205227 0.340730 -0.186870
-0.208610 0.339251 -0.166113
-0.202360 0.334573 -0.182106
-0.196466 0.299924 -0.174008
-0.206249 0.337673 -0.152268
-0.200498 0.324095 -0.185553
-0.199455 0.325356 -0.188045
-0.194938 0.292569 -0.163663
-0.211822 0.351052 -0.156709
-0.197932 0.310967 -0.186078
-0.210049 0.350111 -0.181107
-0.199745 0.313362 -0.132174
-0.189066 0.281013 -0.180750
-0.203506 0.329724 -0.160333
-0.201495 0.325485 -0.166265
-0.195838 0.286368 -0.146056
-0.203701 0.329524 -0.171649
-0.201210 0.317233 -0.152671
-0.201333 0.322828 -0.146507
-0.198577 0.304522 -0.181469
-0.206115 0.346556 -0.141367
-0.193254 0.302620 -0.158534
-0.208875 0.356997 -0.171940
-0.185582 0.348384 -0.131311
-0.184742 0.339982 -0.148624
-0.188092 0.352713 -0.147558
-0.197332 0.366055 -0.157438
-0.190407 0.352726 -0.157238
-0.190527 0.358608 -0.160045
-0.193729 0.361591 -0.127461
-0.188197 0.352031 -0.174780
-0.184982 0.345331 -0.168162
-0.196891 0.366085 -0.173283
-0.195577 0.366862 -0.147040
-0.194668 0.364420 -0.163043
-0.186719 0.345316 -0.153432
-0.195264 0.363439 -0.138437
-0.192656 0.361538 -0.167482
-0.192161 0.358215 -0.177151
-0.186528 0.346618 -0.144294
-0.200792 0.371368 -0.141971
-0.189306 0.354947 -0.169110
-0.199202 0.371259 -0.164824
-0.190881 0.354410 -0.126136
-0.183181 0.340283 -0.160842
-0.193355 0.361538 -0.144674
-0.191124 0.358183 -0.151193
-0.184823 0.341558 -0.136451
-0.193777 0.362175 -0.153156
-0.190550 0.356804 -0.141843
-0.192418 0.357440 -0.135232
-0.187604 0.350452 -0.162162
-0.198224 0.367733 -0.132591
-0.189031 0.351071 -0.138225
-0.201035 0.373883 -0.152106
0.238785 -0.030897 0.019423
0.238018 -0.036796 0.000555
0.238360 -0.027480 0.003108
0.235883 -0.014859 -0.006630
0.236950 -0.027880 -0.006928
0.238821 -0.022393 -0.011080
0.237226 -0.018333 0.022767
0.237686 -0.028755 -0.026509
0.237905 -0.033564 -0.018567
0.236508 -0.015953 -0.023047
0.237994 -0.015599 0.002404
0.237866 -0.017982 -0.013673
0.238522 -0.033695 -0.003547
0.237516 -0.018474 0.011131
0.237633 -0.021466 -0.019364
0.237376 -0.022646 -0.029160
0.238044 -0.032228 0.006805
0.235227 -0.011698 0.007908
0.237987 -0.026051 -0.018139
0.236889 -0.011546 -0.015821
0.237193 -0.025641 0.024330
0.238042 -0.038148 -0.009457
0.236897 -0.020684 0.005220
0.238263 -0.023631 -0.001553
0.237304 -0.036494 0.012705
0.237354 -0.019449 -0.004889
0.237822 -0.023260 0.008460
0.237154 -0.022933 0.016443
0.238219 -0.029620 -0.011389
0.236217 -0.013397 0.017496
0.237017 -0.028978 0.012322
0.235903 -0.009030 -0.001614
-0.189625 0.359290 -0.134714
-0.187968 0.349268 -0.150927
-0.192185 0.362304 -0.149971
-0.199331 0.368909 -0.161220
-0.192951 0.359594 -0.158708
-0.193869 0.365473 -0.162128
-0.197857 0.368076 -0.129545
-0.190863 0.358986 -0.176441
-0.188250 0.354862 -0.170065
-0.200478 0.371243 -0.175518
-0.199533 0.372015 -0.151537
-0.198291 0.369990 -0.165657
-0.189938 0.354140 -0.155154
-0.200692 0.369872 -0.140966
-0.195435 0.367002 -0.169381
-0.195796 0.364727 -0.180470
-0.190405 0.356250 -0.147171
-0.204488 0.374893 -0.145287
-0.193728 0.363577 -0.172529
-0.204128 0.375751 -0.167530
-0.194496 0.362147 -0.126981
-0.186329 0.350070 -0.163668
-0.196976 0.367538 -0.145883
-0.196666 0.367153 -0.154386
-0.188080 0.351062 -0.138222
-0.196342 0.367795 -0.155709
-0.193441 0.363688 -0.143137
-0.195184 0.362864 -0.136890
-0.191268 0.360627 -0.163798
-0.201256 0.372117 -0.135578
-0.191469 0.357802 -0.142128
-0.206595 0.378296 -0.153713
-0.164435 0.263804 -0.166383
-0.159384 0.253375 -0.176180
-0.163922 0.272159 -0.177304
-0.171774 0.287371 -0.178401
-0.166543 0.271233 -0.179196
-0.164654 0.275891 -0.181474
-0.166150 0.283413 -0.159100
-0.165155 0.267946 -0.184113
-0.161522 0.259555 -0.182652
-0.172336 0.289818 -0.183512
-0.170647 0.292532 -0.175645
-0.171325 0.287140 -0.183085
-0.163326 0.264602 -0.179451
-0.171363 0.288032 -0.169371
-0.169061 0.279244 -0.184287
-0.172221 0.282100 -0.183961
-0.160705 0.261520 -0.174520
-0.173903 0.297533 -0.170575
-0.168879 0.274292 -0.183877
-0.178636 0.297646 -0.184485
-0.164644 0.271159 -0.159204
-0.160845 0.253964 -0.180717
-0.168011 0.284247 -0.172294
-0.180896 0.276811 -0.179393
-0.160979 0.258473 -0.167923
-0.168517 0.279603 -0.179172
-0.165882 0.277170 -0.170985
-0.168440 0.278267 -0.166671
-0.169832 0.265907 -0.183762
-0.171171 0.292813 -0.163184
-0.163238 0.269840 -0.167231
-0.174349 0.302678 -0.180809
-0.175587 0.238347 -0.179686
-0.155530 0.222995 -0.182608
-0.175040 0.250531 -0.181159
-0.166730 0.264258 -0.179329
-0.159983 0.245815 -0.179921
-0.164261 0.250520 -0.183939
-0.171832 0.260440 -0.177763
-0.160645 0.241828 -0.181749
-0.160077 0.234304 -0.183153
-0.167055 0.270472 -0.180440
-0.171494 0.275781 -0.182030
-0.177028 0.264703 -0.183328
-0.159328 0.246010 -0.183320
-0.176470 0.270324 -0.181941
-0.163258 0.253877 -0.183409
-0.168003 0.259147 -0.180399
-0.160441 0.238086 -0.183188
-0.171102 0.278133 -0.180946
-0.169981 0.252009 -0.181801
-0.184431 0.275889 -0.182908
-0.164907 0.245008 -0.176679
-0.166192 0.226762 -0.180872
-0.165422 0.262645 -0.182369
-0.184810 0.256910 -0.179283
-0.156667 0.232402 -0.181003
-0.164375 0.259360 -0.182777
-0.164098 0.252607 -0.182663
-0.163034 0.257048 -0.180032
-0.170106 0.241451 -0.182674
-0.170012 0.269988 -0.178357
-0.155969 0.236672 -0.180942
-0.177865 0.287339 -0.182633
-0.038813 -0.006293 -0.133288
0.002899 -0.006936 -0.156650
-0.023493 -0.007138 -0.152440
0.029414 -0.006788 -0.166566
0.038226 -0.006108 -0.152381
-0.004439 -0.006692 -0.161353
-0.021340 -0.006889 -0.125351
0.020628 -0.008487 -0.169168
-0.016174 -0.008703 -0.166581
-0.000614 -0.006293 -0.166700
-0.012038 -0.007320 -0.152932
-0.019069 -0.006925 -0.161801
0.024391 -0.004601 -0.152681
-0.024395 -0.006219 -0.140182
0.009471 -0.007835 -0.167374
-0.002095 -0.007323 -0.174189
0.006781 -0.005723 -0.149771
0.015462 -0.008339 -0.141883
-0.023269 -0.006999 -0.173544
-0.040317 -0.005598 -0.169370
-0.005665 -0.005291 -0.114831
-0.010089 -0.008516 -0.149023
-0.000639 -0.005233 -0.133423
-0.046245 -0.005836 -0.158972
0.003961 -0.006865 -0.125362
0.013080 -0.005006 -0.160021
0.001708 -0.005137 -0.139773
0.020769 -0.006134 -0.127493
-0.031857 -0.007129 -0.161291
-0.008662 -0.005729 -0.137997
0.028559 -0.007321 -0.140378
-0.037546 -0.006781 -0.149987
0.206604 -0.383274 -0.195827
0.229431 -0.385956 -0.199432
0.214183 -0.383012 -0.196880
0.233100 -0.381104 -0.198350
0.236878 -0.381957 -0.197490
0.227953 -0.383380 -0.198369
0.222557 -0.382486 -0.195140
0.232820 -0.382879 -0.201155
0.224819 -0.382999 -0.199034
0.229774 -0.379677 -0.197474
0.223517 -0.381261 -0.197156
0.219737 -0.384582 -0.198425
0.232921 -0.381762 -0.197985
0.220435 -0.381952 -0.195984
0.230242 -0.383554 -0.199731
0.227801 -0.383762 -0.200444
0.228606 -0.381158 -0.197448
0.231882 -0.379167 -0.195682
0.219437 -0.383808 -0.200459
0.209797 -0.382540 -0.198947
0.224561 -0.381426 -0.197020
0.220466 -0.384278 -0.198619
0.228475 -0.382508 -0.197516
0.195194 -0.383712 -0.196563
0.230831 -0.380995 -0.198020
0.229477 -0.383052 -0.198606
0.227924 -0.382638 -0.195882
0.230340 -0.380922 -0.196125
0.213833 -0.384531 -0.197928
0.226160 -0.381299 -0.196437
0.233084 -0.383171 -0.197565
0.216108 -0.378942 -0.198382
-0.043897 -0.006506 -0.141098
0.003949 -0.005985 -0.160102
-0.028747 -0.007376 -0.157056
0.038048 -0.006226 -0.168265
0.049994 -0.005671 -0.158108
-0.004337 -0.006659 -0.163106
-0.022348 -0.006697 -0.135044
0.027484 -0.008513 -0.168872
-0.016265 -0.008379 -0.166398
0.002787 -0.006603 -0.166932
-0.013513 -0.007459 -0.156123
-0.022590 -0.007425 -0.162744
0.032186 -0.003792 -0.155835
-0.027389 -0.006122 -0.146309
0.012977 -0.009094 -0.168018
-0.002130 -0.007708 -0.172712
0.011410 -0.005604 -0.156381
0.022305 -0.008247 -0.147472
-0.026914 -0.007634 -0.171719
-0.047624 -0.005626 -0.169860
-0.004508 -0.005049 -0.127017
-0.011994 -0.006691 -0.153691
0.001869 -0.004663 -0.141246
-0.054753 -0.005548 -0.162615
0.010215 -0.005003 -0.133835
0.018784 -0.004874 -0.162917
0.003289 -0.005300 -0.148234
0.028808 -0.005864 -0.137146
-0.036251 -0.007885 -0.164360
-0.007178 -0.005873 -0.144823
0.038576 -0.006262 -0.149131
-0.043872 -0.007264 -0.154784
0.126108 -0.007925 -0.018833
0.170324 -0.008268 -0.040884
0.141183 -0.001937 -0.036645
0.193181 0.006289 -0.057701
0.198292 0.005925 -0.034904
0.162694 -0.000498 -0.052101
0.143448 -0.001936 -0.007576
0.182673 -0.004555 -0.066864
0.151389 -0.009197 -0.060775
0.165686 0.006190 -0.061921
0.157359 0.002901 -0.037682
0.149097 0.001347 -0.055070
0.189308 0.002367 -0.042585
0.139981 0.001150 -0.022424
0.177188 0.000904 -0.060321
0.162040 0.001637 -0.077328
0.173049 -0.000108 -0.031055
0.183227 0.005881 -0.027210
0.141514 -0.002770 -0.073474
0.125033 -0.000397 -0.062542
0.158331 -0.000171 0.002018
0.149336 -0.011184 -0.033427
0.169379 0.004813 -0.015961
0.116314 -0.004040 -0.043114
0.167620 -0.006426 -0.007380
0.177413 0.005480 -0.047114
0.164667 0.000660 -0.020860
0.185527 0.002784 -0.006354
0.133036 -0.005655 -0.049858
0.159416 0.004718 -0.021702
0.188486 -0.003088 -0.021934
0.127790 0.001316 -0.034441
0.239448 -0.024459 0.016055
0.238762 -0.031010 -0.006518
0.238963 -0.020601 -0.003032
0.236093 -0.007321 -0.016242
0.237942 -0.020447 -0.014153
0.239256 -0.014843 -0.020288
0.237354 -0.010814 0.019478
0.238237 -0.021792 -0.037722
0.238761 -0.027751 -0.028859
0.236231 -0.008574 -0.034470
0.238305 -0.008247 -0.005043
0.237649 -0.010706 -0.022942
0.239454 -0.027008 -0.011860
0.237524 -0.010743 0.005725
0.238183 -0.013991 -0.029418
0.237641 -0.015097 -0.040757
0.239067 -0.025665 0.001103
0.234890 -0.004272 0.001790
0.238878 -0.019522 -0.029468
0.236293 -0.004527 -0.025698
0.238037 -0.018463 0.021694
0.239211 -0.032988 -0.017915
0.237175 -0.012727 -0.000731
0.238404 -0.016035 -0.008494
0.238458 -0.031015 0.008475
0.237911 -0.012364 -0.012857
0.238564 -0.016328 0.003142
0.237825 -0.015842 0.011333
0.239060 -0.022805 -0.020578
0.236001 -0.005477 0.012700
0.237726 -0.021892 0.007273
0.234994 -0.001941 -0.009051
0.238119 -0.049679 0.006882
0.235276 -0.052597 -0.015514
0.238085 -0.047802 -0.014020
0.237200 -0.036477 -0.026705
0.237183 -0.047867 -0.024074
0.238628 -0.045124 -0.030312
0.237804 -0.040949 0.012597
0.237091 -0.049343 -0.049075
0.237162 -0.051628 -0.039259
0.236862 -0.038153 -0.044632
0.238455 -0.037139 -0.015860
0.238287 -0.040726 -0.033227
0.237392 -0.052478 -0.021406
0.238347 -0.039807 -0.004306
0.237598 -0.043149 -0.039072
0.237424 -0.045260 -0.053085
0.237943 -0.050774 -0.008262
0.236376 -0.032942 -0.008744
0.237309 -0.048018 -0.041050
0.237836 -0.033974 -0.036926
0.236839 -0.047368 0.016376
0.236345 -0.054020 -0.028373
0.237643 -0.042480 -0.011683
0.236975 -0.046560 -0.020170
0.235701 -0.052622 -0.000004
0.237242 -0.040922 -0.023561
0.238160 -0.045192 -0.006062
0.237268 -0.045340 0.004043
0.236520 -0.050579 -0.031680
0.236398 -0.035357 0.004151
0.237206 -0.047820 -0.001784
0.236680 -0.029828 -0.020185
-0.022225 -0.008821 -0.127374
0.020757 -0.010877 -0.152911
-0.004071 -0.008245 -0.147418
0.045720 -0.008446 -0.163658
0.053411 -0.007145 -0.145960
0.013046 -0.008046 -0.158591
-0.003995 -0.008274 -0.117019
0.036666 -0.010374 -0.169039
0.000989 -0.011539 -0.165599
0.014964 -0.007598 -0.165362
0.005820 -0.008506 -0.148248
-0.000256 -0.008093 -0.159741
0.040391 -0.005949 -0.149077
-0.006075 -0.007712 -0.134301
0.026119 -0.008547 -0.165992
0.015194 -0.007824 -0.176061
0.022452 -0.006990 -0.143699
0.031108 -0.009774 -0.136833
-0.005308 -0.007940 -0.175353
-0.020386 -0.007206 -0.167682
0.010440 -0.007027 -0.104027
0.006484 -0.015264 -0.144459
0.016953 -0.006739 -0.125724
-0.027867 -0.008193 -0.155046
0.018228 -0.011312 -0.117550
0.028285 -0.006401 -0.155621
0.017384 -0.006551 -0.132217
0.035787 -0.008224 -0.118210
-0.013942 -0.008826 -0.157344
0.006912 -0.007205 -0.132488
0.043792 -0.010954 -0.133040
-0.018089 -0.008427 -0.144656
0.230590 -0.364398 -0.180914
0.231370 -0.378414 -0.182286
0.230061 -0.356665 -0.178940
0.231396 -0.338358 -0.178533
0.233924 -0.354606 -0.181356
0.231469 -0.353303 -0.179397
0.232633 -0.346259 -0.178862
0.230845 -0.361629 -0.184282
0.232061 -0.367946 -0.182950
0.230354 -0.335798 -0.179162
0.231479 -0.332746 -0.176638
0.230263 -0.343292 -0.179039
0.231895 -0.357885 -0.179629
0.229842 -0.340477 -0.178486
0.231948 -0.348587 -0.181116
0.231440 -0.346772 -0.182516
0.231384 -0.364978 -0.179687
0.229917 -0.328238 -0.176894
0.231374 -0.354559 -0.181283
0.229221 -0.329541 -0.179276
0.230672 -0.357311 -0.180126
0.230149 -0.372397 -0.181438
0.230866 -0.345395 -0.179320
0.228076 -0.350258 -0.180387
0.231664 -0.368307 -0.180906
0.231021 -0.341832 -0.178791
0.232161 -0.350784 -0.179247
0.231884 -0.347539 -0.180219
0.230993 -0.360775 -0.180090
0.230007 -0.336917 -0.178001
0.233325 -0.363897 -0.181730
0.230636 -0.319210 -0.178640
-0.031343 -0.006486 -0.146671
0.013987 -0.007102 -0.165119
-0.017021 -0.006880 -0.161383
0.044207 -0.006295 -0.171885
0.055133 -0.005542 -0.163022
0.005151 -0.006383 -0.166708
-0.010782 -0.006639 -0.140059
0.034175 -0.009235 -0.171426
-0.005070 -0.009146 -0.169498
0.012478 -0.006333 -0.169217
-0.002565 -0.006704 -0.160321
-0.011211 -0.006640 -0.166285
0.038776 -0.003936 -0.161188
-0.015308 -0.005697 -0.151325
0.021540 -0.008783 -0.171334
0.007626 -0.007828 -0.174911
0.019112 -0.005793 -0.160976
0.029396 -0.007976 -0.152970
-0.014785 -0.007775 -0.174039
-0.034032 -0.005146 -0.172595
0.005384 -0.004813 -0.131820
-0.001969 -0.007882 -0.158876
0.011332 -0.004355 -0.147189
-0.041699 -0.005434 -0.166474
0.018013 -0.005501 -0.140112
0.026701 -0.004511 -0.166500
0.012559 -0.004888 -0.152574
0.035597 -0.005673 -0.142757
-0.023959 -0.008343 -0.167807
0.003215 -0.005433 -0.148967
0.043871 -0.006903 -0.154911
-0.030256 -0.006729 -0.159591
0.157765 -0.000874 -0.016269
0.196147 -0.001056 -0.038579
0.173296 0.008190 -0.034790
0.209830 0.010421 -0.055831
0.211404 0.012601 -0.034276
0.190108 0.009246 -0.052173
0.171188 0.007621 -0.001614
0.202211 0.001571 -0.068725
0.178621 -0.002162 -0.061607
0.188820 0.010663 -0.064010
0.184536 0.009331 -0.038264
0.178064 0.009578 -0.055850
0.208492 0.009455 -0.040603
0.170458 0.008747 -0.021559
0.199839 0.010393 -0.060625
0.188176 0.009992 -0.080564
0.193751 0.008218 -0.029048
0.203110 0.010126 -0.026455
0.170115 0.007625 -0.075495
0.156868 0.007576 -0.062225
0.184856 0.009053 0.008224
0.179673 -0.003088 -0.035979
0.192501 0.011063 -0.012848
0.149084 0.004772 -0.042276
0.190248 0.000070 -0.005800
0.199320 0.012388 -0.045684
0.190800 0.009647 -0.017736
0.204454 0.009905 -0.003392
0.165190 0.004324 -0.048678
0.184671 0.010276 -0.020081
0.206714 0.001515 -0.019244
0.159926 0.008095 -0.033035
0.225903 -0.381301 -0.195258
0.234844 -0.385134 -0.196220
0.230579 -0.380709 -0.194537
0.237122 -0.375560 -0.195520
0.239805 -0.379137 -0.193800
0.235287 -0.382858 -0.196232
0.233216 -0.379888 -0.193475
0.236225 -0.381639 -0.198499
0.236121 -0.382260 -0.196393
0.236683 -0.370709 -0.195140
0.234812 -0.373103 -0.193502
0.232856 -0.380414 -0.196195
0.235815 -0.378822 -0.195829
0.231911 -0.377441 -0.194831
0.235136 -0.379378 -0.197191
0.235144 -0.378134 -0.197719
0.234148 -0.381382 -0.195081
0.236584 -0.365245 -0.193978
0.233257 -0.381742 -0.196909
0.230568 -0.373142 -0.194910
0.232375 -0.379582 -0.192941
0.230924 -0.383110 -0.196531
0.235174 -0.378773 -0.196554
0.221623 -0.381515 -0.193812
0.233531 -0.380459 -0.194425
0.235063 -0.379286 -0.194838
0.234321 -0.378852 -0.194287
0.235047 -0.378571 -0.193462
0.229929 -0.382669 -0.196235
0.233381 -0.373402 -0.192270
0.235261 -0.382560 -0.196289
0.233916 -0.362002 -0.196449
-0.189983 0.294583 -0.179651
-0.169943 0.280232 -0.182468
-0.190373 0.306196 -0.180557
-0.180657 0.318174 -0.178236
-0.173322 0.301042 -0.178909
-0.178718 0.305654 -0.183784
-0.186786 0.315526 -0.178242
-0.174453 0.297517 -0.181527
-0.174583 0.290592 -0.183512
-0.181679 0.323648 -0.179753
-0.186405 0.329178 -0.181379
-0.191969 0.318983 -0.183150
-0.172476 0.301630 -0.182666
-0.191015 0.324208 -0.181004
-0.176793 0.308999 -0.182842
-0.182581 0.313617 -0.180074
-0.174441 0.294539 -0.182976
-0.185206 0.330226 -0.179702
-0.185027 0.307428 -0.181953
-0.199428 0.329057 -0.181858
-0.179481 0.301050 -0.177390
-0.180722 0.283009 -0.181575
-0.179563 0.317373 -0.181781
-0.199069 0.312054 -0.178175
-0.170393 0.288601 -0.181535
-0.178047 0.313524 -0.182158
-0.178014 0.307778 -0.182814
-0.176509 0.311973 -0.179754
-0.183815 0.296732 -0.182466
-0.184310 0.323077 -0.178150
-0.169253 0.292055 -0.180817
-0.193278 0.338947 -0.181383
0.048388 -0.008855 -0.102322
0.102934 -0.008574 -0.123752
0.071471 -0.010269 -0.120697
0.137859 -0.009273 -0.135569
0.149569 -0.008719 -0.119805
0.096023 -0.009273 -0.132997
0.074225 -0.009497 -0.094657
0.126480 -0.007382 -0.151795
0.076390 -0.007944 -0.147381
0.091114 -0.008496 -0.142605
0.083996 -0.010872 -0.122729
0.077771 -0.009576 -0.135065
0.128910 -0.007640 -0.118398
0.070629 -0.009736 -0.109157
0.108734 -0.009419 -0.142005
0.096284 -0.008162 -0.158554
0.110991 -0.009222 -0.115911
0.118689 -0.010149 -0.106341
0.069472 -0.009392 -0.158814
0.049856 -0.009873 -0.145454
0.090345 -0.008456 -0.084912
0.084094 -0.013858 -0.115508
0.097915 -0.008882 -0.096919
0.040744 -0.011224 -0.128257
0.109293 -0.009359 -0.087513
0.114247 -0.008720 -0.128735
0.101574 -0.008972 -0.107822
0.127904 -0.009332 -0.092914
0.061442 -0.008826 -0.133118
0.086879 -0.008868 -0.107570
0.142461 -0.009292 -0.105267
0.053203 -0.011517 -0.118105
-0.197118 0.332058 -0.177816
-0.179470 0.318523 -0.181321
-0.196500 0.342066 -0.181257
-0.191573 0.349467 -0.177290
-0.185777 0.335918 -0.176523
-0.187073 0.340252 -0.183156
-0.192129 0.349675 -0.171788
-0.185347 0.333262 -0.181690
-0.184231 0.327330 -0.182788
-0.192334 0.355304 -0.180668
-0.193993 0.359316 -0.180611
-0.199852 0.352848 -0.183264
-0.183112 0.335716 -0.181901
-0.197998 0.356144 -0.178084
-0.188437 0.343109 -0.182475
-0.193662 0.347512 -0.180575
-0.183229 0.329141 -0.181396
-0.195089 0.360634 -0.176630
-0.195408 0.342003 -0.182131
-0.207733 0.360127 -0.182867
-0.184579 0.336249 -0.168580
-0.188309 0.319585 -0.182814
-0.188182 0.350275 -0.178816
-0.209548 0.345411 -0.180407
-0.180164 0.324349 -0.176784
-0.188902 0.346706 -0.181320
-0.186741 0.343067 -0.178355
-0.188274 0.344672 -0.171682
-0.195840 0.332414 -0.182793
-0.190830 0.356203 -0.170992
-0.181513 0.330495 -0.175943
-0.200965 0.366348 -0.181930
-0.217108 0.362710 -0.160991
-0.199158 0.349218 -0.178493
-0.211231 0.371054 -0.171429
-0.199076 0.370329 -0.177650
-0.195981 0.369228 -0.172621
-0.204924 0.372022 -0.178156
-0.213940 0.376366 -0.152678
-0.197206 0.361386 -0.180067
-0.207402 0.354542 -0.181667
-0.204650 0.375083 -0.179029
-0.209225 0.375750 -0.174558
-0.210120 0.375627 -0.179513
-0.198945 0.370902 -0.176305
-0.214212 0.376351 -0.164486
-0.200482 0.371234 -0.179858
-0.207371 0.369831 -0.182535
-0.207460 0.367222 -0.171719
-0.204206 0.376440 -0.169476
-0.210822 0.368439 -0.180294
-0.218275 0.375637 -0.177834
-0.207593 0.373058 -0.149135
-0.212161 0.346063 -0.178051
-0.206330 0.376844 -0.167270
-0.222191 0.367995 -0.169684
-0.208921 0.355106 -0.163690
-0.202082 0.375397 -0.174985
-0.206055 0.374406 -0.162243
-0.201000 0.373776 -0.161009
-0.215834 0.361482 -0.176514
-0.206493 0.378402 -0.160486
-0.198074 0.359042 -0.172446
-0.215289 0.379264 -0.167473
-0.071835 -0.064634 -0.171906
0.036814 -0.083288 -0.171464
-0.046099 -0.039446 -0.175528
0.116069 -0.020273 -0.181776
0.130519 -0.038380 -0.172243
0.016383 -0.040328 -0.177808
-0.009619 -0.036710 -0.171679
0.079941 -0.052108 -0.178237
0.006636 -0.068924 -0.173854
0.042479 -0.018646 -0.177808
0.000026 -0.019944 -0.177215
-0.026337 -0.026119 -0.181730
0.089413 -0.037987 -0.176120
-0.018818 -0.024876 -0.175450
0.053816 -0.035604 -0.180871
0.018267 -0.026040 -0.185210
0.046996 -0.048803 -0.173798
0.079391 -0.024013 -0.179719
-0.019849 -0.042877 -0.178644
-0.061477 -0.028584 -0.182128
0.009949 -0.052487 -0.156104
-0.018611 -0.083530 -0.172338
0.049220 -0.028233 -0.174008
-0.087596 -0.040823 -0.181601
0.059976 -0.063696 -0.164018
0.072925 -0.021110 -0.177002
0.031980 -0.039270 -0.175257
0.092606 -0.034598 -0.167914
-0.034375 -0.060274 -0.175148
0.018419 -0.025587 -0.173790
0.116624 -0.066213 -0.174971
-0.043543 -0.025354 -0.183025
0.238605 -0.008021 0.002389
0.238479 -0.014057 -0.014987
0.236809 -0.005095 -0.012881
0.232049 0.002811 -0.023700
0.235761 -0.006690 -0.021777
0.236197 -0.001923 -0.026102
0.234345 0.000880 0.006196
0.236699 -0.007119 -0.039213
0.238807 -0.010863 -0.032783
0.231869 0.003059 -0.036919
0.233802 0.002647 -0.014577
0.233336 0.001211 -0.028693
0.238126 -0.010856 -0.019290
0.233128 0.001581 -0.005754
0.235177 -0.001293 -0.032422
0.234709 -0.002680 -0.042465
0.238028 -0.009521 -0.010028
0.229722 0.005810 -0.009277
0.236273 -0.004208 -0.033443
0.231231 0.005627 -0.030006
0.235499 -0.004924 0.008121
0.238763 -0.013956 -0.025322
0.234136 -0.000475 -0.010544
0.236150 -0.002121 -0.017572
0.238689 -0.013328 -0.003026
0.234421 0.000513 -0.020442
0.235954 -0.002281 -0.006770
0.234687 -0.002454 0.000004
0.237001 -0.007337 -0.026273
0.231679 0.004851 0.000160
0.235901 -0.007344 -0.004295
0.230228 0.007594 -0.017441
0.203963 0.018523 -0.003682
0.217815 0.017729 -0.022362
0.209791 0.017954 -0.019038
0.222501 0.012409 -0.031503
0.222786 0.011916 -0.021553
0.217012 0.016673 -0.032089
0.208341 0.017958 0.003404
0.220812 0.014341 -0.043254
0.210370 0.017858 -0.039001
0.215440 0.016872 -0.039592
0.212511 0.017976 -0.025145
0.211696 0.017486 -0.035076
0.220456 0.014689 -0.020274
0.208707 0.018171 -0.011326
0.219871 0.015879 -0.035594
0.217266 0.016372 -0.049952
0.215163 0.016335 -0.013169
0.218455 0.015235 -0.013782
0.209557 0.018470 -0.046347
0.201950 0.017835 -0.037536
0.215462 0.016886 0.009887
0.215915 0.017584 -0.021332
0.212390 0.017972 -0.005572
0.198991 0.017416 -0.023834
0.216859 0.017012 0.000124
0.219187 0.016706 -0.027832
0.219686 0.016223 -0.005731
0.221597 0.013800 0.001041
0.206938 0.018603 -0.028793
0.216223 0.016596 -0.011766
0.223304 0.011298 -0.009589
0.204324 0.019121 -0.015632
0.217277 0.016922 0.004554
0.226955 0.011389 -0.016096
0.219773 0.015554 -0.013233
0.229323 0.007642 -0.028918
0.230379 0.005818 -0.017656
0.224812 0.012900 -0.028851
0.216857 0.016118 0.012374
0.229045 0.008756 -0.042781
0.222307 0.013994 -0.037304
0.222790 0.013911 -0.039393
0.220668 0.015494 -0.020478
0.220226 0.014770 -0.033307
0.227890 0.008637 -0.016253
0.216912 0.016701 -0.004634
0.227687 0.010921 -0.033908
0.225006 0.012776 -0.049526
0.224453 0.011567 -0.008018
0.222895 0.012268 -0.007615
0.218946 0.015694 -0.043033
0.213365 0.017526 -0.034518
0.224808 0.012175 0.017758
0.227652 0.012461 -0.021892
0.222224 0.014545 0.000105
0.213095 0.017671 -0.020497
0.226794 0.011018 0.006665
0.227152 0.012665 -0.023689
0.226979 0.012312 0.000400
0.228627 0.008891 0.008150
0.218934 0.015649 -0.026057
0.222007 0.013895 -0.002032
0.229651 0.006213 -0.002157
0.214417 0.018374 -0.011369
0.212815 0.018553 0.005407
0.222876 0.014399 -0.015179
0.216034 0.017291 -0.012755
0.227221 0.009565 -0.028210
0.227522 0.008259 -0.016246
0.222106 0.014458 -0.027992
0.213513 0.017684 0.013906
0.226233 0.011259 -0.041854
0.217716 0.015812 -0.036648
0.220601 0.015532 -0.038158
0.217786 0.016642 -0.020216
0.217730 0.016141 -0.032812
0.224912 0.010981 -0.014905
0.214162 0.017956 -0.003593
0.225057 0.012820 -0.032975
0.222283 0.014692 -0.048735
0.220845 0.013875 -0.006765
0.221513 0.013860 -0.006723
0.215545 0.016935 -0.042801
0.210193 0.018043 -0.034102
0.221480 0.014548 0.020429
0.223653 0.015196 -0.019240
0.218998 0.016319 0.002052
0.209276 0.018316 -0.019620
0.222669 0.013833 0.009109
0.224503 0.014757 -0.022947
0.224126 0.014429 0.002193
0.226320 0.011310 0.010239
0.214901 0.016933 -0.025282
0.220146 0.015136 -0.001419
0.226947 0.008661 -0.000604
0.211803 0.019334 -0.010251
0.162741 0.004008 -0.025974
0.197988 0.003905 -0.047233
0.177485 0.007898 -0.044792
0.213079 0.010781 -0.062928
0.214932 0.011543 -0.043880
0.194669 0.008867 -0.059413
0.177387 0.007989 -0.015055
0.206387 0.006061 -0.073429
0.184036 0.002487 -0.068019
0.195007 0.011090 -0.070215
0.188694 0.009248 -0.048125
0.183561 0.008648 -0.062688
0.211563 0.009882 -0.049605
0.175474 0.009032 -0.031604
0.204134 0.008997 -0.066432
0.193570 0.009302 -0.084144
0.199774 0.008798 -0.038611
0.206614 0.010189 -0.036542
0.176815 0.006608 -0.079722
0.162233 0.007654 -0.069256
0.190227 0.009462 -0.007120
0.184564 0.002093 -0.042910
0.195717 0.010971 -0.025435
0.154552 0.005878 -0.050184
0.195667 0.004590 -0.017441
0.203934 0.011553 -0.054459
0.196118 0.009110 -0.028753
0.208138 0.010112 -0.017814
0.170528 0.005595 -0.056466
0.191730 0.010864 -0.032064
0.209797 0.005995 -0.030613
0.165610 0.009043 -0.041752
0.236634 -0.340218 -0.180578
0.238215 -0.357803 -0.182081
0.237636 -0.331787 -0.179119
0.235290 -0.306903 -0.180389
0.235871 -0.326832 -0.181476
0.238248 -0.324659 -0.181492
0.235158 -0.316529 -0.179483
0.236090 -0.335287 -0.183922
0.238218 -0.344809 -0.183774
0.235113 -0.303848 -0.180950
0.237946 -0.300864 -0.177864
0.236464 -0.311168 -0.181612
0.237456 -0.332585 -0.181328
0.234609 -0.309243 -0.178470
0.236793 -0.318262 -0.182407
0.234335 -0.316240 -0.183479
0.238698 -0.341437 -0.180315
0.235077 -0.294475 -0.178264
0.237277 -0.325936 -0.183376
0.236281 -0.294602 -0.181130
0.233595 -0.329975 -0.181147
0.238231 -0.349825 -0.181476
0.236605 -0.314674 -0.179977
0.235176 -0.321509 -0.180428
0.236282 -0.345574 -0.180570
0.236561 -0.312117 -0.180619
0.236708 -0.323222 -0.179806
0.235744 -0.318736 -0.181014
0.237187 -0.334637 -0.181594
0.233504 -0.304399 -0.178959
0.237042 -0.337350 -0.180992
0.236315 -0.282598 -0.179808
0.218807 -0.092405 -0.060745
0.218041 -0.097814 -0.080537
0.219643 -0.092489 -0.079262
0.220437 -0.087163 -0.097967
0.221388 -0.092085 -0.085914
0.221494 -0.093227 -0.098472
0.220099 -0.089564 -0.052600
0.219222 -0.093453 -0.122419
0.219477 -0.095624 -0.108953
0.219847 -0.083776 -0.117620
0.222314 -0.088263 -0.085248
0.220724 -0.090072 -0.101936
0.220258 -0.094978 -0.087961
0.219073 -0.089451 -0.073665
0.220248 -0.089491 -0.109812
0.219761 -0.088927 -0.133567
0.220499 -0.094459 -0.075118
0.221110 -0.081155 -0.077292
0.218164 -0.092427 -0.116403
0.220214 -0.085383 -0.106800
0.220602 -0.092806 -0.044896
0.218819 -0.095268 -0.093141
0.220966 -0.092071 -0.076645
0.217387 -0.092421 -0.088628
0.219020 -0.095561 -0.062085
0.220871 -0.089986 -0.090580
0.220336 -0.091753 -0.072467
0.220679 -0.091403 -0.060575
0.218145 -0.094608 -0.098283
0.218917 -0.084280 -0.062695
0.220716 -0.094384 -0.070221
0.220333 -0.076586 -0.090426
0.017146 -0.000567 -0.112369
0.062227 -0.000132 -0.139590
0.034159 -0.002473 -0.135748
0.090941 -0.001743 -0.153406
0.098288 -0.001124 -0.133490
0.055997 -0.001652 -0.148790
0.035876 -0.002053 -0.103123
0.082404 -0.000511 -0.162000
0.040338 -0.001012 -0.158610
0.056434 -0.001723 -0.157512
0.045834 -0.003092 -0.138231
0.039794 -0.001879 -0.149129
0.084797 0.000243 -0.136701
0.033606 -0.000800 -0.121806
0.069850 -0.002177 -0.157280
0.057600 -0.000848 -0.169832
0.068841 -0.000725 -0.131992
0.076888 -0.003457 -0.122478
0.034142 -0.001431 -0.169493
0.015782 -0.001164 -0.159143
0.052391 -0.000813 -0.090731
0.049572 -0.000110 -0.129806
0.058086 -0.000529 -0.111989
0.010943 -0.001018 -0.143907
0.065320 -0.001654 -0.100988
0.072566 0.000071 -0.146135
0.061065 -0.000839 -0.121718
0.081234 -0.000746 -0.103826
0.025807 -0.000859 -0.148557
0.048991 -0.000802 -0.119533
0.091046 -0.001477 -0.117947
0.019047 -0.003599 -0.132115
0.233044 -0.332528 -0.180808
0.232973 -0.354100 -0.182442
0.232019 -0.320640 -0.179559
0.233844 -0.293037 -0.179541
0.235082 -0.316489 -0.179935
0.233910 -0.313165 -0.182066
0.233745 -0.304632 -0.179206
0.234591 -0.326965 -0.184859
0.234594 -0.337723 -0.184765
0.234023 -0.289060 -0.181216
0.233663 -0.286035 -0.178865
0.232618 -0.298995 -0.182163
0.232222 -0.323203 -0.180901
0.231825 -0.295060 -0.179157
0.234270 -0.307928 -0.182990
0.234395 -0.304389 -0.184371
0.232424 -0.333324 -0.181132
0.231404 -0.277753 -0.177447
0.233566 -0.315953 -0.183697
0.232138 -0.279291 -0.181756
0.233471 -0.320142 -0.180853
0.232188 -0.344401 -0.182244
0.231775 -0.302362 -0.179450
0.231109 -0.309575 -0.180640
0.232344 -0.339621 -0.180581
0.232861 -0.298818 -0.180143
0.233200 -0.312532 -0.179237
0.234322 -0.306129 -0.180224
0.232901 -0.325444 -0.182649
0.232357 -0.289209 -0.178736
0.234775 -0.329484 -0.180314
0.232139 -0.265008 -0.180335
0.081328 -0.020630 -0.055848
0.148753 -0.022810 -0.087459
0.106388 -0.017474 -0.081493
0.179600 -0.010475 -0.106451
0.188730 -0.009575 -0.078020
0.136007 -0.015228 -0.101342
0.109338 -0.018054 -0.043865
0.166747 -0.016326 -0.123283
0.119777 -0.022686 -0.113330
0.135720 -0.008279 -0.111813
0.126473 -0.014664 -0.083389
0.114587 -0.015439 -0.101742
0.175268 -0.012198 -0.084556
0.102675 -0.015890 -0.063719
0.152734 -0.014486 -0.110760
0.137096 -0.013759 -0.131642
0.155127 -0.015123 -0.076069
0.162653 -0.006879 -0.068265
0.105986 -0.017925 -0.129133
0.081741 -0.017520 -0.115163
0.127478 -0.015940 -0.029432
0.117600 -0.029537 -0.074186
0.148731 -0.012174 -0.050991
0.072319 -0.019991 -0.090030
0.145391 -0.021464 -0.038158
0.158976 -0.010533 -0.094802
0.138483 -0.014645 -0.064743
0.167585 -0.013575 -0.038903
0.094913 -0.019546 -0.098066
0.126258 -0.012094 -0.056847
0.179665 -0.016122 -0.058136
0.087123 -0.014549 -0.081264
0.239118 -0.027892 -0.020896
0.238496 -0.033827 -0.039873
0.238646 -0.024453 -0.036950
0.235757 -0.012054 -0.047061
0.236996 -0.024788 -0.047212
0.238838 -0.019423 -0.051315
0.237463 -0.015445 -0.017587
0.237791 -0.025622 -0.066516
0.238256 -0.030629 -0.058746
0.236423 -0.012837 -0.062950
0.238206 -0.012680 -0.037990
0.237731 -0.015053 -0.053686
0.238689 -0.030702 -0.044097
0.237645 -0.015485 -0.029240
0.237580 -0.018487 -0.059420
0.237453 -0.019692 -0.069131
0.238327 -0.029189 -0.033638
0.235250 -0.008615 -0.032704
0.238237 -0.023140 -0.058163
0.236904 -0.008680 -0.055725
0.237418 -0.022640 -0.016041
0.238424 -0.035225 -0.049720
0.236999 -0.017599 -0.035064
0.238501 -0.020638 -0.041589
0.237705 -0.033641 -0.027775
0.237305 -0.016613 -0.045134
0.237977 -0.020285 -0.031907
0.237282 -0.020011 -0.024250
0.238396 -0.026531 -0.051502
0.236273 -0.010301 -0.022997
0.237270 -0.025835 -0.028373
0.236022 -0.006138 -0.041913
0.240030 -0.023220 -0.018510
0.239047 -0.029835 -0.043788
0.239748 -0.018826 -0.039610
0.237124 -0.004410 -0.054585
0.238602 -0.017923 -0.052005
0.239894 -0.012019 -0.058831
0.237951 -0.008208 -0.015549
0.238342 -0.020075 -0.077787
0.239397 -0.026920 -0.068120
0.236737 -0.005823 -0.073719
0.239108 -0.005673 -0.042587
0.238686 -0.008005 -0.061298
0.240033 -0.024761 -0.049988
0.238166 -0.007576 -0.030424
0.238601 -0.010969 -0.067970
0.238238 -0.012696 -0.080280
0.239400 -0.023948 -0.035716
0.236288 -0.000948 -0.035192
0.239777 -0.017738 -0.069065
0.237080 -0.001478 -0.063433
0.238310 -0.016703 -0.013156
0.239341 -0.031314 -0.055826
0.237816 -0.009898 -0.038208
0.239269 -0.013727 -0.045443
0.239173 -0.029047 -0.027339
0.238783 -0.010095 -0.051069
0.239062 -0.013997 -0.033518
0.238523 -0.013441 -0.025170
0.240215 -0.021511 -0.058909
0.236431 -0.001962 -0.023912
0.237919 -0.019970 -0.028837
0.235695 0.001434 -0.046703
0.018781 -0.007573 -0.125440
0.074439 -0.007722 -0.151279
0.041530 -0.008443 -0.145624
0.107779 -0.008201 -0.161781
0.116743 -0.006909 -0.144777
0.064453 -0.007761 -0.156742
0.044158 -0.007984 -0.116063
0.096968 -0.008145 -0.169756
0.048910 -0.007994 -0.167270
0.065583 -0.006740 -0.163454
0.054855 -0.009243 -0.146794
0.048093 -0.007784 -0.157855
0.099906 -0.006104 -0.145555
0.040672 -0.007298 -0.133436
0.081023 -0.008105 -0.165981
0.067893 -0.007410 -0.176004
0.079053 -0.006606 -0.141991
0.089424 -0.009432 -0.133763
0.040403 -0.007655 -0.176430
0.020883 -0.007865 -0.167612
0.060465 -0.006982 -0.103636
0.055688 -0.011634 -0.142691
0.070054 -0.006657 -0.122004
0.011778 -0.009507 -0.153930
0.076183 -0.007287 -0.112652
0.085839 -0.006046 -0.154281
0.070475 -0.006438 -0.131551
0.094809 -0.007598 -0.116115
0.030555 -0.007600 -0.158486
0.057087 -0.006813 -0.131225
0.108290 -0.007946 -0.130643
0.024384 -0.009460 -0.144455
0.021965 0.001042 -0.121499
0.069445 0.002464 -0.145603
0.037717 -0.000394 -0.143059
0.103677 -0.000199 -0.158809
0.113956 0.000407 -0.143103
0.063891 -0.000140 -0.154929
0.042396 -0.000323 -0.114029
0.093675 0.000628 -0.164583
0.047963 0.000736 -0.161707
0.067603 0.000369 -0.162144
0.052226 -0.001151 -0.145405
0.045658 -0.000734 -0.154368
0.097334 0.002844 -0.143073
0.038792 0.001141 -0.130528
0.079226 -0.001323 -0.161664
0.064874 0.000488 -0.171002
0.078611 0.001459 -0.140262
0.088233 -0.000877 -0.131444
0.040305 -0.000066 -0.169631
0.018525 0.000213 -0.163075
0.061114 0.000601 -0.103511
0.054762 0.002102 -0.137934
0.066980 0.002131 -0.122450
0.012462 0.001593 -0.150102
0.076938 0.001083 -0.111077
0.084085 0.001811 -0.152068
0.070093 0.000719 -0.131518
0.094219 0.001099 -0.115137
0.030353 0.001038 -0.154477
0.059326 0.001226 -0.128619
0.105357 0.001146 -0.129163
0.021925 -0.001063 -0.140135
0.074595 -0.008160 -0.061826
0.124810 -0.007823 -0.087412
0.092517 -0.005388 -0.082576
0.151223 0.000150 -0.104209
0.158829 -0.000199 -0.081555
0.116079 -0.005155 -0.100147
0.096426 -0.006046 -0.052369
0.139738 -0.008077 -0.113633
0.102688 -0.010813 -0.106949
0.118081 0.000489 -0.109136
0.108562 -0.003887 -0.084069
0.100211 -0.003876 -0.099755
0.144167 -0.001415 -0.086900
0.090957 -0.004059 -0.066579
0.131676 -0.004763 -0.105743
0.117278 -0.002863 -0.121921
0.128773 -0.003426 -0.076780
0.137068 0.000056 -0.071188
0.095457 -0.005743 -0.119583
0.075268 -0.005367 -0.108494
0.109065 -0.003505 -0.042145
0.103004 -0.010523 -0.077247
0.121023 -0.000562 -0.060159
0.066401 -0.006664 -0.089107
0.122261 -0.008046 -0.050195
0.133809 0.000086 -0.092755
0.119686 -0.002972 -0.068219
0.140955 -0.001434 -0.052683
0.082460 -0.006588 -0.095450
0.112103 -0.000928 -0.066648
0.146869 -0.006547 -0.066659
0.077823 -0.003539 -0.078359
0.232334 -0.321569 -0.183147
0.232130 -0.344661 -0.183087
0.231883 -0.303595 -0.182208
0.231404 -0.266791 -0.180609
0.231487 -0.299432 -0.181755
0.234852 -0.292616 -0.182110
0.233422 -0.283074 -0.181979
0.231552 -0.312246 -0.184596
0.234466 -0.326466 -0.184429
0.233418 -0.255624 -0.180237
0.233746 -0.253543 -0.180822
0.230155 -0.273069 -0.182712
0.230500 -0.307361 -0.181311
0.230474 -0.267331 -0.182192
0.232268 -0.287442 -0.181672
0.233167 -0.278236 -0.182943
0.231854 -0.319908 -0.182941
0.229985 -0.240924 -0.179389
0.236002 -0.298929 -0.183756
0.231981 -0.243831 -0.182478
0.232145 -0.303498 -0.182648
0.233738 -0.334335 -0.183757
0.230529 -0.277759 -0.180723
0.230960 -0.288241 -0.183227
0.230837 -0.328664 -0.182481
0.231841 -0.274470 -0.181864
0.230248 -0.292533 -0.181589
0.231390 -0.284668 -0.183163
0.233750 -0.309816 -0.183065
0.231074 -0.257948 -0.182589
0.232292 -0.315589 -0.182599
0.230282 -0.223154 -0.182379
0.238475 -0.049093 -0.037791
0.236137 -0.053027 -0.059100
0.238281 -0.046698 -0.057361
0.237033 -0.034604 -0.068986
0.236979 -0.047131 -0.067446
0.238696 -0.043380 -0.072820
0.237791 -0.038846 -0.032769
0.237086 -0.048465 -0.090762
0.237374 -0.051499 -0.081530
0.236840 -0.036209 -0.086472
0.238374 -0.035417 -0.058551
0.238111 -0.038773 -0.075495
0.237425 -0.052095 -0.064293
0.238314 -0.038139 -0.047638
0.237464 -0.041576 -0.081524
0.237350 -0.043837 -0.094502
0.237673 -0.050241 -0.052071
0.236302 -0.030983 -0.052188
0.237466 -0.046603 -0.082306
0.237595 -0.031747 -0.078849
0.236888 -0.045836 -0.030100
0.236948 -0.054208 -0.071255
0.237213 -0.040762 -0.054901
0.237399 -0.044598 -0.062682
0.236114 -0.052770 -0.044864
0.237117 -0.039443 -0.066169
0.238178 -0.043684 -0.049854
0.237287 -0.043653 -0.040902
0.236930 -0.049595 -0.073833
0.236605 -0.033399 -0.040143
0.237195 -0.047440 -0.046150
0.236676 -0.027811 -0.062811
0.232029 -0.288105 -0.179708
0.231399 -0.309310 -0.178878
0.231217 -0.278703 -0.177203
0.233197 -0.253218 -0.178120
0.234780 -0.274567 -0.178869
0.232370 -0.272065 -0.177920
0.232950 -0.264183 -0.178299
0.232230 -0.282938 -0.183472
0.232424 -0.292554 -0.181925
0.231661 -0.250840 -0.180535
0.232628 -0.246441 -0.176485
0.231032 -0.258439 -0.179631
0.231848 -0.280808 -0.178153
0.230875 -0.255406 -0.177657
0.232733 -0.266097 -0.181121
0.232542 -0.263497 -0.183929
0.231807 -0.290571 -0.178058
0.231340 -0.240038 -0.176621
0.231577 -0.273994 -0.181526
0.230569 -0.241182 -0.179638
0.232741 -0.277933 -0.179307
0.231382 -0.299047 -0.178851
0.231316 -0.261966 -0.178060
0.230518 -0.268218 -0.179375
0.232087 -0.295129 -0.178704
0.232559 -0.257744 -0.177845
0.232241 -0.271005 -0.178327
0.233639 -0.264833 -0.179093
0.231710 -0.281715 -0.178863
0.231665 -0.251089 -0.177351
0.234196 -0.286649 -0.179204
0.231424 -0.229252 -0.177694
0.218078 -0.092679 -0.087044
0.219933 -0.097553 -0.103078
0.220901 -0.094314 -0.101928
0.223027 -0.091193 -0.118027
0.223341 -0.093249 -0.106916
0.223004 -0.095770 -0.117833
0.220675 -0.092448 -0.077904
0.222458 -0.095264 -0.136383
0.221563 -0.096725 -0.126244
0.221255 -0.090745 -0.132497
0.222249 -0.092207 -0.106246
0.220942 -0.093654 -0.120825
0.222001 -0.096551 -0.108559
0.218931 -0.092265 -0.095844
0.222164 -0.093409 -0.127025
0.221665 -0.093849 -0.147392
0.222014 -0.095579 -0.097989
0.221740 -0.089566 -0.099160
0.219104 -0.094002 -0.133153
0.219148 -0.090975 -0.125006
0.222369 -0.094086 -0.069606
0.220334 -0.095594 -0.114292
0.222626 -0.093163 -0.096790
0.216039 -0.094006 -0.109123
0.220363 -0.095660 -0.086063
0.221963 -0.091970 -0.111665
0.222373 -0.094374 -0.094087
0.222300 -0.093638 -0.082422
0.217989 -0.095252 -0.116931
0.219678 -0.090062 -0.086710
0.222804 -0.094404 -0.092304
0.219991 -0.086618 -0.108620
0.038571 -0.013206 -0.102132
0.097612 -0.012797 -0.128388
0.061529 -0.010413 -0.123468
0.125621 -0.005091 -0.143996
0.134853 -0.004866 -0.121246
0.085361 -0.008768 -0.140384
0.065330 -0.010371 -0.090020
0.114307 -0.012798 -0.153219
0.072187 -0.015710 -0.149320
0.086513 -0.003837 -0.147680
0.078264 -0.009339 -0.124173
0.067559 -0.008641 -0.139024
0.120402 -0.005962 -0.126186
0.057743 -0.009465 -0.107340
0.102117 -0.008498 -0.146964
0.088854 -0.007366 -0.160090
0.102258 -0.007628 -0.118150
0.110538 -0.004988 -0.111142
0.061414 -0.010244 -0.159897
0.039202 -0.009960 -0.148562
0.079844 -0.008384 -0.075852
0.074232 -0.013692 -0.117277
0.095100 -0.004813 -0.096959
0.029450 -0.012058 -0.131104
0.093732 -0.012278 -0.086049
0.106561 -0.004638 -0.133947
0.089422 -0.006941 -0.108119
0.113012 -0.006316 -0.088041
0.048726 -0.011609 -0.137634
0.078519 -0.006590 -0.104189
0.123848 -0.012048 -0.103894
0.044555 -0.009266 -0.122080
0.183862 0.009709 -0.039185
0.220851 0.008817 -0.067740
0.201202 0.008539 -0.065843
0.230708 0.006324 -0.088760
0.228446 0.005716 -0.062322
0.217761 0.008474 -0.086705
0.198289 0.009178 -0.022983
0.227435 0.008193 -0.107791
0.203846 0.008751 -0.098356
0.212865 0.008952 -0.102428
0.210924 0.008643 -0.072908
0.205273 0.008996 -0.088931
0.227339 0.007209 -0.069782
0.197866 0.009718 -0.051097
0.222599 0.008660 -0.095952
0.217684 0.009862 -0.118411
0.222359 0.007721 -0.057628
0.226421 0.007808 -0.052096
0.196414 0.009451 -0.116647
0.183392 0.009002 -0.099763
0.213152 0.009457 -0.011476
0.212134 0.010298 -0.063191
0.216206 0.009194 -0.036766
0.174562 0.008664 -0.073531
0.216816 0.009508 -0.023104
0.225290 0.009703 -0.081298
0.218155 0.007928 -0.048044
0.226755 0.007054 -0.026065
0.193023 0.009702 -0.082155
0.207977 0.008065 -0.042612
0.229192 0.003989 -0.042162
0.187742 0.010623 -0.063425
0.046475 -0.002355 -0.121307
0.092176 -0.001885 -0.145280
0.063698 -0.002651 -0.141543
0.120996 -0.001149 -0.156372
0.128486 -0.000928 -0.140541
0.084484 -0.001699 -0.152759
0.066583 -0.002067 -0.113842
0.111563 -0.002983 -0.163614
0.070693 -0.003541 -0.160927
0.086428 -0.001097 -0.158873
0.075603 -0.003250 -0.143357
0.069438 -0.001663 -0.152694
0.114730 0.000120 -0.141767
0.063487 -0.001038 -0.129186
0.099698 -0.001950 -0.159476
0.086788 -0.002213 -0.169253
0.097497 -0.000376 -0.137817
0.106555 -0.002882 -0.129875
0.064215 -0.002195 -0.168571
0.045067 -0.001614 -0.161586
0.081733 -0.000923 -0.103461
0.077660 -0.001833 -0.136871
0.087366 -0.000530 -0.121056
0.039545 -0.002220 -0.148385
0.094749 -0.002271 -0.112599
0.102467 -0.000196 -0.149754
0.090448 -0.000342 -0.129180
0.110818 -0.000552 -0.115157
0.054389 -0.002321 -0.153178
0.079059 -0.000385 -0.129003
0.121053 -0.002394 -0.126625
0.048984 -0.003837 -0.138547
0.089737 -0.000248 -0.069432
0.136037 0.002609 -0.095499
0.107882 0.000194 -0.093169
0.165995 0.004671 -0.114201
0.172300 0.005222 -0.092884
0.132350 0.001513 -0.109833
0.112135 0.000241 -0.062345
0.154319 0.001060 -0.124908
0.115452 -0.000628 -0.118113
0.133000 0.003908 -0.120613
0.122004 0.000257 -0.096353
0.116750 0.000581 -0.110689
0.158475 0.004943 -0.096019
0.107704 0.001536 -0.077602
0.145759 0.001341 -0.115549
0.131079 0.002321 -0.132303
0.143700 0.003220 -0.086949
0.152331 0.003076 -0.081223
0.110929 -0.000016 -0.130092
0.090316 -0.000081 -0.118760
0.124180 0.002253 -0.052714
0.120000 0.001490 -0.087179
0.133296 0.004274 -0.070354
0.081605 -0.000110 -0.098862
0.138360 0.001081 -0.059196
0.148992 0.004976 -0.103830
0.136185 0.002365 -0.079038
0.155683 0.003708 -0.064397
0.098702 0.001167 -0.105635
0.128034 0.003837 -0.079797
0.162201 0.001740 -0.076856
0.092132 0.000466 -0.086780
0.231023 0.008776 -0.034199
0.234384 0.001704 -0.053281
0.229140 0.009892 -0.050098
0.227959 0.008101 -0.064931
0.231938 0.003723 -0.057982
0.229374 0.009678 -0.064967
0.225466 0.012150 -0.029047
0.232344 0.004124 -0.079136
0.232831 0.005383 -0.072003
0.224349 0.012325 -0.076440
0.225656 0.012964 -0.055381
0.225096 0.011546 -0.067768
0.232542 0.003261 -0.056559
0.223527 0.013561 -0.043072
0.230186 0.008385 -0.070432
0.228985 0.008144 -0.084216
0.231525 0.005171 -0.047569
0.222603 0.012865 -0.048164
0.228258 0.010685 -0.076327
0.220842 0.015100 -0.069928
0.229535 0.007248 -0.025164
0.234672 0.002401 -0.063467
0.226907 0.010970 -0.044411
0.225347 0.013610 -0.055989
0.233856 0.002191 -0.037192
0.228781 0.009913 -0.059393
0.230328 0.008849 -0.041925
0.230596 0.006564 -0.034768
0.229740 0.008986 -0.063303
0.224330 0.013141 -0.038328
0.231909 0.003143 -0.042696
0.219883 0.016670 -0.052782
0.015775 -0.018829 -0.171828
0.081905 -0.021502 -0.176021
0.032303 -0.013815 -0.176037
0.135254 -0.007515 -0.180147
0.149006 -0.011365 -0.176759
0.070874 -0.012867 -0.177283
0.056083 -0.012797 -0.168549
0.113650 -0.017212 -0.180366
0.063242 -0.019785 -0.179585
0.087387 -0.006459 -0.176262
0.062038 -0.007712 -0.174274
0.045045 -0.009838 -0.178121
0.121703 -0.010748 -0.177109
0.047562 -0.008351 -0.172480
0.096145 -0.012577 -0.180358
0.071982 -0.010254 -0.182985
0.094451 -0.014385 -0.176304
0.111653 -0.008805 -0.173755
0.045893 -0.015803 -0.181466
0.019026 -0.010997 -0.181113
0.070003 -0.014800 -0.162749
0.051143 -0.020754 -0.173611
0.087971 -0.008749 -0.171502
0.001771 -0.015095 -0.179168
0.100633 -0.016049 -0.165467
0.106765 -0.006827 -0.176695
0.081872 -0.012624 -0.174425
0.121608 -0.011936 -0.168847
0.033790 -0.020546 -0.179687
0.072689 -0.008997 -0.171142
0.135050 -0.018117 -0.175125
0.028503 -0.011195 -0.176802
0.239187 -0.027106 -0.050093
0.238575 -0.032650 -0.069900
0.238688 -0.023760 -0.067068
0.235685 -0.011981 -0.078064
0.236769 -0.024077 -0.077298
0.238673 -0.019044 -0.081764
0.237500 -0.015143 -0.046477
0.237820 -0.025164 -0.097536
0.238320 -0.030051 -0.089377
0.236187 -0.012581 -0.093875
0.238020 -0.012707 -0.068298
0.237400 -0.014989 -0.084062
0.238506 -0.030054 -0.074380
0.237517 -0.015197 -0.059022
0.237283 -0.018398 -0.089880
0.237350 -0.019398 -0.100571
0.238285 -0.028332 -0.063394
0.235158 -0.008536 -0.062834
0.238222 -0.022755 -0.089337
0.236784 -0.008819 -0.086592
0.237419 -0.022295 -0.044741
0.238416 -0.034311 -0.079936
0.236891 -0.017235 -0.064676
0.238184 -0.020075 -0.071643
0.237796 -0.032628 -0.056988
0.236917 -0.016425 -0.075322
0.237816 -0.020187 -0.061423
0.237190 -0.019666 -0.053627
0.238169 -0.026015 -0.081797
0.236005 -0.010095 -0.052431
0.237215 -0.024927 -0.058061
0.235799 -0.006266 -0.072154
0.162130 0.010517 -0.051018
0.196266 0.012320 -0.079513
0.177940 0.010523 -0.077219
0.215429 0.009047 -0.098970
0.216448 0.009142 -0.076695
0.197801 0.009564 -0.093222
0.178013 0.009256 -0.042255
0.208752 0.011593 -0.112786
0.182263 0.010935 -0.106422
0.192848 0.010664 -0.107305
0.187366 0.008818 -0.082052
0.185829 0.008664 -0.098156
0.211837 0.011236 -0.080641
0.175860 0.010747 -0.063502
0.204621 0.008356 -0.100894
0.193756 0.010735 -0.122229
0.202310 0.011111 -0.068873
0.206405 0.007441 -0.065562
0.176179 0.008725 -0.119400
0.164311 0.010149 -0.105581
0.190358 0.010487 -0.034281
0.187449 0.011540 -0.073903
0.192223 0.011249 -0.052426
0.154353 0.009627 -0.085482
0.196582 0.011883 -0.039640
0.204723 0.011286 -0.089269
0.199200 0.009561 -0.059648
0.208729 0.008580 -0.046512
0.170530 0.011499 -0.090006
0.192351 0.010540 -0.061126
0.213599 0.009538 -0.060088
0.165017 0.010131 -0.072402
0.236374 -0.255574 -0.179916
0.239117 -0.273934 -0.180619
0.237206 -0.247848 -0.178254
0.238279 -0.222808 -0.180457
0.237866 -0.243359 -0.180725
0.239007 -0.242010 -0.180871
0.236373 -0.233519 -0.179524
0.237746 -0.251232 -0.183338
0.238701 -0.260470 -0.182601
0.237519 -0.220372 -0.181549
0.239401 -0.217424 -0.178225
0.236475 -0.228078 -0.181449
0.238309 -0.248843 -0.179736
0.235481 -0.225278 -0.178716
0.238608 -0.235085 -0.182255
0.236032 -0.232155 -0.183831
0.238928 -0.258038 -0.179538
0.237564 -0.211061 -0.178626
0.236414 -0.242430 -0.182770
0.236938 -0.212227 -0.181523
0.235566 -0.246775 -0.180397
0.238244 -0.265561 -0.180382
0.237454 -0.231265 -0.179853
0.236105 -0.237518 -0.179896
0.237475 -0.262085 -0.179389
0.238430 -0.228223 -0.180579
0.237881 -0.239790 -0.179293
0.237786 -0.234333 -0.180163
0.237168 -0.251264 -0.180610
0.235806 -0.221263 -0.178423
0.238482 -0.254290 -0.180336
0.238651 -0.201001 -0.180029
0.036372 -0.002143 -0.109920
0.090672 -0.000849 -0.137167
0.055741 -0.003229 -0.134065
0.121869 0.001598 -0.151931
0.131196 0.001016 -0.133484
0.081500 -0.001984 -0.147408
0.061380 -0.002215 -0.101758
0.111773 -0.003056 -0.157719
0.065773 -0.003891 -0.154233
0.085730 0.000114 -0.153500
0.072275 -0.003106 -0.135307
0.063381 -0.002004 -0.145623
0.116068 0.002071 -0.135045
0.056430 -0.001363 -0.118228
0.099289 -0.002289 -0.152237
0.084397 -0.001431 -0.162032
0.097759 0.000679 -0.129215
0.106882 -0.001675 -0.120626
0.058824 -0.002651 -0.162508
0.034266 -0.002328 -0.155057
0.076457 0.000144 -0.089158
0.072080 0.001251 -0.126757
0.087053 0.001546 -0.110621
0.026647 -0.002467 -0.139939
0.091799 -0.000413 -0.098849
0.104427 0.001161 -0.142635
0.087918 0.000398 -0.121748
0.110757 0.001105 -0.103900
0.044749 -0.001924 -0.145921
0.076409 0.000509 -0.117077
0.120345 -0.000837 -0.117237
0.038721 -0.004119 -0.128665
0.233089 -0.224898 -0.180064
0.232149 -0.246964 -0.178274
0.232192 -0.215112 -0.177559
0.234724 -0.188957 -0.178371
0.236266 -0.211229 -0.179204
0.233172 -0.208931 -0.178189
0.234116 -0.200342 -0.178515
0.232589 -0.219738 -0.183162
0.233195 -0.230241 -0.181758
0.232656 -0.186634 -0.180705
0.233589 -0.182322 -0.176643
0.231924 -0.194629 -0.180022
0.232751 -0.217715 -0.177986
0.231850 -0.191169 -0.177995
0.233490 -0.202852 -0.181133
0.233148 -0.199227 -0.184244
0.232401 -0.228425 -0.178232
0.232155 -0.175514 -0.176776
0.232680 -0.211030 -0.181768
0.231290 -0.177006 -0.180391
0.234027 -0.214619 -0.179396
0.232361 -0.236601 -0.178866
0.232030 -0.197863 -0.178362
0.231419 -0.204281 -0.179546
0.232909 -0.232701 -0.178906
0.233571 -0.194086 -0.178058
0.233310 -0.207427 -0.178010
0.234958 -0.200744 -0.179317
0.232833 -0.218729 -0.178821
0.232851 -0.186372 -0.177632
