-0.209601 -0.380061 0.206290
-0.199203 -0.293638 0.202033
-0.159110 -0.354074 0.197797
-0.203014 -0.215767 0.204389
-0.173934 -0.153801 0.191481
-0.174839 -0.095964 0.204668
-0.180753 -0.059534 0.184556
-0.167413 -0.016666 0.161260
-0.150315 -0.016335 0.168898
-0.129927 -0.016302 0.173997
-0.163985 0.022507 0.161109
-0.152042 0.027609 0.170253
-0.172940 0.101350 0.165319
-0.161831 0.056228 0.144491
-0.077899 -0.028104 0.168707
-0.136019 -0.001273 0.136158
-0.177345 0.133377 0.158844
-0.166124 0.028317 0.113486
-0.066203 0.005399 0.178061
-0.163444 0.170726 0.178160
-0.099615 -0.011265 0.143783
0.191256 -0.359696 0.196324
-0.160307 0.013934 0.107076
-0.053227 -0.010260 0.168929
-0.156861 -0.002610 0.093074
-0.171619 0.113897 0.130485
-0.100295 -0.008466 0.125431
0.219243 -0.376272 0.187900
-0.092330 0.040119 0.148201
-0.033999 0.004065 0.174388
-0.056713 0.023102 0.158918
-0.005864 0.003880 0.178982
-0.228779 0.334708 0.156528
0.007414 -0.004674 0.180673
-0.181298 0.242665 0.147323
-0.090591 0.019942 0.113528
0.243271 -0.306695 0.205982
-0.116021 0.188104 0.162210
-0.144541 -0.006324 0.048685
-0.150155 0.257007 0.161361
-0.181447 0.198188 0.106960
-0.151872 0.040651 0.054300
-0.091977 -0.001244 0.076001
-0.169880 0.126781 0.071062
0.032971 0.028887 0.178693
0.224736 -0.237639 0.194293
-0.047825 0.023233 0.112257
-0.196669 0.305117 0.122912
0.050132 -0.002057 0.170297
-0.196658 -0.375446 -0.196820
-0.162547 0.342996 0.160438
-0.001277 0.008623 0.125713
-0.068358 0.012442 0.076686
-0.166422 0.238949 0.102681
0.051244 0.009568 0.162260
-0.156871 -0.005602 -0.002509
0.025791 -0.008009 0.134139
-0.203924 -0.366538 -0.214759
-0.203730 0.324584 0.104317
-0.224087 -0.269732 -0.191373
0.060960 0.020364 0.162275
-0.025484 0.011325 0.089638
-0.072576 0.014685 0.052880
-0.187644 0.364150 0.119203
0.094092 0.013814 0.172888
0.098782 -0.020377 0.159063
-0.086982 -0.017004 0.020399
0.019757 -0.016165 0.100581
-0.191180 0.232291 0.053701
-0.136510 -0.000088 -0.013077
0.134270 -0.010590 0.181422
0.233149 -0.152595 0.187701
-0.154452 0.003398 -0.033863
0.123531 0.017244 0.178287
-0.151381 -0.339818 -0.200542
-0.149751 0.151983 0.027166
0.227399 -0.119783 0.183064
-0.162285 0.075931 -0.020506
-0.186889 0.274541 0.046595
0.103650 0.009293 0.144133
0.112585 0.025124 0.155949
-0.009742 -0.003384 0.051203
0.011537 -0.005086 0.065422
-0.207987 -0.242891 -0.218798
0.194049 -0.038926 0.181001
-0.182018 0.301426 0.053654
-0.101186 0.046937 -0.001941
-0.202250 0.353886 0.055907
-0.191607 0.359399 0.062069
0.167462 0.026831 0.174166
0.178044 -0.000585 0.169613
0.236467 -0.030186 0.197574
-0.010749 -0.023260 0.016998
0.153885 0.008882 0.150839
0.173978 0.010765 0.162804
-0.133983 -0.030227 -0.090636
-0.056336 -0.015315 -0.024592
-0.181825 -0.159223 -0.191081
0.221458 -0.033228 0.168846
-0.009238 0.033557 0.028139
0.077021 0.014742 0.082409
0.095605 0.039045 0.105914
0.208917 0.002995 0.171726
-0.148232 0.049137 -0.074345
-0.170654 0.164906 -0.038808
-0.160661 0.023664 -0.104107
-0.079223 0.015782 -0.047633
-0.192220 0.311492 -0.000295
0.187989 0.037659 0.159278
0.216027 -0.000750 0.161114
-0.211470 0.362624 0.001261
-0.065896 0.001407 -0.052111
-0.166258 0.224358 -0.026826
0.131907 -0.016928 0.085913
0.214222 0.027403 0.164809
-0.181722 -0.110455 -0.198227
0.161955 0.013446 0.118723
-0.152784 0.004232 -0.122046
-0.092243 -0.007893 -0.081316
-0.047795 0.006302 -0.042583
-0.029982 0.014003 -0.025558
0.222121 0.004803 0.154915
0.183483 0.029686 0.130136
0.229144 0.012886 0.153551
0.099275 0.021476 0.056829
0.045823 0.019387 0.013818
0.071774 0.013589 0.024621
-0.170857 -0.047642 -0.191320
0.216382 -0.010528 0.115452
-0.163694 0.010194 -0.160858
-0.158621 -0.025568 -0.176629
0.135953 0.021732 0.066999
-0.176132 0.274332 -0.053013
-0.160931 0.097973 -0.125304
-0.169521 0.019316 -0.170255
0.003945 0.022630 -0.038615
-0.162486 0.160587 -0.102256
-0.086200 0.012826 -0.113225
0.230944 0.007709 0.120346
-0.027131 -0.010481 -0.080334
-0.154687 -0.021804 -0.188292
-0.194755 0.353019 -0.048624
-0.120671 0.024894 -0.144158
-0.165666 0.054262 -0.166443
0.245182 0.016480 0.123096
-0.095578 0.005764 -0.135075
-0.176095 0.228322 -0.096997
0.213161 0.018679 0.099027
0.017255 0.013362 -0.049842
0.024549 0.028633 -0.039585
-0.099090 -0.009055 -0.153099
0.041373 -0.002703 -0.047504
0.106545 -0.013844 -0.005270
0.229558 -0.002172 0.089436
-0.166209 0.078819 -0.172546
-0.088526 -0.002460 -0.152752
-0.131412 0.021754 -0.175818
-0.121686 0.006940 -0.177230
-0.029441 0.024918 -0.098739
0.185759 0.018028 0.055858
-0.098759 0.025266 -0.154773
-0.013007 0.003388 -0.102617
0.219920 0.009247 0.071435
-0.099484 -0.006726 -0.178461
0.121606 0.017208 -0.004459
0.177911 0.013426 0.031483
0.228044 -0.000549 0.061256
-0.140514 0.097545 -0.174566
-0.162681 0.149385 -0.169374
0.217102 -0.013501 0.035578
-0.172160 0.347812 -0.091347
-0.198563 0.319377 -0.126228
0.058373 0.011756 -0.073576
-0.048512 -0.009741 -0.166470
0.231248 0.032835 0.060255
0.146076 0.051344 0.006118
0.079442 0.029978 -0.053406
-0.070926 0.003720 -0.180596
0.080820 -0.018315 -0.075754
-0.031519 0.032922 -0.137446
0.096946 0.002747 -0.058145
-0.069326 0.024373 -0.174518
0.018392 0.018541 -0.120416
-0.172547 0.254819 -0.160314
-0.165617 0.214590 -0.174199
0.231006 0.003754 0.023594
0.164738 -0.348436 -0.195025
0.205840 0.000229 -0.000177
-0.143580 0.257387 -0.146051
-0.190262 0.294689 -0.166391
-0.034820 0.016795 -0.177059
-0.183759 0.307376 -0.168390
-0.193412 0.363100 -0.155408
-0.002787 0.008142 -0.174657
0.221178 -0.382656 -0.196327
-0.008483 0.014106 -0.178062
0.163864 0.020916 -0.046326
0.235322 -0.013175 -0.011291
0.014830 0.001183 -0.171827
0.005137 0.012047 -0.179912
0.190696 0.009088 -0.043137
0.091287 -0.019558 -0.132306
0.029182 -0.016136 -0.182125
0.230088 0.016732 -0.023392
0.229379 0.019796 -0.022840
0.188451 0.023376 -0.055769
0.045174 0.010825 -0.169410
0.229419 -0.302879 -0.184041
0.152183 -0.008692 -0.100036
0.229428 -0.009872 -0.048508
0.071854 -0.007689 -0.168714
0.053247 0.024406 -0.167922
0.133133 0.021831 -0.108501
0.212932 -0.283340 -0.196560
0.109488 -0.002294 -0.152092
0.220551 -0.000144 -0.070029
0.085426 0.004868 -0.170156
0.136197 0.029541 -0.120599
0.077923 -0.005082 -0.183257
0.177400 0.051079 -0.087825
0.097980 0.016891 -0.166645
0.231003 0.024994 -0.069733
0.136733 0.025439 -0.144588
0.113776 0.021221 -0.165922
0.231596 0.006582 -0.086894
0.162112 0.014608 -0.135819
0.103009 0.014378 -0.181107
0.144117 0.014029 -0.165403
0.178328 -0.004177 -0.148233
0.223106 0.002540 -0.113940
0.243120 -0.169302 -0.180694
0.235395 0.004682 -0.105344
0.117518 0.026199 -0.182201
0.221378 -0.124971 -0.177726
0.144971 -0.004175 -0.177496
0.158870 -0.002572 -0.169542
0.171369 -0.029714 -0.177206
0.165572 0.006203 -0.165395
0.212378 -0.086641 -0.176712
0.232202 0.001296 -0.126664
0.200468 0.023137 -0.151180
0.213289 -0.008450 -0.165248
0.187489 0.011475 -0.176300
0.211599 -0.021798 -0.178358
0.239871 0.017546 -0.141829
0.230456 -0.050952 -0.182055
0.204151 0.031444 -0.162648
0.195527 0.017975 -0.178982
0.197424 0.030088 -0.173008
0.233310 -0.018263 -0.169435
0.220794 -0.017288 -0.178703
0.206081 0.036361 -0.174140
0.231819 -0.001086 -0.186427
0.233966 0.027278 -0.175567
0.235607 0.024457 -0.177817
0.217129 0.052748 -0.177924
