-0.034773 0.379133 -0.001573
-0.036659 0.368693 -0.002763
-0.036008 0.385627 -0.008694
-0.035165 0.376033 0.004141
-0.035032 0.371046 -0.000568
-0.034906 0.378979 0.001102
-0.036556 0.388694 -0.001148
-0.036193 0.379162 -0.005186
-0.034019 0.382565 -0.004504
-0.033984 0.385829 0.005190
-0.036869 0.379071 -0.009264
-0.034696 0.375483 -0.006136
-0.035706 0.389609 -0.006028
-0.034198 0.390699 0.000987
-0.035351 0.386914 -0.005125
-0.033995 0.376993 -0.002891
-0.034692 0.386659 0.002753
-0.035616 0.384178 -0.007059
-0.035686 0.384613 -0.009949
-0.033901 0.375308 -0.000077
-0.036003 0.393324 0.001361
-0.035153 0.381206 -0.006137
-0.034184 0.393689 -0.006054
-0.035568 0.382046 0.005003
-0.034940 0.372028 -0.003327
-0.035220 0.386293 0.000086
-0.034651 0.381974 -0.001014
-0.034631 0.374127 0.001710
-0.035578 0.385150 -0.002382
-0.034522 0.383706 0.000481
-0.035250 0.384211 0.002097
-0.035709 0.378180 -0.004136
-0.034684 0.390324 0.004702
-0.035996 0.379184 0.002983
-0.034279 0.396589 -0.003108
-0.046649 0.406612 0.008956
-0.037903 0.400730 0.006833
-0.044186 0.411531 0.010139
-0.036848 0.418551 0.005018
-0.037645 0.411200 0.002589
-0.037484 0.410949 0.007216
-0.040873 0.414839 0.009799
-0.037032 0.408491 0.002992
-0.036344 0.404958 0.005544
-0.036676 0.423884 0.007178
-0.038345 0.424590 0.008049
-0.041704 0.415974 0.007771
-0.036751 0.411092 0.006546
-0.044029 0.420116 0.008817
-0.037365 0.413995 0.005767
-0.037050 0.416170 0.003282
-0.037934 0.407062 0.007469
-0.038980 0.426989 0.005874
-0.040287 0.410359 0.007463
-0.043379 0.424878 0.008115
-0.041178 0.409401 0.009202
-0.041447 0.402281 0.009170
-0.039015 0.417196 0.008496
-0.048065 0.413766 0.010014
-0.038736 0.405383 0.007549
-0.038046 0.417063 0.007452
-0.037914 0.413637 0.007011
-0.037810 0.416702 0.005824
-0.043214 0.407540 0.008986
-0.040638 0.421592 0.009314
-0.038396 0.406669 0.005210
-0.040047 0.430721 0.006691
-0.050214 0.400037 0.006871
-0.051944 0.381327 0.004370
-0.049310 0.409305 0.004648
-0.050526 0.438053 0.002593
-0.049633 0.413198 0.001801
-0.051071 0.418123 -0.001585
-0.049060 0.425771 0.006795
-0.054394 0.405163 -0.008495
-0.050228 0.395633 -0.007176
-0.052984 0.439801 -0.008939
-0.050965 0.442771 0.002904
-0.050946 0.433380 -0.005726
-0.051308 0.404650 0.003812
-0.050679 0.435229 0.004938
-0.053714 0.422629 -0.006959
-0.052078 0.428168 -0.011890
-0.051065 0.393881 0.003257
-0.052090 0.451636 0.005858
-0.050982 0.414058 -0.009466
-0.050820 0.450650 -0.007445
-0.046734 0.411965 0.008999
-0.050441 0.389371 -0.001433
-0.051639 0.430253 0.005035
-0.049565 0.422760 0.001778
-0.049539 0.389851 0.007672
-0.051188 0.429467 0.001895
-0.049480 0.418914 0.006792
-0.044516 0.426236 0.006145
-0.051737 0.407779 -0.003777
-0.049965 0.443143 0.007102
-0.048777 0.404756 0.007820
-0.050565 0.460121 -0.001980
-0.035901 0.384219 0.001381
-0.036446 0.378792 -0.003842
-0.036194 0.387349 -0.002271
-0.038110 0.397345 -0.004391
-0.038200 0.387283 -0.008222
-0.035964 0.391173 -0.007685
-0.035045 0.394196 0.002340
-0.038897 0.387004 -0.012340
-0.036561 0.383119 -0.009564
-0.037785 0.397820 -0.009223
-0.035729 0.399437 -0.002348
-0.036961 0.395711 -0.007979
-0.035713 0.385085 -0.006384
-0.035743 0.395132 -0.000533
-0.037403 0.392719 -0.010119
-0.037985 0.392980 -0.013085
-0.035390 0.383271 -0.003193
-0.037312 0.401982 -0.002240
-0.036913 0.389454 -0.009597
-0.036019 0.402447 -0.009527
-0.036662 0.390340 0.002292
-0.036369 0.379384 -0.006650
-0.036714 0.394757 -0.003268
-0.036099 0.390663 -0.004201
-0.035814 0.382036 -0.001149
-0.037320 0.393536 -0.005545
-0.035998 0.392473 -0.002492
-0.036503 0.392217 -0.001206
-0.037317 0.386314 -0.007327
-0.035767 0.398812 0.001293
-0.037217 0.387260 -0.000449
-0.035836 0.405905 -0.006274
-0.048475 0.375808 -0.012788
-0.040588 0.367556 -0.012064
-0.048453 0.378624 -0.011821
-0.038533 0.388180 -0.006149
-0.037877 0.378533 -0.006870
-0.041244 0.379958 -0.013301
-0.042331 0.383528 -0.012623
-0.040212 0.376139 -0.010751
-0.041452 0.372830 -0.012139
-0.039835 0.390498 -0.010558
-0.040903 0.392430 -0.013303
-0.046330 0.385730 -0.013696
-0.038568 0.380265 -0.009831
-0.043866 0.388195 -0.013763
-0.039932 0.381591 -0.010006
-0.043912 0.384077 -0.013020
-0.040747 0.374364 -0.011201
-0.041381 0.393357 -0.011410
-0.046869 0.379723 -0.012036
-0.046222 0.391151 -0.013183
-0.041507 0.377557 -0.011827
-0.045059 0.368634 -0.012547
-0.041011 0.384766 -0.011877
-0.049170 0.383095 -0.011826
-0.039214 0.372545 -0.011470
-0.040547 0.386338 -0.011207
-0.039083 0.381853 -0.011514
-0.038236 0.385355 -0.008303
-0.046260 0.375720 -0.011789
-0.039649 0.388530 -0.011960
-0.038898 0.374562 -0.008382
-0.044515 0.396669 -0.014677
-0.044963 0.413788 0.007563
-0.038562 0.405759 0.005782
-0.040914 0.418355 0.008797
-0.038208 0.427280 0.005432
-0.038795 0.418113 0.003177
-0.037193 0.418771 0.005094
-0.041300 0.424915 0.009631
-0.037845 0.415374 0.001647
-0.036072 0.410940 0.003958
-0.037586 0.434681 0.003890
-0.038096 0.434624 0.006830
-0.039333 0.425353 0.005594
-0.037939 0.417185 0.006266
-0.042954 0.429552 0.007958
-0.038594 0.422121 0.004106
-0.037350 0.425610 0.000775
-0.038146 0.412061 0.006417
-0.039314 0.438632 0.006738
-0.037117 0.418442 0.004512
-0.039984 0.436573 0.005985
-0.042108 0.417638 0.008896
-0.039322 0.408498 0.007962
-0.039100 0.426574 0.008015
-0.046467 0.422160 0.010168
-0.040189 0.410084 0.007495
-0.039717 0.425481 0.006652
-0.039014 0.421673 0.006107
-0.039351 0.424511 0.005912
-0.039898 0.415396 0.007574
-0.041833 0.432749 0.009087
-0.039030 0.413138 0.005793
-0.038581 0.444036 0.004637
-0.036212 0.393434 0.006655
-0.035492 0.386549 0.002498
-0.034976 0.396442 0.004447
-0.036669 0.405652 0.001861
-0.035817 0.396283 -0.001007
-0.034729 0.399059 -0.000760
-0.035660 0.403310 0.008140
-0.036591 0.395183 -0.004627
-0.035114 0.391369 -0.002860
-0.036302 0.408556 -0.002612
-0.034301 0.408547 0.003831
-0.035863 0.404081 -0.001824
-0.035123 0.394297 0.001672
-0.034970 0.404763 0.005822
-0.037322 0.401259 -0.002801
-0.035986 0.402359 -0.005697
-0.034957 0.391038 0.003105
-0.036232 0.411158 0.005041
-0.035883 0.397862 -0.002930
-0.034997 0.411767 -0.002004
-0.036214 0.397508 0.008081
-0.035854 0.387856 -0.000430
-0.035588 0.403713 0.003957
-0.036153 0.400433 0.002928
-0.035436 0.389168 0.005025
-0.035970 0.402500 0.001526
-0.035810 0.399759 0.004368
-0.036143 0.401286 0.005847
-0.035981 0.394848 -0.000051
-0.036647 0.408807 0.008653
-0.036194 0.395237 0.005084
-0.034464 0.415720 0.000207
-0.035575 0.385945 -0.001768
-0.036740 0.379871 -0.005715
-0.036492 0.388526 -0.004576
-0.038035 0.398002 -0.005612
-0.038064 0.388509 -0.009220
-0.036376 0.392081 -0.009221
-0.034620 0.394960 -0.000507
-0.039576 0.388052 -0.012904
-0.037432 0.384445 -0.010740
-0.038498 0.398738 -0.010225
-0.035416 0.400415 -0.004919
-0.037164 0.397004 -0.009351
-0.035830 0.386820 -0.007867
-0.035222 0.396090 -0.003492
-0.038112 0.393871 -0.010925
-0.039321 0.394530 -0.013812
-0.035281 0.384348 -0.005477
-0.037141 0.402691 -0.004682
-0.038138 0.390869 -0.011137
-0.036698 0.403155 -0.010806
-0.035751 0.390979 -0.000059
-0.036848 0.381011 -0.008458
-0.036370 0.395547 -0.005683
-0.036355 0.392122 -0.006692
-0.035589 0.383339 -0.003648
-0.037257 0.394292 -0.007585
-0.035693 0.393753 -0.004753
-0.036027 0.393722 -0.003392
-0.037828 0.387696 -0.008721
-0.035000 0.399608 -0.001453
-0.036692 0.388779 -0.002795
-0.036085 0.406547 -0.008483
-0.051838 0.374951 -0.005009
-0.050041 0.363519 -0.011140
-0.051069 0.381820 -0.005931
-0.045007 0.398552 -0.011058
-0.044375 0.386613 -0.013591
-0.048603 0.386862 -0.011611
-0.051277 0.394421 -0.003553
-0.044949 0.379191 -0.009799
-0.044613 0.372751 -0.010570
-0.045264 0.403313 -0.010178
-0.048946 0.403955 -0.011299
-0.049775 0.394747 -0.011616
-0.047715 0.382227 -0.012602
-0.051142 0.399142 -0.007454
-0.045865 0.389247 -0.011204
-0.046392 0.394709 -0.011115
-0.049001 0.374759 -0.010888
-0.049819 0.408446 -0.013100
-0.048066 0.384575 -0.009514
-0.050233 0.408553 -0.009649
-0.052690 0.384264 -0.005086
-0.051111 0.368273 -0.008361
-0.050378 0.397593 -0.010225
-0.051766 0.390159 -0.004585
-0.051495 0.372156 -0.009391
-0.047710 0.395693 -0.011899
-0.051035 0.389154 -0.009805
-0.047729 0.394133 -0.012235
-0.050480 0.380992 -0.008749
-0.052123 0.403481 -0.008458
-0.047485 0.375942 -0.011749
-0.050311 0.414814 -0.011898
-0.045776 0.422348 0.008894
-0.037461 0.416924 0.006508
-0.042220 0.427161 0.010167
-0.037036 0.434078 0.004917
-0.037835 0.426768 0.002925
-0.036704 0.426732 0.006644
-0.040490 0.430920 0.009897
-0.037205 0.424448 0.001323
-0.035884 0.420716 0.004099
-0.036588 0.439979 0.005369
-0.038044 0.440123 0.007878
-0.039903 0.431735 0.007171
-0.036582 0.426096 0.006408
-0.043807 0.435685 0.008896
-0.037006 0.429996 0.004645
-0.036386 0.431882 0.000978
-0.037534 0.422615 0.006944
-0.038766 0.442663 0.006129
-0.038483 0.425894 0.005832
-0.041447 0.440663 0.007310
-0.041077 0.425374 0.009466
-0.039767 0.418246 0.008889
-0.038648 0.432811 0.008639
-0.047511 0.429143 0.010401
-0.038808 0.421044 0.007694
-0.038272 0.432338 0.007408
-0.037655 0.429513 0.006849
-0.037996 0.432078 0.005992
-0.041997 0.423253 0.008439
-0.040501 0.437699 0.009151
-0.038306 0.422548 0.005619
-0.038997 0.446423 0.006010
-0.035988 0.348696 0.005284
-0.036529 0.338028 -0.001072
-0.036072 0.353825 0.000925
-0.038654 0.368036 -0.001522
-0.037895 0.353515 -0.003830
-0.038713 0.357023 -0.006060
-0.037002 0.365308 0.006933
-0.039122 0.351047 -0.009145
-0.037353 0.345409 -0.008985
-0.038053 0.370458 -0.006417
-0.035749 0.369399 0.001584
-0.037831 0.365695 -0.007064
-0.037357 0.350898 -0.001486
-0.035568 0.366878 0.003346
-0.039613 0.360372 -0.007459
-0.038733 0.361348 -0.010028
-0.036145 0.345432 -0.000035
-0.037339 0.376347 0.003951
-0.039572 0.355509 -0.009118
-0.037725 0.375745 -0.007883
-0.037838 0.353504 0.006939
-0.037665 0.338827 -0.006437
-0.035421 0.363404 0.001899
-0.037924 0.360655 -0.001217
-0.037196 0.342396 0.003793
-0.037208 0.364104 -0.002282
-0.038089 0.358258 0.001817
-0.038214 0.359285 0.004272
-0.038642 0.350677 -0.006001
-0.037981 0.370882 0.006375
-0.039009 0.349234 0.001863
-0.035941 0.381392 -0.003102
-0.053999 0.394011 -0.009882
-0.044314 0.384391 -0.012195
-0.054514 0.397498 -0.009024
-0.040564 0.412051 -0.007382
-0.039974 0.398823 -0.007904
-0.045987 0.400697 -0.014520
-0.050068 0.405352 -0.012002
-0.041471 0.395389 -0.010994
-0.045202 0.391574 -0.012206
-0.042059 0.413380 -0.011055
-0.044349 0.416747 -0.013535
-0.052630 0.407297 -0.013303
-0.040458 0.400170 -0.011133
-0.049370 0.411107 -0.013886
-0.041486 0.403354 -0.010774
-0.046673 0.405072 -0.012344
-0.045287 0.395128 -0.012241
-0.043090 0.417904 -0.012387
-0.050900 0.401561 -0.010734
-0.052189 0.415162 -0.011084
-0.048668 0.398415 -0.012821
-0.049733 0.386507 -0.011485
-0.044793 0.407895 -0.012833
-0.052269 0.404329 -0.007990
-0.042208 0.390761 -0.013514
-0.041688 0.408888 -0.013058
-0.042884 0.403603 -0.013495
-0.038641 0.408168 -0.010098
-0.050351 0.395290 -0.011781
-0.046102 0.411572 -0.013363
-0.040161 0.391899 -0.010102
-0.049785 0.422643 -0.013878
-0.034300 0.309609 0.002216
-0.035686 0.297160 -0.003151
-0.035233 0.317511 -0.002467
-0.037352 0.336093 -0.000835
-0.035548 0.316062 -0.001686
-0.039075 0.319021 -0.008153
-0.035597 0.332751 0.004530
-0.037487 0.311065 -0.008878
-0.037178 0.305262 -0.009063
-0.038402 0.340822 -0.004031
-0.035397 0.340365 -0.000542
-0.038097 0.332588 -0.007384
-0.035908 0.314279 -0.002268
-0.034352 0.335202 -0.000720
-0.037841 0.323861 -0.007013
-0.040246 0.327886 -0.007697
-0.035759 0.304170 -0.003567
-0.035025 0.349920 0.002367
-0.040733 0.319450 -0.009302
-0.038997 0.346758 -0.008589
-0.036584 0.314260 0.004735
-0.037856 0.297917 -0.009418
-0.033297 0.329515 0.001052
-0.039491 0.325700 -0.002948
-0.035909 0.302680 0.003487
-0.037234 0.331081 -0.003898
-0.037798 0.321543 -0.001105
-0.036305 0.322922 0.002685
-0.038893 0.312396 -0.007091
-0.036476 0.339611 0.001846
-0.038530 0.307224 -0.000977
-0.036227 0.355913 -0.005512
-0.051768 0.385066 -0.004389
-0.050131 0.373542 -0.010842
-0.050854 0.392151 -0.005733
-0.045141 0.409349 -0.010968
-0.044276 0.397163 -0.013474
-0.048851 0.397393 -0.011703
-0.051687 0.405307 -0.002675
-0.044846 0.389171 -0.009554
-0.044313 0.382856 -0.010615
-0.045442 0.414310 -0.010092
-0.049438 0.414607 -0.011206
-0.049681 0.405587 -0.011738
-0.048135 0.392201 -0.012595
-0.051323 0.410035 -0.006962
-0.045880 0.399603 -0.011149
-0.046425 0.405367 -0.010876
-0.049349 0.384686 -0.010737
-0.050371 0.419735 -0.012779
-0.047961 0.394895 -0.009551
-0.050298 0.420013 -0.009519
-0.053022 0.394585 -0.004080
-0.050893 0.378314 -0.008504
-0.050910 0.408354 -0.010013
-0.051517 0.401007 -0.004176
-0.052170 0.382081 -0.008625
-0.048014 0.406403 -0.011901
-0.051646 0.399491 -0.009189
-0.047849 0.404855 -0.011638
-0.050434 0.391427 -0.008824
-0.052657 0.414821 -0.007916
-0.047669 0.386094 -0.011437
-0.050524 0.426138 -0.011806
-0.052291 0.346872 0.008140
-0.043451 0.319027 0.005083
-0.051199 0.365519 0.007585
-0.040642 0.412547 0.002829
-0.031903 0.369301 0.007801
-0.051556 0.367657 -0.000008
-0.051779 0.396089 0.009166
-0.038505 0.352363 -0.004543
-0.044150 0.337377 -0.002388
-0.045905 0.417250 0.002187
-0.050548 0.416979 0.004851
-0.049104 0.398724 0.001253
-0.048261 0.365140 0.006284
-0.052583 0.406301 0.001715
-0.046564 0.380316 -0.002096
-0.046934 0.396246 -0.002600
-0.052154 0.344495 0.003246
-0.045510 0.436953 0.006780
-0.050628 0.376819 -0.002085
-0.052961 0.428291 -0.000718
-0.054209 0.359846 0.007659
-0.049642 0.319299 0.000123
-0.044918 0.397867 0.006667
-0.056031 0.385689 0.006411
-0.050233 0.332656 0.013181
-0.048684 0.397160 0.005047
-0.051547 0.375520 0.007042
-0.043588 0.387122 0.005258
-0.052930 0.356003 0.002113
-0.050138 0.413303 0.004868
-0.045753 0.337793 0.000008
-0.048458 0.444593 -0.000697
-0.042498 0.379408 0.009423
-0.038661 0.364769 0.005508
-0.040121 0.385937 0.008291
-0.039055 0.404448 0.004596
-0.039200 0.386891 0.004232
-0.039696 0.388165 0.003527
-0.041971 0.400428 0.008985
-0.037535 0.381045 -0.000548
-0.034334 0.374280 0.000704
-0.037635 0.409944 0.003309
-0.038431 0.408984 0.007552
-0.038590 0.399925 0.003933
-0.038459 0.385931 0.006282
-0.041253 0.403650 0.007193
-0.040087 0.392830 0.003342
-0.036732 0.398067 -0.000717
-0.037431 0.375786 0.007567
-0.039057 0.418675 0.006655
-0.036968 0.389061 0.001168
-0.039892 0.415579 0.004552
-0.041400 0.386284 0.008821
-0.038713 0.370601 0.006063
-0.038460 0.399170 0.008032
-0.043989 0.395900 0.010474
-0.040858 0.372009 0.009780
-0.039434 0.400762 0.006259
-0.041509 0.391346 0.006737
-0.039910 0.394609 0.005499
-0.038577 0.382027 0.004826
-0.042199 0.406880 0.007443
-0.040719 0.375418 0.004500
-0.038529 0.423444 0.003016
-0.053724 0.438143 0.009654
-0.041238 0.428962 0.007563
-0.052927 0.444384 0.010694
-0.037331 0.454039 0.005248
-0.038983 0.444253 0.003341
-0.042734 0.443116 0.009040
-0.047548 0.447617 0.010416
-0.038462 0.438519 0.005970
-0.041716 0.434707 0.006951
-0.040374 0.461374 0.010653
-0.043387 0.462327 0.008609
-0.051122 0.450721 0.007712
-0.038416 0.443744 0.008115
-0.050572 0.456891 0.009094
-0.039729 0.446523 0.008501
-0.041940 0.450523 0.007221
-0.041925 0.437497 0.009249
-0.041360 0.465254 0.007447
-0.050323 0.442540 0.008344
-0.054636 0.461875 0.008535
-0.046461 0.439741 0.009634
-0.048246 0.431579 0.010799
-0.041978 0.451172 0.009812
-0.055967 0.448378 0.009449
-0.040780 0.435094 0.008573
-0.038996 0.452100 0.008828
-0.041199 0.445349 0.008815
-0.038469 0.451837 0.006936
-0.050546 0.437829 0.010153
-0.045096 0.457755 0.011523
-0.040321 0.436866 0.004687
-0.048121 0.470183 0.008431
-0.035550 0.402217 -0.001351
-0.036622 0.397467 -0.005624
-0.036358 0.404778 -0.004296
-0.038131 0.413888 -0.005767
-0.037965 0.404453 -0.009634
-0.036187 0.408199 -0.009220
-0.034727 0.410977 -0.000150
-0.039398 0.404539 -0.013251
-0.037164 0.400995 -0.010704
-0.038347 0.414672 -0.010312
-0.035390 0.416073 -0.004577
-0.037168 0.412918 -0.009501
-0.035711 0.402924 -0.007860
-0.035430 0.411927 -0.003061
-0.037952 0.409880 -0.011158
-0.039006 0.410262 -0.013899
-0.035161 0.401069 -0.005393
-0.037311 0.418489 -0.004335
-0.037811 0.406847 -0.010857
-0.036629 0.418803 -0.010682
-0.035990 0.407189 0.000153
-0.036398 0.398311 -0.008391
-0.036514 0.411514 -0.005547
-0.036314 0.407895 -0.006442
-0.035599 0.400147 -0.003555
-0.037290 0.410118 -0.007654
-0.035711 0.409717 -0.004649
-0.036139 0.409615 -0.003233
-0.037648 0.403883 -0.008786
-0.035180 0.415397 -0.001221
-0.036921 0.405016 -0.002449
-0.036137 0.421928 -0.008343
-0.034902 0.417856 0.004919
-0.035275 0.413853 -0.000436
-0.034967 0.420944 0.001158
-0.037054 0.430731 -0.001601
-0.036657 0.420818 -0.005450
-0.034207 0.424643 -0.004593
-0.034457 0.427862 0.006024
-0.037094 0.421208 -0.010078
-0.035196 0.417239 -0.006637
-0.036147 0.431629 -0.007110
-0.034413 0.432755 0.001300
-0.035850 0.429108 -0.005590
-0.034296 0.418449 -0.002850
-0.034725 0.428726 0.003299
-0.036065 0.426285 -0.007563
-0.035848 0.426262 -0.010773
-0.034085 0.417400 -0.000060
-0.036665 0.435243 0.001831
-0.035123 0.423010 -0.006667
-0.034554 0.435432 -0.006455
-0.036135 0.424010 0.005753
-0.034783 0.414325 -0.003803
-0.035510 0.428143 0.000005
-0.034781 0.423941 -0.000703
-0.034729 0.415864 0.002071
-0.036012 0.426636 -0.002765
-0.034946 0.425487 0.000718
-0.035599 0.425929 0.002595
-0.035673 0.420270 -0.004548
-0.035152 0.432417 0.005069
-0.036587 0.421284 0.003716
-0.034707 0.438261 -0.003079
-0.035804 0.368989 0.002531
-0.036619 0.360110 -0.003070
-0.036577 0.373569 -0.001430
-0.038697 0.386407 -0.003108
-0.037984 0.372710 -0.005858
-0.039098 0.376487 -0.007623
-0.036448 0.384044 0.004222
-0.039380 0.370938 -0.009756
-0.037771 0.366420 -0.009720
-0.038704 0.389407 -0.007104
-0.035898 0.388463 -0.001198
-0.038687 0.384529 -0.008022
-0.037397 0.370947 -0.003756
-0.035383 0.385670 0.000491
-0.039745 0.379712 -0.008855
-0.039569 0.380464 -0.010689
-0.036076 0.365801 -0.002520
-0.037239 0.394460 0.001083
-0.040144 0.375140 -0.009575
-0.038521 0.394120 -0.009253
-0.036932 0.373007 0.004483
-0.037772 0.361105 -0.007972
-0.035521 0.382595 -0.000913
-0.038315 0.379898 -0.003429
-0.036530 0.363756 0.001201
-0.037638 0.382610 -0.004447
-0.038007 0.377334 -0.000649
-0.037630 0.378503 0.001794
-0.039092 0.370693 -0.007085
-0.037580 0.389450 0.003779
-0.038800 0.369532 -0.000669
-0.036401 0.399423 -0.005558
-0.050596 0.441562 0.011209
-0.039024 0.420139 0.006577
-0.046918 0.449651 0.012511
-0.034336 0.467729 0.002911
-0.032250 0.452874 0.006845
-0.043340 0.451219 0.006059
-0.044604 0.465351 0.009775
-0.035198 0.445100 0.000732
-0.035577 0.431328 0.002191
-0.036876 0.471698 0.004639
-0.041276 0.469842 0.008430
-0.041955 0.462168 0.005940
-0.042183 0.449757 0.007572
-0.046844 0.467867 0.008449
-0.041480 0.457736 0.002894
-0.036752 0.462657 -0.001047
-0.041335 0.437280 0.006793
-0.036983 0.477820 0.005796
-0.041227 0.454749 0.000874
-0.046486 0.474508 0.006167
-0.043045 0.448496 0.010885
-0.044201 0.419404 0.005707
-0.038515 0.464161 0.009542
-0.052011 0.460675 0.012739
-0.045601 0.428522 0.011378
-0.039563 0.464974 0.009026
-0.042074 0.455159 0.009292
-0.037770 0.460306 0.007556
-0.043970 0.444209 0.007052
-0.043716 0.469773 0.011373
-0.041024 0.434331 0.001880
-0.043469 0.478122 0.005430
-0.038860 0.412683 -0.009857
-0.038807 0.406135 -0.009626
-0.040705 0.415190 -0.010418
-0.038672 0.423923 -0.006009
-0.038768 0.414924 -0.008051
-0.039270 0.417266 -0.011807
-0.037018 0.420306 -0.008536
-0.041735 0.413397 -0.011789
-0.040843 0.410522 -0.011870
-0.041169 0.425535 -0.010807
-0.038627 0.427512 -0.010511
-0.041035 0.423837 -0.011802
-0.038614 0.415104 -0.009626
-0.038206 0.422696 -0.010111
-0.040695 0.418873 -0.010696
-0.044090 0.421659 -0.013188
-0.038173 0.409747 -0.010048
-0.039651 0.428622 -0.009114
-0.043438 0.416098 -0.012997
-0.041090 0.428929 -0.013579
-0.037642 0.415287 -0.007210
-0.040239 0.406965 -0.012060
-0.038793 0.421086 -0.010115
-0.041959 0.419216 -0.011299
-0.037998 0.410058 -0.008536
-0.040299 0.420474 -0.010464
-0.037698 0.419499 -0.008505
-0.037431 0.420327 -0.007661
-0.042349 0.413623 -0.011149
-0.036765 0.425066 -0.008634
-0.038112 0.414101 -0.006562
-0.040161 0.432689 -0.013490
-0.056849 0.454058 0.011205
-0.040781 0.443861 0.006775
-0.055685 0.460724 0.012419
-0.037476 0.469983 0.003611
-0.039445 0.460852 0.003610
-0.044081 0.459116 0.009293
-0.051392 0.463856 0.011645
-0.037946 0.454186 0.003634
-0.043319 0.449763 0.004948
-0.041225 0.478987 0.008690
-0.045407 0.478219 0.008647
-0.053518 0.468240 0.006581
-0.038637 0.458957 0.007544
-0.055578 0.473976 0.010717
-0.039500 0.463473 0.007121
-0.042537 0.468356 0.004844
-0.042826 0.453065 0.009472
-0.040946 0.481267 0.008276
-0.054105 0.459023 0.005784
-0.059556 0.478059 0.007526
-0.048141 0.455818 0.012122
-0.049784 0.446634 0.012432
-0.042902 0.467917 0.011000
-0.059148 0.465327 0.010112
-0.041665 0.449956 0.009948
-0.039010 0.468885 0.009245
-0.042436 0.461984 0.009942
-0.038472 0.468214 0.008830
-0.053452 0.453355 0.009362
-0.046729 0.474627 0.013826
-0.041150 0.452163 0.004468
-0.052231 0.485490 0.008945
-0.051503 0.413820 -0.005342
-0.049641 0.404637 -0.011314
-0.050434 0.420638 -0.005821
-0.042821 0.435652 -0.010401
-0.041969 0.425077 -0.013345
-0.048771 0.424453 -0.012451
-0.051604 0.431484 -0.004746
-0.043720 0.418186 -0.010232
-0.044068 0.412446 -0.011668
-0.045736 0.438796 -0.010367
-0.048219 0.440742 -0.012071
-0.049185 0.431296 -0.011983
-0.045896 0.421083 -0.013104
-0.050772 0.435748 -0.008410
-0.044671 0.426787 -0.011824
-0.046944 0.431431 -0.011417
-0.049026 0.415929 -0.011635
-0.048098 0.444201 -0.013545
-0.047888 0.422753 -0.009917
-0.049780 0.444072 -0.009053
-0.053648 0.422279 -0.006623
-0.050582 0.408208 -0.009315
-0.050044 0.434973 -0.011372
-0.050653 0.427169 -0.004066
-0.051073 0.412758 -0.011211
-0.046575 0.432549 -0.012539
-0.050445 0.428025 -0.011107
-0.044750 0.432221 -0.013752
-0.049779 0.419349 -0.009149
-0.052425 0.439815 -0.009932
-0.044187 0.414162 -0.012885
-0.050092 0.450309 -0.010893
-0.035905 0.432242 0.000205
-0.036668 0.428176 -0.005236
-0.036366 0.435241 -0.003540
-0.038626 0.444563 -0.006081
-0.038009 0.434780 -0.010232
-0.036246 0.438595 -0.009402
-0.035445 0.441719 0.001319
-0.039324 0.435149 -0.014114
-0.037212 0.431200 -0.011146
-0.038292 0.445109 -0.011159
-0.035480 0.446240 -0.003608
-0.037558 0.443165 -0.009950
-0.035905 0.432424 -0.007792
-0.035868 0.442346 -0.001825
-0.038016 0.440316 -0.011799
-0.038428 0.440380 -0.014506
-0.035657 0.431473 -0.004953
-0.037798 0.448577 -0.003176
-0.037478 0.437049 -0.011096
-0.036468 0.448765 -0.010849
-0.036867 0.438078 0.001208
-0.036431 0.428661 -0.008198
-0.036998 0.442077 -0.005018
-0.036092 0.438233 -0.005606
-0.036004 0.430019 -0.002783
-0.037529 0.440290 -0.007585
-0.036375 0.439719 -0.003997
-0.036661 0.439999 -0.002301
-0.037428 0.434269 -0.009152
-0.035909 0.446065 0.000051
-0.037766 0.435335 -0.001220
-0.036091 0.451314 -0.007629
-0.051596 0.427077 -0.005408
-0.049397 0.419534 -0.011622
-0.050661 0.433215 -0.006016
-0.042433 0.446586 -0.010267
-0.041812 0.437171 -0.013372
-0.048563 0.436256 -0.012398
-0.051555 0.442821 -0.004809
-0.043400 0.431217 -0.010445
-0.043803 0.426269 -0.011855
-0.045513 0.449555 -0.010243
-0.047674 0.451310 -0.012175
-0.049265 0.442173 -0.011976
-0.044881 0.433641 -0.013332
-0.050413 0.446574 -0.008687
-0.044273 0.438721 -0.011983
-0.046749 0.442780 -0.011333
-0.048751 0.429815 -0.011819
-0.047043 0.454309 -0.013595
-0.047702 0.435133 -0.009904
-0.049468 0.453758 -0.008779
-0.053561 0.434706 -0.006400
-0.050429 0.422212 -0.009664
-0.049372 0.445863 -0.011536
-0.050711 0.438518 -0.004115
-0.050575 0.426697 -0.011520
-0.046139 0.443353 -0.012633
-0.050024 0.440253 -0.011513
-0.044067 0.443743 -0.013707
-0.049612 0.431765 -0.009294
-0.051961 0.450479 -0.009760
-0.043826 0.427297 -0.013118
-0.049782 0.459523 -0.010720
-0.037586 0.406678 0.009082
-0.037119 0.393555 0.003181
-0.036424 0.413289 0.005299
-0.039527 0.431654 0.002395
-0.039231 0.414157 0.001021
-0.038650 0.417144 -0.001822
-0.039046 0.427179 0.010755
-0.038879 0.409385 -0.006404
-0.036243 0.402181 -0.005178
-0.037826 0.434864 -0.003850
-0.036700 0.432903 0.005204
-0.036921 0.427595 -0.003547
-0.038253 0.410325 0.003332
-0.037149 0.429468 0.006993
-0.040018 0.421154 -0.004010
-0.038299 0.423979 -0.008802
-0.037278 0.403336 0.004553
-0.038398 0.442193 0.007559
-0.037722 0.415732 -0.006043
-0.037317 0.440112 -0.003575
-0.039856 0.413427 0.010500
-0.037153 0.396583 -0.001422
-0.036522 0.425487 0.006598
-0.038452 0.422662 0.005018
-0.038875 0.399009 0.008355
-0.037977 0.426266 0.001992
-0.039625 0.418496 0.006104
-0.039261 0.421213 0.007767
-0.037370 0.410359 -0.001988
-0.040074 0.434362 0.009638
-0.040130 0.406818 0.005662
-0.036663 0.447512 -0.000146
-0.036041 0.359805 0.001214
-0.037701 0.346364 -0.003668
-0.037084 0.367828 -0.003017
-0.038481 0.385162 -0.001933
-0.038119 0.367262 -0.002475
-0.040173 0.369159 -0.008840
-0.036508 0.382239 0.004489
-0.040044 0.361727 -0.009662
-0.039065 0.355364 -0.009923
-0.039230 0.389232 -0.005853
-0.036430 0.388801 -0.001492
-0.039149 0.382011 -0.008746
-0.037929 0.364968 -0.003250
-0.035658 0.384177 -0.001286
-0.039732 0.374067 -0.007989
-0.041324 0.377006 -0.009402
-0.037657 0.354579 -0.004188
-0.036598 0.397023 0.001367
-0.041991 0.369369 -0.010637
-0.039994 0.394352 -0.009917
-0.038160 0.364714 0.005187
-0.039760 0.346806 -0.010314
-0.034599 0.379509 0.000554
-0.041520 0.375794 -0.004096
-0.037845 0.352250 0.002849
-0.038263 0.380352 -0.004963
-0.038757 0.372521 -0.001489
-0.038162 0.373213 0.002517
-0.040569 0.362695 -0.008140
-0.037540 0.388455 0.002141
-0.039979 0.358392 -0.000826
-0.036813 0.402223 -0.006600
-0.051240 0.441889 -0.007202
-0.047620 0.436243 -0.012394
-0.051071 0.446743 -0.007390
-0.041902 0.458617 -0.009661
-0.042020 0.449098 -0.012311
-0.047161 0.448729 -0.012006
-0.050293 0.454148 -0.007093
-0.043491 0.445075 -0.010948
-0.044007 0.441391 -0.012033
-0.044603 0.461707 -0.009804
-0.046152 0.463567 -0.011890
-0.049585 0.454472 -0.011512
-0.043348 0.447783 -0.012890
-0.049573 0.458193 -0.010273
-0.043779 0.451604 -0.011641
-0.046223 0.454422 -0.011207
-0.047095 0.444861 -0.012271
-0.045170 0.466225 -0.013174
-0.047800 0.448524 -0.009770
-0.049566 0.464149 -0.009143
-0.051232 0.447958 -0.008578
-0.049476 0.437854 -0.010319
-0.047358 0.456714 -0.011778
-0.051254 0.450566 -0.005550
-0.047601 0.442287 -0.012615
-0.044988 0.455206 -0.012547
-0.047430 0.452813 -0.012606
-0.042842 0.455782 -0.013665
-0.049136 0.444868 -0.009786
-0.049245 0.461179 -0.010826
-0.043109 0.441870 -0.012954
-0.048981 0.470852 -0.011295
-0.052624 0.462198 0.005218
-0.039552 0.457845 -0.000679
-0.044178 0.465861 0.002490
-0.041441 0.472192 -0.003070
-0.040642 0.466818 -0.001219
-0.039259 0.465053 -0.004276
-0.044031 0.469558 0.009674
-0.041596 0.464694 -0.009685
-0.039677 0.460399 -0.007473
-0.039790 0.479213 -0.006130
-0.039751 0.477709 -0.001221
-0.042651 0.469806 -0.005585
-0.040509 0.463012 -0.004128
-0.049815 0.474491 0.004003
-0.040250 0.468850 -0.006270
-0.038859 0.469666 -0.010362
-0.039283 0.461940 -0.001402
-0.041468 0.481760 0.002229
-0.046380 0.465368 -0.010054
-0.051165 0.476682 -0.004610
-0.041468 0.465400 0.009135
-0.043024 0.455532 -0.001784
-0.039074 0.471601 0.002725
-0.057621 0.467397 0.001961
-0.040086 0.459840 0.003458
-0.041036 0.467261 -0.002283
-0.040398 0.468343 0.002056
-0.040945 0.468620 0.004334
-0.051088 0.461773 -0.004296
-0.039875 0.477820 0.006098
-0.041197 0.464227 0.004103
-0.042366 0.485850 -0.004570
-0.036675 0.445714 0.000027
-0.037296 0.439714 -0.005525
-0.036668 0.448780 -0.003835
-0.038723 0.459244 -0.006709
-0.038326 0.448756 -0.010665
-0.036723 0.452290 -0.009992
-0.036039 0.456043 0.001190
-0.039741 0.448327 -0.015087
-0.037787 0.443912 -0.011869
-0.038605 0.459944 -0.012252
-0.035697 0.461157 -0.003858
-0.037698 0.457237 -0.010608
-0.036396 0.445690 -0.008145
-0.036475 0.456966 -0.002146
-0.038515 0.454342 -0.012533
-0.038731 0.454689 -0.015630
-0.036252 0.444386 -0.005156
-0.037826 0.464116 -0.003244
-0.037976 0.451093 -0.012154
-0.036832 0.464001 -0.011532
-0.037197 0.451951 0.001359
-0.037103 0.441325 -0.008611
-0.037419 0.456151 -0.005201
-0.036330 0.452389 -0.005878
-0.036487 0.442478 -0.002788
-0.037654 0.454872 -0.008180
-0.036640 0.453339 -0.004260
-0.037058 0.454299 -0.002381
-0.037544 0.447757 -0.009811
-0.036332 0.461129 0.000152
-0.038174 0.448412 -0.001626
-0.036265 0.467267 -0.007879
-0.057378 0.472356 0.013412
-0.030153 0.468937 0.002145
-0.046857 0.474351 0.006643
-0.021511 0.477054 -0.006213
-0.017104 0.476413 0.007265
-0.037601 0.473859 -0.000935
-0.049220 0.474115 0.016584
-0.022540 0.474945 -0.012603
-0.039509 0.472149 -0.009312
-0.035721 0.481064 -0.006857
-0.038352 0.476095 0.002650
-0.045093 0.475009 -0.007236
-0.025834 0.475863 0.004140
-0.048834 0.475833 0.009966
-0.032150 0.474152 -0.009493
-0.033502 0.474806 -0.016167
-0.032703 0.473091 0.006766
-0.026120 0.483183 0.008468
-0.049509 0.474916 -0.016191
-0.055138 0.476533 -0.007187
-0.039822 0.474734 0.019754
-0.042547 0.460963 0.002894
-0.031639 0.477036 0.014294
-0.060865 0.472817 0.002769
-0.033896 0.470122 0.015703
-0.028976 0.475780 -0.000555
-0.037567 0.474555 0.013206
-0.024227 0.475691 0.019065
-0.050572 0.471883 -0.001975
-0.042746 0.478481 0.016046
-0.024711 0.473645 0.010032
-0.049292 0.483010 0.001727
-0.051742 0.451197 -0.006464
-0.047318 0.444126 -0.012568
-0.051047 0.455574 -0.007262
-0.042217 0.465975 -0.009401
-0.042563 0.457688 -0.012142
-0.046987 0.457357 -0.010984
-0.050430 0.462735 -0.004776
-0.043618 0.453632 -0.010157
-0.043632 0.449979 -0.011358
-0.044144 0.470181 -0.009124
-0.046251 0.470928 -0.011554
-0.049272 0.462361 -0.011009
-0.043762 0.456370 -0.013023
-0.049387 0.466293 -0.009483
-0.043567 0.459959 -0.010796
-0.045237 0.462343 -0.010652
-0.047147 0.452960 -0.012029
-0.045057 0.473881 -0.012539
-0.047411 0.456737 -0.009451
-0.049509 0.471948 -0.008571
-0.050338 0.457150 -0.005018
-0.049897 0.445596 -0.010201
-0.047055 0.464574 -0.011243
-0.052187 0.458613 -0.005465
-0.047865 0.450059 -0.011584
-0.044906 0.462797 -0.011955
-0.047683 0.461179 -0.011736
-0.043750 0.463900 -0.011934
-0.049336 0.453477 -0.009124
-0.048408 0.469636 -0.008361
-0.043989 0.450641 -0.012541
-0.048836 0.478388 -0.010931
-0.043424 0.420386 0.010885
-0.038066 0.401640 0.004369
-0.040802 0.430202 0.008678
-0.040116 0.453669 0.003085
-0.038665 0.431705 0.004014
-0.040595 0.432333 -0.000083
-0.043490 0.447166 0.012639
-0.039068 0.423088 -0.006937
-0.036470 0.412707 -0.005155
-0.039178 0.458673 -0.003257
-0.039793 0.454848 0.006356
-0.038086 0.446924 -0.001827
-0.040386 0.426062 0.004992
-0.043592 0.450565 0.008581
-0.041736 0.439591 -0.003488
-0.038832 0.444509 -0.010097
-0.040038 0.416274 0.006415
-0.039643 0.466271 0.008686
-0.039086 0.432707 -0.006049
-0.041789 0.461864 -0.001605
-0.042782 0.428387 0.011895
-0.039317 0.405651 0.001666
-0.037798 0.447083 0.010502
-0.046708 0.442415 0.008711
-0.042857 0.408698 0.011504
-0.039999 0.446443 0.004014
-0.042675 0.436406 0.008587
-0.040823 0.440324 0.008976
-0.040094 0.424374 -0.000767
-0.043563 0.455438 0.012072
-0.042043 0.417327 0.005928
-0.039758 0.470879 0.000658
-0.062919 0.484119 0.010794
-0.048931 0.474560 -0.000898
-0.058418 0.489349 0.002523
-0.036504 0.497367 -0.008383
-0.035602 0.494428 -0.000025
-0.054653 0.488873 -0.004937
-0.060241 0.493191 0.015763
-0.041668 0.485320 -0.012962
-0.054128 0.478385 -0.012170
-0.050048 0.498078 -0.013326
-0.054470 0.498283 -0.000735
-0.057298 0.495129 -0.010384
-0.042681 0.488338 -0.002782
-0.060783 0.497438 0.007481
-0.046969 0.492512 -0.010752
-0.052817 0.493464 -0.020482
-0.052450 0.484403 0.002143
-0.041427 0.500393 0.005073
-0.057938 0.487524 -0.016392
-0.063061 0.499125 -0.011822
-0.054044 0.488732 0.020301
-0.057836 0.474142 -0.000863
-0.046844 0.496325 0.006377
-0.067904 0.492118 -0.000762
-0.053548 0.477736 0.008862
-0.045988 0.496480 -0.004746
-0.053982 0.492110 0.008574
-0.038735 0.495827 0.012535
-0.060707 0.482340 -0.007216
-0.052856 0.500290 0.014823
-0.041943 0.481904 0.004560
-0.061740 0.502812 -0.000727
-0.057721 0.456968 0.006749
-0.035957 0.435789 -0.002321
-0.052238 0.468005 0.006830
-0.005823 0.480070 -0.005362
0.005289 0.468793 0.003175
-0.044999 0.466980 -0.002126
-0.052052 0.475467 0.006642
-0.020902 0.465261 -0.006187
-0.044041 0.450562 -0.004513
-0.031045 0.480331 -0.001504
-0.041804 0.478919 -0.000552
-0.049985 0.472650 -0.001604
-0.026034 0.469718 0.005327
-0.049338 0.477714 -0.000351
-0.034379 0.473975 -0.004847
-0.038979 0.474685 -0.010643
-0.040479 0.459032 -0.000012
-0.018336 0.487059 0.004693
-0.054343 0.469848 -0.011110
-0.056731 0.478939 -0.005343
-0.048040 0.463046 0.011586
-0.054717 0.423052 -0.002394
-0.030275 0.477291 0.006571
-0.062006 0.467448 0.001598
-0.042861 0.448852 0.009894
-0.029285 0.478432 0.003174
-0.040996 0.469364 0.004725
-0.018912 0.476836 0.011008
-0.054875 0.459680 0.001537
-0.042305 0.480137 0.007183
-0.019280 0.451231 -0.002813
-0.053844 0.483534 0.003818
-0.063258 0.479208 0.015459
-0.043576 0.475118 0.003679
-0.059901 0.481993 0.010538
-0.031528 0.492553 -0.001185
-0.031158 0.484980 0.006918
-0.049026 0.480041 0.003380
-0.057061 0.484534 0.019606
-0.036709 0.478982 -0.005042
-0.048665 0.477781 -0.003743
-0.044136 0.496802 -0.001095
-0.049438 0.496060 0.006832
-0.056458 0.490949 -0.001506
-0.036528 0.480430 0.002140
-0.061766 0.495059 0.014236
-0.041317 0.483996 -0.002270
-0.046679 0.487246 -0.008498
-0.041913 0.476236 0.008174
-0.035332 0.497273 0.010743
-0.059873 0.481488 -0.005643
-0.068470 0.495734 -0.002362
-0.048334 0.479468 0.021606
-0.051828 0.476317 0.007344
-0.041862 0.491719 0.012297
-0.071957 0.485018 0.006648
-0.042070 0.477992 0.013611
-0.039591 0.489836 0.003957
-0.047077 0.484026 0.013384
-0.034692 0.485460 0.018092
-0.061782 0.475491 0.000761
-0.047646 0.496292 0.020605
-0.036634 0.478121 0.009245
-0.061337 0.499973 0.004965
-0.043917 0.370327 0.001516
-0.038567 0.350082 -0.003249
-0.043106 0.382283 -0.000522
-0.038544 0.410141 -0.001624
-0.032126 0.383351 0.003302
-0.044279 0.381654 -0.007717
-0.043810 0.401743 0.005923
-0.039276 0.371499 -0.007587
-0.041211 0.363063 -0.008575
-0.041628 0.417553 -0.003202
-0.042577 0.414214 -0.000878
-0.043072 0.400601 -0.007937
-0.040788 0.380555 -0.000935
-0.043860 0.406409 -0.001997
-0.042548 0.390048 -0.007064
-0.044624 0.397501 -0.007009
-0.043332 0.365344 -0.003415
-0.039209 0.429629 0.003296
-0.046908 0.385824 -0.010088
-0.046479 0.418896 -0.008030
-0.045068 0.376518 0.007317
-0.044334 0.349109 -0.010195
-0.036992 0.400915 0.003478
-0.050058 0.393880 -0.002435
-0.044051 0.358481 0.006645
-0.041491 0.399669 -0.004082
-0.044072 0.387944 0.000826
-0.040204 0.392595 0.004418
-0.046106 0.373917 -0.006843
-0.043379 0.412107 0.002144
-0.041264 0.365500 -0.001548
-0.041341 0.434840 -0.006944
-0.058343 0.476699 0.017981
-0.038924 0.473168 0.008962
-0.054813 0.479813 0.016598
-0.017876 0.487442 0.008891
-0.015831 0.480406 0.012877
-0.043284 0.477026 0.010544
-0.049439 0.478593 0.018990
-0.024637 0.476082 0.002827
-0.042056 0.477290 0.003686
-0.039202 0.493495 0.007170
-0.044249 0.492915 0.011783
-0.051775 0.484683 0.006958
-0.025071 0.478125 0.013316
-0.053273 0.489594 0.015868
-0.032978 0.479618 0.006289
-0.040637 0.481777 -0.000218
-0.035019 0.475558 0.014919
-0.027395 0.495861 0.012931
-0.054377 0.476769 0.002409
-0.061970 0.491584 0.007149
-0.044869 0.474648 0.020978
-0.046648 0.476001 0.014078
-0.037144 0.484614 0.017650
-0.066292 0.481706 0.013822
-0.031121 0.478215 0.018116
-0.030927 0.486927 0.012506
-0.037366 0.480198 0.016409
-0.022418 0.481561 0.016260
-0.055382 0.473362 0.008437
-0.042128 0.492044 0.019278
-0.023889 0.474871 0.012014
-0.055467 0.497618 0.011224
-0.049519 0.413117 0.005893
-0.042665 0.395794 0.000692
-0.050041 0.423354 0.005693
-0.038923 0.449377 -0.002003
-0.031026 0.426957 0.004461
-0.049248 0.423771 -0.003681
-0.051000 0.439969 0.009481
-0.038751 0.416208 -0.008480
-0.044040 0.406733 -0.007377
-0.044480 0.455259 -0.002899
-0.047863 0.449083 0.001214
-0.046323 0.438903 -0.004306
-0.044213 0.423810 0.002560
-0.050303 0.445376 0.001799
-0.045517 0.431681 -0.007388
-0.045536 0.438747 -0.009165
-0.048202 0.411393 0.001668
-0.041152 0.464461 0.005757
-0.050535 0.427032 -0.009622
-0.050018 0.454972 -0.004568
-0.050714 0.418616 0.009319
-0.049435 0.393478 -0.003548
-0.040467 0.442022 0.007065
-0.052392 0.434622 0.002083
-0.050418 0.401876 0.010351
-0.045178 0.440085 0.000458
-0.048946 0.428111 0.006054
-0.041374 0.434871 0.008155
-0.049663 0.415509 -0.002695
-0.048337 0.449949 0.006751
-0.043189 0.407685 0.000538
-0.046630 0.467350 -0.002365
-0.042112 0.477362 0.015560
-0.007918 0.471052 0.009393
-0.031923 0.479667 0.017196
0.008639 0.479770 0.012370
0.011637 0.479003 0.015081
-0.014047 0.478026 0.014930
-0.022843 0.477584 0.016896
0.003477 0.476867 0.010019
-0.014607 0.476930 0.009351
-0.009512 0.486365 0.014565
-0.017321 0.484318 0.013921
-0.026390 0.477857 0.012100
0.003099 0.479510 0.014587
-0.025843 0.481331 0.014061
-0.005122 0.477302 0.012670
-0.009237 0.477828 0.006706
-0.007082 0.477219 0.013136
-0.000074 0.488680 0.012677
-0.027306 0.476535 0.007182
-0.039229 0.480529 0.013856
-0.017443 0.475982 0.017899
-0.023881 0.471357 0.013913
-0.008148 0.477724 0.015824
-0.049405 0.477437 0.015564
-0.002206 0.477623 0.015699
-0.001900 0.480465 0.013641
-0.008671 0.478732 0.014791
0.004979 0.479642 0.015513
-0.031026 0.474784 0.014193
-0.015251 0.483271 0.017232
0.005081 0.474431 0.011917
-0.031264 0.488372 0.011687
-0.040758 0.450947 -0.005547
-0.033832 0.434739 -0.007616
-0.039053 0.460064 -0.007549
-0.026749 0.467175 -0.007482
-0.025804 0.460288 -0.002252
-0.038792 0.458597 -0.011394
-0.035634 0.467280 0.000719
-0.035451 0.452152 -0.010286
-0.038094 0.442822 -0.011959
-0.034094 0.471517 -0.010795
-0.032929 0.470463 -0.008991
-0.039606 0.465691 -0.013815
-0.034257 0.457852 -0.006967
-0.035952 0.469111 -0.008194
-0.035876 0.462641 -0.011648
-0.038493 0.464714 -0.013648
-0.036091 0.447227 -0.008830
-0.027926 0.473480 -0.005752
-0.043647 0.459726 -0.015633
-0.043926 0.470262 -0.014161
-0.033701 0.454341 0.005518
-0.040958 0.428668 -0.015774
-0.029240 0.468191 -0.003934
-0.049250 0.463281 -0.011871
-0.034768 0.440396 -0.000539
-0.032080 0.466314 -0.009292
-0.034000 0.462048 -0.003768
-0.028912 0.463757 0.002963
-0.041629 0.453067 -0.011340
-0.033025 0.469979 0.000788
-0.031372 0.448471 -0.003302
-0.034434 0.474444 -0.015185
-0.040447 0.387606 -0.002589
-0.041491 0.374223 -0.006082
-0.042955 0.395924 -0.005364
-0.041842 0.411428 -0.002196
-0.040385 0.394628 -0.001885
-0.044788 0.395474 -0.009376
-0.040582 0.409362 0.000250
-0.042692 0.388684 -0.007911
-0.043194 0.382941 -0.009126
-0.043701 0.417035 -0.003632
-0.041749 0.416726 -0.003824
-0.044327 0.408059 -0.008780
-0.041117 0.393134 -0.004915
-0.040484 0.410533 -0.005582
-0.043227 0.400456 -0.007920
-0.043631 0.403213 -0.007160
-0.042169 0.381541 -0.007268
-0.040932 0.424784 -0.001727
-0.046749 0.395744 -0.010171
-0.045290 0.419649 -0.009853
-0.040891 0.390697 0.000989
-0.045018 0.374162 -0.011030
-0.037912 0.406142 -0.001632
-0.047595 0.402689 -0.005862
-0.040476 0.379594 0.000557
-0.042114 0.406924 -0.006736
-0.042658 0.399627 -0.004575
-0.041145 0.400553 -0.000917
-0.045555 0.389676 -0.008391
-0.041352 0.413816 -0.002305
-0.042436 0.383153 -0.004477
-0.043067 0.428906 -0.008119
-0.048874 0.478370 0.010512
0.004796 0.447864 -0.001427
-0.029030 0.480224 0.008306
0.029438 0.488002 -0.001036
0.045021 0.474062 0.009912
-0.019220 0.477912 -0.006720
-0.033130 0.485674 0.001032
0.007522 0.488116 -0.002805
-0.029399 0.475342 -0.010963
-0.007673 0.481221 -0.001906
-0.012556 0.489676 -0.001710
-0.027567 0.483413 -0.006512
0.007132 0.477662 0.017687
-0.033048 0.480925 -0.005304
-0.008683 0.490872 0.001081
-0.013153 0.483980 -0.015314
-0.012241 0.476616 -0.005425
0.014589 0.487741 0.005974
-0.038244 0.476775 -0.023462
-0.049793 0.484535 -0.012561
-0.026429 0.475902 0.015740
-0.031395 0.411063 -0.005995
-0.003130 0.486066 0.009563
-0.059514 0.469498 0.005996
-0.017204 0.465532 0.014319
0.002749 0.487898 0.006611
-0.009566 0.481251 0.004161
0.010926 0.486658 0.025074
-0.044349 0.485279 0.003591
-0.011984 0.483668 0.006232
0.016309 0.463688 0.002500
-0.038870 0.491837 0.006520
-0.045645 0.472579 0.001607
-0.015366 0.468356 -0.008372
-0.036515 0.472836 -0.006504
-0.001417 0.472171 -0.011074
0.001520 0.471565 -0.004977
-0.025018 0.472766 -0.010723
-0.035722 0.471944 0.002685
-0.006280 0.472777 -0.014740
-0.029187 0.472981 -0.013238
-0.020823 0.473124 -0.010129
-0.027239 0.471681 -0.009108
-0.035297 0.471314 -0.013712
-0.006641 0.472884 -0.006642
-0.033823 0.471908 -0.005465
-0.015458 0.471972 -0.015096
-0.021639 0.472061 -0.014778
-0.016298 0.472512 -0.005558
-0.008461 0.472895 -0.004758
-0.034928 0.472966 -0.018273
-0.042934 0.472127 -0.012894
-0.026452 0.472136 0.010162
-0.031246 0.462254 -0.005762
-0.017232 0.473158 0.000691
-0.050003 0.471391 -0.008373
-0.015421 0.470617 0.006946
-0.011567 0.473016 -0.011168
-0.021568 0.472183 -0.000928
-0.006639 0.471558 0.005403
-0.038199 0.472432 -0.010915
-0.028374 0.472645 -0.000913
-0.004633 0.469904 -0.001943
-0.041008 0.474169 -0.008399
-0.043313 0.478620 0.012816
-0.011426 0.475213 0.002949
-0.029677 0.479092 0.008054
-0.000400 0.476430 0.000912
0.002424 0.479325 0.008062
-0.016472 0.477917 0.003968
-0.028738 0.477770 0.016645
-0.002492 0.477496 -0.001737
-0.020298 0.479098 -0.001794
-0.015814 0.482473 0.002543
-0.019797 0.477744 0.006013
-0.025511 0.476904 0.000540
-0.002245 0.479891 0.006871
-0.029486 0.477530 0.010570
-0.010927 0.477038 0.000109
-0.011309 0.477222 -0.006579
-0.011174 0.478350 0.006185
-0.007235 0.485229 0.008204
-0.029815 0.477197 -0.007463
-0.039752 0.477477 0.000298
-0.019331 0.478042 0.018312
-0.025050 0.470940 0.008398
-0.013195 0.477536 0.013242
-0.047082 0.476878 0.006032
-0.010275 0.478036 0.016536
-0.008065 0.477614 0.003250
-0.013065 0.478134 0.011811
-0.002064 0.478412 0.015570
-0.033762 0.477524 0.003730
-0.019557 0.478463 0.012644
-0.002176 0.477054 0.009327
-0.034347 0.483647 0.005412
-0.047402 0.419802 -0.011127
-0.042372 0.408376 -0.010196
-0.047662 0.427036 -0.008182
-0.040066 0.441425 -0.004193
-0.040406 0.427683 -0.004977
-0.044571 0.427934 -0.009511
-0.044161 0.436084 -0.010409
-0.043958 0.421552 -0.006871
-0.044473 0.415359 -0.009240
-0.043683 0.444466 -0.005105
-0.043155 0.447358 -0.007731
-0.048298 0.436480 -0.009157
-0.042473 0.427551 -0.008426
-0.043995 0.441602 -0.011028
-0.043029 0.431473 -0.008798
-0.044204 0.433486 -0.007867
-0.042856 0.417836 -0.009366
-0.043808 0.449403 -0.009059
-0.046515 0.426787 -0.009311
-0.047639 0.446076 -0.010683
-0.044884 0.423721 -0.011186
-0.046907 0.409856 -0.010611
-0.042163 0.437616 -0.008337
-0.048551 0.434232 -0.006789
-0.041019 0.413077 -0.010779
-0.042064 0.437292 -0.007873
-0.043462 0.431391 -0.009441
-0.041051 0.434337 -0.009587
-0.045846 0.422172 -0.007327
-0.044779 0.442018 -0.011276
-0.041364 0.415019 -0.009641
-0.044920 0.453263 -0.009631
-0.058838 0.466614 0.006340
-0.041156 0.463406 -0.004512
-0.053745 0.468198 0.001505
-0.015582 0.475987 -0.009458
-0.005527 0.471222 0.003155
-0.051133 0.471306 -0.008943
-0.058147 0.473675 0.006132
-0.022586 0.470393 -0.011592
-0.049471 0.469501 -0.012236
-0.040467 0.476631 -0.007853
-0.048634 0.473802 -0.003699
-0.054421 0.468211 -0.008564
-0.028953 0.470478 0.000291
-0.053816 0.474424 -0.000589
-0.038239 0.470506 -0.015536
-0.043014 0.471136 -0.013052
-0.040133 0.467566 -0.002400
-0.025768 0.479159 0.004232
-0.056932 0.469262 -0.016602
-0.058385 0.472975 -0.008331
-0.051156 0.465159 0.012489
-0.052688 0.457073 -0.007096
-0.035323 0.475246 0.004088
-0.066111 0.466991 -0.002005
-0.041408 0.469509 0.015223
-0.038356 0.474791 -0.002197
-0.046358 0.468004 0.004065
-0.026781 0.473916 0.011274
-0.058237 0.465941 -0.004786
-0.045665 0.478309 0.004315
-0.024770 0.464292 -0.001865
-0.057371 0.477055 0.001917
-0.049533 0.477151 0.008833
-0.022176 0.473569 -0.001689
-0.038671 0.478330 0.003617
-0.008870 0.476411 -0.004259
-0.004570 0.478566 0.002936
-0.027714 0.477365 -0.002176
-0.038174 0.477239 0.013676
-0.011354 0.475529 -0.007196
-0.028317 0.477567 -0.007933
-0.026132 0.484869 -0.001542
-0.029244 0.479367 0.001398
-0.034430 0.476711 -0.004437
-0.010712 0.477475 0.000346
-0.039118 0.478022 0.007849
-0.019630 0.476534 -0.006133
-0.020210 0.477169 -0.010488
-0.019505 0.477053 0.001728
-0.016036 0.487736 0.004032
-0.037575 0.476950 -0.011105
-0.048549 0.478381 -0.004336
-0.028676 0.477078 0.016178
-0.033731 0.472688 0.004724
-0.021654 0.477802 0.009550
-0.051605 0.477369 0.002863
-0.019773 0.477425 0.013375
-0.018292 0.477224 -0.001210
-0.023146 0.477020 0.007665
-0.010745 0.477545 0.012692
-0.041948 0.476726 -0.001791
-0.029560 0.480012 0.010354
-0.010688 0.475908 0.005283
-0.042587 0.486584 0.001575
-0.045800 0.462909 -0.004692
-0.036207 0.455707 -0.007938
-0.043556 0.465794 -0.007625
-0.030441 0.468407 -0.010063
-0.025425 0.467363 -0.001244
-0.045740 0.465284 -0.012938
-0.041577 0.473037 -0.002789
-0.033013 0.464244 -0.008806
-0.038130 0.461298 -0.010362
-0.037460 0.472057 -0.007419
-0.039429 0.469417 -0.009451
-0.043404 0.464424 -0.012175
-0.036809 0.467243 -0.006417
-0.040134 0.468614 -0.010070
-0.040304 0.468510 -0.014186
-0.038059 0.466844 -0.010945
-0.039827 0.460441 -0.009238
-0.032422 0.472926 -0.007414
-0.044250 0.466670 -0.014979
-0.046172 0.468681 -0.012962
-0.036746 0.462311 0.005210
-0.042775 0.445912 -0.015113
-0.032294 0.471797 -0.004664
-0.053290 0.465943 -0.008847
-0.038581 0.457842 0.003215
-0.039091 0.468361 -0.009011
-0.039680 0.464787 -0.004169
-0.033182 0.467220 0.002365
-0.044496 0.463554 -0.009716
-0.036763 0.470661 -0.002971
-0.036007 0.456792 -0.006958
-0.041667 0.470357 -0.010390
-0.054168 0.480926 -0.003604
-0.026460 0.476207 -0.012393
-0.043004 0.480010 -0.008894
-0.011255 0.478899 -0.014014
-0.009498 0.479241 -0.011203
-0.032356 0.479330 -0.011703
-0.041952 0.478987 -0.000698
-0.015246 0.480303 -0.014095
-0.032834 0.481190 -0.013829
-0.027931 0.481126 -0.011395
-0.034401 0.479908 -0.011273
-0.040758 0.478263 -0.013174
-0.014124 0.480189 -0.012694
-0.040854 0.480399 -0.008750
-0.023267 0.478663 -0.013632
-0.026767 0.479499 -0.016014
-0.023570 0.479543 -0.011277
-0.018086 0.481243 -0.010746
-0.039512 0.479659 -0.017731
-0.050526 0.480533 -0.012852
-0.031837 0.479827 0.005398
-0.038449 0.475850 -0.006533
-0.026576 0.480632 -0.006497
-0.058284 0.479350 -0.009447
-0.023153 0.479473 -0.000474
-0.020066 0.479864 -0.013954
-0.028468 0.479896 -0.008298
-0.015704 0.479645 -0.003322
-0.045088 0.480007 -0.011213
-0.033799 0.480500 -0.004667
-0.015278 0.478250 -0.009271
-0.048703 0.481356 -0.011124
-0.047223 0.478886 0.008223
-0.015546 0.475125 -0.003132
-0.032403 0.477629 0.000704
-0.001151 0.475546 -0.006564
0.002566 0.477645 -0.000552
-0.021540 0.476301 -0.005117
-0.031560 0.476971 0.009770
-0.004201 0.477541 -0.009301
-0.025548 0.478960 -0.009778
-0.020005 0.477934 -0.006281
-0.024621 0.476666 -0.001037
-0.029764 0.476633 -0.007073
-0.003231 0.477289 -0.000451
-0.033147 0.477048 0.004076
-0.013011 0.477021 -0.008640
-0.015114 0.477127 -0.013614
-0.013310 0.477807 -0.000970
-0.009020 0.476877 0.002468
-0.031869 0.475849 -0.015925
-0.043704 0.477077 -0.008087
-0.023180 0.476774 0.013890
-0.029179 0.474283 0.002639
-0.017352 0.477705 0.007993
-0.050470 0.477766 -0.001240
-0.014733 0.477515 0.012947
-0.010031 0.476869 -0.004872
-0.015077 0.477071 0.004692
-0.003896 0.476856 0.008694
-0.037703 0.478148 -0.004550
-0.022089 0.477793 0.004538
-0.002853 0.476029 0.003395
-0.043336 0.476769 0.000057
-0.040817 0.427595 -0.008557
-0.039990 0.415548 -0.007097
-0.042449 0.435020 -0.008125
-0.036252 0.445826 -0.004438
-0.034897 0.435623 -0.003088
-0.043986 0.435422 -0.010005
-0.038079 0.445287 -0.008847
-0.039228 0.430576 -0.008100
-0.040315 0.422774 -0.008665
-0.040670 0.449233 -0.004461
-0.038722 0.450496 -0.006987
-0.042704 0.442347 -0.008875
