-0.081945 -0.443423 0.017179
-0.049525 -0.474198 0.020245
-0.066905 -0.460316 0.004796
-0.040485 -0.470945 0.012089
-0.030205 -0.471817 0.018924
-0.046039 -0.456077 0.010643
-0.043120 -0.464531 -0.000212
-0.057168 -0.445552 -0.007084
-0.034301 -0.465581 0.000451
-0.045292 -0.452347 -0.001581
-0.043211 -0.461812 -0.005404
-0.061427 -0.455357 -0.019555
-0.030035 -0.435066 0.013603
-0.047036 -0.420725 0.006403
-0.054746 -0.409016 0.004572
-0.017569 -0.465079 0.004788
-0.055938 -0.467753 -0.027150
-0.037826 -0.416807 0.011430
-0.037492 -0.428495 0.001362
-0.033879 -0.438812 -0.001712
-0.023718 -0.454842 -0.002740
-0.020048 -0.460964 -0.005411
-0.062024 -0.374907 0.004629
-0.059101 -0.380307 0.003296
-0.049345 -0.403800 -0.000692
-0.056520 -0.364515 0.009402
-0.064999 -0.347184 0.006626
0.001864 -0.463863 -0.000112
-0.040033 -0.374554 0.011246
-0.037133 -0.418473 -0.009301
-0.058023 -0.325007 0.017321
-0.045653 -0.395714 -0.007481
-0.036129 -0.390048 0.001054
-0.041047 -0.386781 -0.001191
-0.033503 -0.400088 -0.002480
-0.042631 -0.370113 0.004980
-0.024655 -0.398896 0.003134
-0.029031 -0.383796 0.005438
-0.042037 -0.394818 -0.011019
-0.047874 -0.376221 -0.007926
-0.030385 -0.344947 0.019817
-0.059905 -0.336822 0.000825
-0.041060 -0.335887 0.014645
-0.016121 -0.466022 -0.029792
-0.060643 -0.354435 -0.009593
-0.044604 -0.377811 -0.009129
-0.042928 -0.327184 0.016388
-0.043440 -0.362910 -0.003108
-0.036264 -0.336465 0.009525
-0.039160 -0.331820 0.008917
-0.034737 -0.380882 -0.013768
-0.040626 -0.326658 0.007152
-0.029252 -0.338285 0.008244
-0.041105 -0.355062 -0.012283
-0.047646 -0.287609 0.012413
-0.041875 -0.319458 0.002034
-0.014703 -0.354404 0.004913
-0.025386 -0.364101 -0.010480
-0.043153 -0.295134 0.008784
-0.059886 -0.258570 0.009891
-0.028131 -0.314687 0.005617
-0.039542 -0.315359 -0.003497
-0.036195 -0.295104 0.007210
-0.047840 -0.258324 0.011382
-0.051876 -0.283458 -0.005080
-0.038745 -0.291320 0.000536
-0.032332 -0.322645 -0.013412
-0.041808 -0.302650 -0.012124
-0.036290 -0.277902 0.001049
-0.044049 -0.258988 0.001301
-0.024215 -0.265728 0.012943
-0.042535 -0.231789 0.009921
-0.030510 -0.277295 -0.003696
-0.053878 -0.210530 0.008621
-0.030358 -0.260850 0.001584
-0.024900 -0.247844 0.011959
-0.023779 -0.267640 -0.001516
-0.056779 -0.233277 -0.011320
-0.037770 -0.280232 -0.019515
-0.050305 -0.194920 0.011102
-0.038001 -0.286542 -0.023255
-0.030203 -0.254089 -0.002416
-0.044566 -0.225526 -0.003370
-0.046790 -0.200703 0.002751
-0.035691 -0.186279 0.018151
-0.051092 -0.179355 0.009790
-0.029425 -0.205930 0.009643
-0.027237 -0.202057 0.013111
-0.052586 -0.179400 0.003652
-0.035255 -0.235217 -0.009442
-0.033028 -0.233315 -0.006656
-0.040721 -0.173457 0.013751
-0.032561 -0.211943 -0.003902
-0.030798 -0.217191 -0.006993
-0.036424 -0.231573 -0.020768
-0.025889 -0.251657 -0.024064
-0.044716 -0.191566 -0.009740
-0.041678 -0.136671 0.017637
-0.038074 -0.135511 0.018716
-0.062360 -0.103852 0.014195
-0.037243 -0.144129 0.012668
-0.018638 -0.169530 0.013415
-0.029580 -0.139221 0.017303
-0.045602 -0.155026 -0.005184
-0.043455 -0.156433 -0.003705
-0.023931 -0.160752 0.004392
-0.031181 -0.174114 -0.007762
-0.040169 -0.115126 0.008848
-0.053548 -0.125235 -0.007060
-0.068122 -0.063124 0.005971
-0.033867 -0.103488 0.012265
-0.048043 -0.119814 -0.006727
-0.054747 -0.082560 0.004844
-0.023933 -0.178976 -0.017229
-0.035485 -0.088276 0.016399
-0.031836 -0.134099 -0.005036
-0.036980 -0.114649 -0.001086
-0.015936 -0.174078 -0.015199
-0.051599 -0.084485 -0.001616
-0.036778 -0.141452 -0.018235
-0.035233 -0.091852 0.001700
-0.025155 -0.113655 -0.003589
-0.030390 -0.082986 0.005311
-0.066324 -0.001688 0.013191
-0.027110 -0.031317 0.023079
-0.035188 -0.056428 0.005418
-0.048561 -0.055740 -0.007151
-0.038421 -0.072638 -0.006781
-0.028379 -0.036829 0.014404
-0.030777 -0.047011 0.008426
-0.045702 -0.022941 0.007188
-0.051851 -0.028304 -0.000321
-0.032899 -0.050377 0.001811
-0.035314 -0.054770 -0.003542
-0.020316 -0.037654 0.015408
-0.030062 -0.011459 0.015748
-0.030279 -0.014556 0.013207
-0.014768 -0.099741 -0.016326
-0.009054 -0.081287 -0.003834
-0.019384 -0.073997 -0.013408
-0.029634 0.005623 0.014815
-0.034445 -0.017455 -0.000295
-0.033660 -0.007608 -0.000675
-0.035291 -0.025613 -0.011002
-0.048124 0.024695 0.000485
-0.031537 -0.015685 -0.007352
-0.039690 0.036051 0.010461
0.000431 -0.043556 0.003826
-0.046803 0.015826 -0.005294
-0.048215 0.061520 0.011829
-0.017531 0.019527 0.015509
-0.033234 0.022116 0.001214
-0.058981 0.072269 -0.000962
-0.050074 0.060270 -0.001441
-0.037425 0.037922 -0.004607
-0.024716 0.019702 -0.003665
-0.032622 0.082744 0.015134
-0.012422 0.000771 -0.010233
-0.023016 0.047984 0.002023
-0.035260 0.063367 -0.000480
-0.027518 0.039270 -0.012240
-0.019908 0.019897 -0.024345
-0.031600 0.100324 0.002736
-0.038111 0.125923 0.007407
-0.010711 0.079626 0.006896
-0.041145 0.123108 0.002022
-0.032151 0.099068 -0.002112
-0.034132 0.115373 0.000232
-0.038317 0.139834 0.007282
-0.018142 0.131845 0.017294
-0.028358 0.071067 -0.019191
-0.047582 0.145236 -0.003852
-0.033224 0.156280 0.009032
-0.048743 0.174932 0.002268
-0.025961 0.134716 -0.002273
-0.039860 0.189242 0.011942
-0.047373 0.168899 -0.003237
-0.030913 0.177221 0.002341
-0.041886 0.223495 0.011360
-0.036352 0.201801 0.005005
-0.023395 0.140844 -0.013980
-0.031168 0.215241 0.005093
-0.048346 0.233324 0.000553
-0.042319 0.244570 0.005877
-0.050644 0.284548 0.016571
-0.031237 0.194193 -0.012396
-0.013934 0.185220 -0.004746
-0.053656 0.256160 -0.011671
-0.044625 0.282371 0.003491
-0.016733 0.236385 0.001171
-0.003748 0.177282 -0.018798
-0.031538 0.294156 0.007280
-0.021113 0.186844 -0.036084
-0.021222 0.298686 0.012084
-0.056497 0.387784 0.022035
-0.035238 0.325836 0.008656
-0.042844 0.340187 0.007810
-0.069582 0.391951 0.010099
-0.004278 0.193875 -0.030713
-0.055053 0.391357 0.018308
-0.048537 0.383959 0.018406
-0.010862 0.242953 -0.015583
-0.049811 0.344202 -0.000714
-0.051351 0.334411 -0.007200
-0.021439 0.323772 0.004297
-0.020583 0.275795 -0.016144
-0.044671 0.312686 -0.018683
0.018059 0.292948 0.016168
-0.048204 0.407418 0.017090
0.008226 0.282246 0.001980
-0.050812 0.378252 0.000962
-0.013232 0.284738 -0.013279
-0.016016 0.320935 -0.000479
-0.067088 0.394181 -0.007287
-0.015764 0.251159 -0.033243
-0.050493 0.427416 0.016795
-0.026106 0.363481 0.007325
-0.029758 0.317692 -0.017587
0.001562 0.312617 0.003616
-0.007704 0.372483 0.023076
-0.042596 0.381346 0.000380
-0.034569 0.373806 -0.004961
-0.045838 0.421289 0.002792
-0.037550 0.392553 -0.004983
-0.033164 0.421154 0.010027
-0.027644 0.401086 0.002415
-0.010842 0.359284 -0.006042
-0.041920 0.404312 -0.009168
0.006120 0.315887 -0.013286
0.023545 0.325031 0.002433
0.001624 0.391019 0.014449
-0.013814 0.376485 -0.008312
-0.001695 0.424327 0.018879
-0.009294 0.418962 0.002318
-0.000629 0.368813 -0.015360
-0.025631 0.459042 0.000117
-0.002486 0.435381 0.005489
0.022554 0.402008 0.007036
0.012280 0.374839 -0.013977
0.010900 0.409617 -0.002833
-0.018047 0.448352 -0.018202
0.004499 0.398344 -0.023407
0.058673 0.350330 -0.005004
-0.012773 0.454624 -0.013191
-0.029389 0.428853 -0.040335
0.018838 0.415840 -0.010517
0.005113 0.424382 -0.020935
0.000166 0.477469 -0.004766
-0.007139 0.419181 -0.036330
-0.009656 0.403412 -0.046225
0.021005 0.407303 -0.029477
0.048133 0.356519 -0.033486
0.027410 0.457239 -0.005777
0.023670 0.412850 -0.031145
0.031487 0.440411 -0.015509
0.004973 0.431888 -0.042936
0.044573 0.432344 -0.013265
0.013047 0.358504 -0.075462
0.042878 0.424595 -0.024885
0.000046 0.435845 -0.052692
0.025763 0.459745 -0.026008
0.044225 0.452937 -0.018010
0.069504 0.387886 -0.028743
