-0.109875 -0.030604 0.315369
-0.349491 -0.021015 0.127576
-0.337288 -0.020569 0.128246
-0.080979 -0.029992 0.313746
-0.081483 -0.034918 0.294951
-0.070774 -0.034964 0.288193
-0.315323 -0.025715 0.105580
-0.060725 -0.035208 0.280455
-0.073953 -0.040069 0.260860
-0.053682 -0.035585 0.269253
-0.309773 -0.031657 0.075576
-0.061667 -0.039987 0.259515
-0.291171 -0.031503 0.070937
-0.041164 -0.039611 0.247013
-0.080324 -0.050293 0.209145
-0.354043 -0.039822 0.002338
-0.047388 -0.044158 0.228396
-0.326793 -0.042921 0.013496
-0.334864 -0.029059 0.011260
-0.288484 -0.037675 0.043957
-0.032583 -0.040407 0.236583
-0.056414 -0.049139 0.211187
-0.306840 -0.048187 0.015686
-0.291825 -0.047449 0.020592
-0.296133 -0.033701 0.022700
-0.270478 -0.037250 0.039307
-0.307362 -0.025142 0.015921
-0.026974 -0.044289 0.217489
-0.278867 -0.047220 0.022888
-0.283120 -0.033063 0.025158
-0.327960 -0.011398 -0.001035
-0.320751 -0.021302 -0.000227
-0.339395 0.018720 -0.000200
-0.331965 0.009153 0.000437
-0.343899 0.036216 0.000207
-0.043960 -0.050861 0.189600
-0.272735 -0.061089 0.009604
-0.350268 0.050275 -0.000198
-0.259617 -0.046507 0.026355
-0.314713 -0.007910 0.001051
-0.309257 -0.016911 0.000024
-0.286329 -0.020634 0.014765
-0.360340 0.077497 0.000585
-0.355199 0.068093 0.000249
-0.365919 0.092304 0.000726
-0.314302 0.005720 0.001427
-0.267123 -0.024311 0.023891
-0.331640 0.036958 0.001191
-0.302245 -0.008735 0.001979
-0.319631 0.022865 0.002002
-0.336615 0.049719 0.001283
-0.254901 -0.064554 0.011996
-0.241528 -0.045615 0.029299
-0.241996 -0.058914 0.022357
-0.343144 0.068375 0.001463
-0.347615 0.077589 0.002073
-0.365418 0.107292 0.000917
-0.020849 -0.048578 0.192944
-0.302079 0.005815 0.002761
-0.254716 -0.024380 0.026069
-0.307964 0.014122 0.002335
-0.009301 -0.043575 0.202617
-0.290237 -0.008640 0.002912
-0.284929 -0.017303 0.002428
-0.323933 0.053272 0.002536
-0.229703 -0.045526 0.030065
-0.307381 0.031041 0.002636
-0.290804 0.005214 0.003287
-0.345535 0.101427 0.003553
-0.232213 -0.067747 0.013968
-0.223129 -0.058210 0.025717
-0.236072 -0.027892 0.028416
-0.277975 -0.008882 0.003767
-0.218706 -0.045096 0.030843
-0.323566 0.071735 0.002972
-0.312346 0.053308 0.003448
-0.292171 -0.030127 -0.019517
-0.329184 0.086463 0.002848
-0.295293 0.031003 0.003672
-0.055741 -0.061346 0.144144
-0.278756 0.005151 0.003916
-0.000914 -0.043992 0.192280
-0.301386 0.044457 0.003591
-0.225036 -0.028095 0.028968
-0.253719 -0.061817 -0.009412
-0.243960 -0.016217 0.018725
-0.217472 -0.071619 0.011943
-0.283891 0.022085 0.003827
-0.261202 -0.013207 0.004198
-0.312235 0.071633 0.002680
-0.204062 -0.066343 0.022933
-0.214239 -0.027557 0.029384
-0.301382 0.062300 0.002377
-0.037228 -0.059486 0.148087
-0.000685 -0.048525 0.180326
-0.272577 0.018105 0.004288
-0.197350 -0.048890 0.031390
-0.027055 -0.054808 0.155008
-0.009901 -0.041618 0.173946
-0.189350 -0.061204 0.028723
-0.227586 -0.017198 0.019577
-0.290240 0.053512 0.002449
-0.196108 -0.036128 0.032088
-0.250107 -0.004684 0.004668
-0.203571 -0.028046 0.030126
-0.195422 -0.074765 0.013182
-0.186568 -0.047800 0.032757
-0.261842 0.017663 0.003669
-0.182829 -0.069121 0.023864
-0.274512 0.040153 0.001412
-0.238529 -0.013766 0.004761
-0.280616 0.049407 0.000238
-0.216221 -0.016351 0.019431
-0.006392 -0.053442 0.160548
-0.175476 -0.047921 0.032889
0.009205 -0.048627 0.171293
-0.181271 -0.078712 0.011101
-0.167052 -0.060009 0.030367
-0.227862 -0.013148 0.004618
-0.205349 -0.016529 0.020506
-0.175317 -0.035315 0.032835
-0.240703 0.009435 0.002171
-0.181931 -0.026984 0.030012
-0.162821 -0.077279 0.015925
0.015238 -0.045337 0.162012
-0.155165 -0.046691 0.032614
-0.220436 -0.004488 0.000515
-0.218908 -0.038941 -0.014679
-0.201965 -0.012290 0.009827
0.013388 -0.052944 0.153351
-0.145034 -0.066762 0.027173
-0.151859 -0.076536 0.017229
-0.184039 -0.015739 0.020014
-0.161568 -0.026886 0.030566
-0.209091 -0.009177 0.000519
-0.140896 -0.075777 0.018929
-0.190239 -0.011775 0.011004
-0.220201 -0.019894 -0.016217
-0.145174 -0.034836 0.033024
-0.135201 -0.046896 0.033191
-0.149277 -0.081688 0.005571
-0.203006 -0.055572 -0.023787
-0.009070 -0.058740 0.119943
-0.217572 -0.026089 -0.025398
-0.163451 -0.015252 0.020022
0.009182 -0.057575 0.127427
0.029674 -0.049443 0.146313
-0.162996 -0.066726 -0.007193
-0.131513 -0.080380 0.009771
-0.228370 -0.038426 -0.045443
-0.120101 -0.074732 0.019515
-0.032786 -0.060408 0.090006
-0.115715 -0.046711 0.033188
-0.131716 -0.026358 0.030195
-0.238918 -0.038492 -0.060455
-0.108084 -0.047327 0.034984
-0.035242 -0.067419 0.079781
0.026275 -0.045851 0.134554
0.019902 -0.057461 0.124259
-0.115379 -0.034852 0.032610
-0.138097 -0.038086 0.013264
-0.102706 -0.069617 0.024463
0.024457 -0.086320 0.111901
0.005953 -0.062644 0.107835
-0.105741 -0.041855 0.033334
-0.110107 -0.079204 0.011447
-0.169815 -0.056670 -0.026161
0.035827 -0.081132 0.116874
-0.133382 -0.014987 0.019412
0.047730 -0.080755 0.123517
-0.048860 -0.079298 0.052106
0.018876 -0.065533 0.108681
0.048356 -0.091778 0.117396
-0.091834 -0.049517 0.032309
-0.029561 -0.050428 0.078558
-0.015094 -0.065878 0.081054
-0.087809 -0.069158 0.024560
-0.016409 -0.093821 0.066452
-0.135258 -0.048854 -0.002667
-0.158912 -0.025501 -0.010327
-0.155340 -0.046986 -0.017913
0.043207 -0.096605 0.108285
0.041331 -0.052872 0.126218
-0.108740 -0.022236 0.027964
-0.173558 -0.053064 -0.036260
-0.097176 -0.030039 0.031310
-0.089914 -0.078064 0.013677
-0.135102 -0.052052 -0.009598
0.032223 -0.061785 0.110050
-0.071351 -0.068307 0.028764
0.049363 -0.066964 0.119067
0.063614 -0.095025 0.116587
0.064424 -0.076391 0.125031
-0.126265 -0.037008 -0.001412
-0.077478 -0.041329 0.033260
0.001541 -0.097204 0.066209
-0.083010 -0.029579 0.030961
-0.089449 -0.022160 0.027831
0.076362 -0.093937 0.117854
-0.104323 -0.014706 0.018974
-0.069969 -0.076921 0.015115
0.076716 -0.075715 0.125509
-0.124168 -0.057137 -0.016769
-0.088672 -0.083518 -0.002313
0.014533 -0.104462 0.065240
-0.069364 -0.037932 0.032284
-0.007534 -0.094664 0.050795
-0.063619 -0.040538 0.033432
-0.047679 -0.076082 0.029085
0.071094 -0.066345 0.121827
0.088233 -0.075425 0.125262
-0.139920 -0.051820 -0.035143
0.084968 -0.097410 0.111463
0.095299 -0.084955 0.123965
0.050496 -0.049828 0.106125
-0.110334 -0.048034 -0.014169
0.010192 -0.105200 0.049928
0.082337 -0.066122 0.121418
-0.070846 -0.022233 0.027709
-0.104025 -0.054164 -0.015140
-0.055538 -0.029286 0.031068
-0.041251 -0.048699 0.032335
-0.072517 -0.052002 0.007332
0.069874 -0.055965 0.111379
0.096845 -0.096553 0.111819
0.059897 -0.054535 0.100977
0.093025 -0.064556 0.119295
-0.005848 -0.059075 0.048260
-0.100389 -0.037945 -0.014511
-0.081689 -0.035820 -0.000792
-0.080995 -0.011100 0.010525
-0.184262 -0.037852 -0.082558
-0.048096 -0.022174 0.027658
-0.078905 -0.063170 -0.015674
0.088779 -0.059469 0.110785
-0.141474 -0.029567 -0.048453
-0.018925 -0.052159 0.032868
0.056484 -0.051348 0.088335
0.098876 -0.093762 0.099426
-0.033153 -0.028973 0.030768
0.020007 -0.047972 0.060346
0.085985 -0.085176 0.090412
-0.067079 -0.010748 0.010774
-0.053080 -0.014760 0.018691
0.068272 -0.058820 0.086880
-0.031123 -0.061683 0.008955
0.033192 -0.065422 0.053720
0.089991 -0.074005 0.090262
-0.085097 -0.054053 -0.034380
0.097222 -0.066235 0.096095
-0.010468 -0.032383 0.031582
-0.021891 -0.021699 0.027138
0.007195 -0.051715 0.032763
0.003074 -0.040243 0.033017
0.075076 -0.058651 0.077734
0.102032 -0.073575 0.089383
-0.030104 -0.066336 -0.006470
-0.008868 -0.021817 0.027079
-0.051815 -0.056229 -0.021778
-0.094381 -0.062580 -0.058563
-0.035728 -0.032981 -0.000406
-0.092233 -0.047749 -0.051899
-0.030851 -0.010569 0.010018
0.076606 -0.062916 0.064716
0.028954 -0.051738 0.032472
-0.086170 -0.057620 -0.057348
0.069672 -0.051740 0.059789
0.020039 -0.032436 0.031681
0.008594 -0.021480 0.026862
-0.007079 -0.056976 -0.004591
0.033447 -0.039896 0.032982
-0.010131 -0.059508 -0.010461
-0.057325 -0.058395 -0.047761
0.019212 -0.046554 0.015473
-0.030516 -0.052245 -0.025013
0.080500 -0.066496 0.049071
0.021941 -0.021489 0.026585
-0.014050 -0.064705 -0.020415
-0.039947 -0.057172 -0.038552
0.071041 -0.052451 0.046502
0.046449 -0.039249 0.033104
0.075155 -0.071052 0.038439
0.085978 -0.055501 0.051762
0.059162 -0.050743 0.032223
0.013529 -0.050603 -0.002514
-0.019088 -0.043046 -0.024693
-0.028014 -0.054795 -0.037043
-0.107360 -0.049601 -0.096846
0.039283 -0.020931 0.026513
0.070059 -0.080421 0.019697
-0.026203 -0.041353 -0.033961
0.026035 -0.013914 0.017256
0.084251 -0.070764 0.032663
0.071727 -0.045713 0.031707
0.067043 -0.034995 0.032201
0.094000 -0.067015 0.036683
0.091638 -0.055584 0.039445
0.019725 -0.073079 -0.021279
0.080208 -0.052508 0.031607
0.100858 -0.066085 0.039941
0.091728 -0.080235 0.022676
0.099058 -0.074600 0.030258
-0.103614 -0.042270 -0.108639
-0.032851 -0.041439 -0.054870
0.069712 -0.024528 0.028663
0.058710 -0.017789 0.022961
0.083749 -0.034576 0.032096
0.039179 -0.010243 0.009059
0.091741 -0.045304 0.031954
0.036718 -0.057011 -0.015020
0.099425 -0.056160 0.031300
0.109639 -0.075041 0.028587
0.061171 -0.055064 0.002256
0.019351 -0.032970 -0.020652
0.078017 -0.055855 0.010114
0.095161 -0.034593 0.032174
0.098817 -0.080425 0.012688
0.057029 -0.044674 -0.004229
0.079346 -0.017648 0.022660
-0.006110 -0.061657 -0.061829
0.060542 -0.010677 0.009295
0.119004 -0.075315 0.023608
0.065827 -0.055657 -0.006728
0.116339 -0.054270 0.029978
0.118420 -0.052019 0.031480
0.034781 -0.048405 -0.031141
0.034245 -0.058685 -0.037092
-0.059597 -0.043655 -0.101684
0.119057 -0.041941 0.032922
0.078551 -0.056036 -0.004810
0.104177 -0.035903 0.023500
-0.036374 -0.045958 -0.087033
0.117730 -0.080196 0.011448
0.114690 -0.031191 0.031160
0.129932 -0.052323 0.031642
0.130336 -0.071157 0.023141
0.066214 -0.039323 -0.010665
0.136307 -0.062834 0.028683
0.099265 -0.017423 0.022639
0.056723 -0.034844 -0.017342
0.108773 -0.020706 0.025430
0.008270 -0.050700 -0.063017
0.133763 -0.083942 0.013075
0.023554 -0.059754 -0.058625
0.126395 -0.030969 0.030915
0.138190 -0.041385 0.032625
0.088737 -0.011262 0.008424
0.149833 -0.071081 0.023553
0.111731 -0.063579 -0.000494
0.120721 -0.020231 0.025125
0.145766 -0.078972 0.013894
0.149277 -0.041604 0.032541
0.073973 -0.059868 -0.032010
0.162577 -0.062753 0.028867
0.145110 -0.031269 0.030909
0.159883 -0.051572 0.031569
-0.010397 -0.045188 -0.094329
0.109188 -0.011017 0.008279
0.139512 -0.020755 0.025051
0.164871 -0.078443 0.015865
0.167896 -0.041346 0.032845
-0.058547 -0.046674 -0.140523
0.068984 -0.050553 -0.045290
0.180147 -0.065656 0.027242
0.163611 -0.030632 0.030532
0.160721 -0.083400 0.003397
0.178624 -0.047855 0.031618
0.158512 -0.021483 0.025786
0.188987 -0.058396 0.030015
0.179079 -0.037600 0.032475
0.128939 -0.010800 0.007793
0.124570 -0.067876 -0.022992
0.187466 -0.077588 0.017498
0.174845 -0.028162 0.030206
0.154690 -0.039628 0.010611
0.149589 -0.056538 -0.000974
0.181117 -0.082296 0.008198
0.046628 -0.093586 -0.096937
0.199602 -0.058022 0.030021
0.189832 -0.037675 0.032267
0.140287 -0.011589 0.007425
-0.091009 -0.058660 -0.190255
0.075962 -0.063968 -0.065682
0.049049 -0.061854 -0.085188
0.198885 -0.077231 0.018157
0.092897 -0.052858 -0.048990
0.205709 -0.069292 0.025319
0.006232 -0.040610 -0.109304
0.185410 -0.027698 0.029715
0.158794 -0.014795 0.016190
0.091742 -0.045281 -0.048485
0.062101 -0.064025 -0.080651
0.109139 -0.033652 -0.031943
0.151638 -0.011597 0.007585
0.213170 -0.061464 0.029310
0.058959 -0.097955 -0.102722
-0.001908 -0.057417 -0.130679
0.207481 -0.040994 0.032186
0.072222 -0.092451 -0.092331
0.169970 -0.014653 0.016252
0.122497 -0.050715 -0.034608
0.218583 -0.073005 0.022882
0.207567 -0.081594 0.010638
0.217790 -0.051054 0.031342
0.223971 -0.061540 0.029141
0.181041 -0.014420 0.015901
0.218652 -0.080982 0.012130
0.190185 -0.017645 0.021472
0.149298 -0.034803 -0.016469
0.218196 -0.034879 0.032025
0.229061 -0.072454 0.023190
0.211905 -0.061392 0.013242
0.228757 -0.044106 0.032103
0.088724 -0.096253 -0.095619
0.167780 -0.043963 -0.012273
0.214110 -0.025117 0.028364
0.201002 -0.017881 0.021506
0.229578 -0.080523 0.013189
0.163831 -0.008422 -0.002720
0.238747 -0.053955 0.030968
0.174865 -0.053616 -0.015192
0.121797 -0.048440 -0.053526
0.098852 -0.090593 -0.091200
0.246720 -0.072121 0.023870
0.018237 -0.045711 -0.132307
0.224460 -0.024694 0.028072
0.178177 -0.028577 -0.008895
0.239067 -0.034147 0.031524
0.206743 -0.046833 0.002483
0.247390 -0.079677 0.014926
0.249608 -0.044233 0.032565
0.219597 -0.053515 0.006625
0.099018 -0.096187 -0.103495
0.164999 -0.048823 -0.031705
0.258141 -0.063856 0.028398
0.218757 -0.017728 0.021129
0.199547 -0.012152 0.006772
0.259835 -0.053471 0.031016
0.257757 -0.079261 0.015493
0.018177 -0.050386 -0.150060
0.053512 -0.061773 -0.128301
0.229116 -0.017829 0.021072
0.208683 -0.049158 -0.008869
0.269047 -0.056838 0.030501
0.094507 -0.092084 -0.114786
0.245286 -0.024215 0.028016
0.251306 -0.084153 0.003332
0.259778 -0.033324 0.031252
0.272075 -0.078852 0.016784
0.239937 -0.017750 0.020999
-0.013596 -0.054097 -0.185158
0.217705 -0.011763 0.006703
0.269832 -0.036544 0.032041
0.216710 -0.039856 -0.010223
0.287848 -0.066870 0.026420
0.175404 -0.037951 -0.041903
-0.036373 -0.071778 -0.218979
0.001824 -0.054226 -0.180600
0.228525 -0.011802 0.006743
0.013916 -0.051617 -0.174723
0.289600 -0.046010 0.031520
0.287312 -0.082084 0.009765
0.279696 -0.026861 0.029796
0.260630 -0.017418 0.021124
0.238530 -0.011810 0.006057
0.298970 -0.052571 0.029774
0.303578 -0.069961 0.022470
0.308246 -0.059204 0.027179
0.249603 -0.012372 0.006147
0.312348 -0.108084 0.006597
-0.008379 -0.067434 -0.213556
0.182609 -0.039540 -0.057964
0.307614 -0.076644 0.013807
0.283385 -0.035676 0.014065
0.162511 -0.038330 -0.076746
0.123247 -0.036902 -0.106310
0.234893 -0.036389 -0.023912
0.308639 -0.035707 0.028625
0.299149 -0.023627 0.026735
0.287574 -0.017396 0.020769
0.251169 -0.037942 -0.015081
0.044739 -0.063469 -0.180624
0.318647 -0.072817 0.015429
0.313539 -0.087319 -0.000335
0.321246 -0.038804 0.026446
0.328756 -0.065188 0.018924
0.327677 -0.048423 0.025760
0.318535 -0.105146 -0.008286
0.280506 -0.011931 0.006256
0.086597 -0.052617 -0.157217
0.306380 -0.017185 0.017615
0.034081 -0.037080 -0.194510
0.339266 -0.048012 0.021819
0.321974 -0.080743 -0.009587
0.346914 -0.060928 0.014407
-0.042675 -0.057985 -0.273924
0.338133 -0.072399 0.001074
0.310490 -0.014046 0.004483
0.348486 -0.040964 0.017538
0.327997 -0.019492 0.011920
0.337916 -0.025500 0.012635
0.029415 -0.033134 -0.220727
0.325512 -0.016642 -0.001178
0.357205 -0.064791 -0.000427
0.359603 -0.040220 0.010033
0.309528 -0.039131 -0.025375
0.367708 -0.057081 0.002296
0.342101 -0.021950 0.000262
0.368571 -0.046667 0.006479
0.351345 -0.028275 -0.001449
0.231346 -0.038681 -0.109808
0.053464 -0.042988 -0.272095
