0.140011 -0.021774 0.028544
0.143603 -0.017310 0.024787
0.129866 -0.015830 0.020182
0.157996 -0.018356 0.024800
0.165353 -0.017778 0.023685
0.129006 -0.021791 0.028629
0.170727 -0.020944 0.028819
0.142179 -0.018248 0.025175
0.140428 -0.014039 0.021240
0.104957 -0.020544 0.026779
0.148915 -0.015728 0.023028
0.119255 -0.018396 0.027542
0.124531 -0.016799 0.024451
0.181717 -0.078225 0.013223
0.160234 -0.074326 0.017214
0.148155 -0.076277 0.018285
0.168302 -0.077610 0.014250
0.189851 -0.077007 0.011638
0.177666 -0.079558 0.011521
0.198364 -0.076814 0.014547
0.160137 -0.074827 0.019942
0.138811 -0.077231 0.016050
0.168243 -0.080252 0.009950
0.158179 -0.079356 0.011894
0.131411 -0.077373 0.015204
0.154255 -0.080410 0.007197
0.174691 -0.076364 0.015801
0.145462 -0.079585 0.011297
0.142155 -0.079636 0.011994
0.176141 -0.075293 0.017362
0.162457 -0.078349 0.016054
0.171883 -0.072583 0.019947
0.165640 -0.075101 0.017884
0.166801 -0.077422 0.015043
0.156504 -0.074626 0.020524
0.180466 -0.074204 0.018887
0.186867 -0.078033 0.013518
0.156726 -0.074429 0.016911
0.189063 -0.073334 0.019336
0.164624 -0.076438 0.015803
0.164655 -0.081589 0.009520
0.140878 -0.075185 0.018525
0.172091 -0.074984 0.020613
0.151471 -0.078106 0.012923
0.154955 -0.077155 0.016233
0.182164 -0.047769 0.033392
0.165469 -0.047757 0.034255
0.155546 -0.036848 0.033884
0.173981 -0.047059 0.033655
0.187076 -0.049885 0.033125
0.176212 -0.036368 0.034195
0.191352 -0.035333 0.033378
0.167561 -0.034378 0.033561
0.148804 -0.033986 0.033612
0.171560 -0.050439 0.034101
0.160058 -0.043410 0.033979
0.145105 -0.043612 0.033900
0.159386 -0.049047 0.033618
0.172079 -0.035891 0.033764
0.154693 -0.042304 0.034277
0.150296 -0.048165 0.033914
0.179584 -0.041942 0.033693
0.162883 -0.039069 0.034573
0.173811 -0.044567 0.034321
0.168634 -0.043643 0.033784
0.166308 -0.041486 0.034239
0.162005 -0.032838 0.033928
0.180793 -0.037419 0.033532
0.185619 -0.044993 0.033358
0.166637 -0.044285 0.034121
0.187553 -0.039734 0.034004
0.174590 -0.039121 0.033354
0.169807 -0.039486 0.034893
0.149146 -0.040092 0.033767
0.175121 -0.032649 0.033697
0.157177 -0.045453 0.034707
0.160825 -0.035365 0.033511
-0.041607 -0.059827 -0.110471
0.002619 -0.057188 -0.096458
-0.011557 -0.057356 -0.149663
-0.025380 -0.062370 -0.123258
0.027491 -0.055422 -0.109262
0.016045 -0.055898 -0.168230
0.014569 -0.056844 -0.099857
0.009416 -0.057171 -0.120927
-0.002533 -0.056780 -0.124745
-0.009195 -0.069271 -0.113219
0.021306 -0.054914 -0.130400
-0.041757 -0.058163 -0.141949
-0.006055 -0.065447 -0.131727
-0.035994 -0.057568 -0.096724
0.024934 -0.057715 -0.149498
0.029225 -0.060167 -0.140765
0.005283 -0.058018 -0.136603
-0.006447 -0.058251 -0.159139
0.021353 -0.054701 -0.123563
-0.005076 -0.056180 -0.102826
-0.034695 -0.059121 -0.120153
0.003067 -0.059199 -0.136150
0.039668 -0.057152 -0.135327
-0.016347 -0.059750 -0.106266
0.012112 -0.063021 -0.128647
-0.015464 -0.055832 -0.085348
-0.007687 -0.056131 -0.117525
0.010064 -0.055764 -0.152475
0.007660 -0.056855 -0.111679
-0.022220 -0.058666 -0.162058
0.016297 -0.053867 -0.146175
-0.018331 -0.056009 -0.134452
0.057071 -0.061408 -0.064350
0.098036 -0.062256 -0.042120
0.065951 -0.054631 -0.114934
0.067935 -0.064422 -0.078543
0.126840 -0.061578 -0.054695
0.100414 -0.056154 -0.150212
0.112962 -0.055679 -0.043325
0.094202 -0.056636 -0.069448
0.078669 -0.054442 -0.080077
0.088238 -0.078511 -0.057815
0.107472 -0.055875 -0.085648
0.048473 -0.056281 -0.106487
0.080883 -0.069417 -0.101363
0.061406 -0.052230 -0.047201
0.109469 -0.059947 -0.123721
0.123879 -0.063223 -0.099530
0.094056 -0.056816 -0.086727
0.072637 -0.055920 -0.130152
0.111963 -0.056115 -0.066259
0.084249 -0.052666 -0.048926
0.056133 -0.056702 -0.078981
0.082336 -0.058322 -0.096689
0.132515 -0.056691 -0.079469
0.074244 -0.051499 -0.056822
0.104715 -0.070061 -0.076969
0.080195 -0.052269 -0.031949
0.081430 -0.054276 -0.069130
0.085683 -0.055020 -0.131519
0.100510 -0.055546 -0.055083
0.056940 -0.052117 -0.141391
0.097288 -0.057082 -0.107142
0.067676 -0.052967 -0.092791
0.195051 -0.069641 0.024789
0.176736 -0.066801 0.025722
0.164463 -0.061165 0.028890
0.185326 -0.069025 0.024779
0.202063 -0.069282 0.024355
0.188919 -0.064871 0.028832
0.208496 -0.059844 0.029673
0.178536 -0.057107 0.030810
0.156349 -0.060111 0.030126
0.183881 -0.072901 0.022655
0.171638 -0.068000 0.026157
0.150035 -0.066597 0.026618
0.169783 -0.072667 0.023181
0.184782 -0.060222 0.029459
0.163415 -0.067871 0.027923
0.158180 -0.071182 0.024064
0.192629 -0.064347 0.027507
0.173514 -0.064480 0.028479
0.187256 -0.063733 0.027998
0.180576 -0.064823 0.027503
0.177442 -0.065360 0.028631
0.170220 -0.055531 0.033357
0.194456 -0.059879 0.029128
0.199547 -0.067480 0.027992
0.177415 -0.065358 0.025749
0.201108 -0.059993 0.029575
0.185030 -0.063719 0.026892
0.179911 -0.069124 0.028035
0.158599 -0.062863 0.028669
0.186495 -0.056375 0.032153
0.167595 -0.068964 0.026253
0.170857 -0.060401 0.029002
0.180540 -0.037146 0.033568
0.162080 -0.038644 0.034520
0.149373 -0.026594 0.030993
0.171137 -0.036232 0.033454
0.184487 -0.039669 0.033720
0.174854 -0.022886 0.030197
0.190151 -0.024822 0.029239
0.163003 -0.025288 0.029275
0.140825 -0.022792 0.028531
0.168563 -0.039403 0.035740
0.155164 -0.030530 0.032415
0.136296 -0.031494 0.032326
0.154222 -0.036552 0.034937
0.170162 -0.025013 0.030316
0.147721 -0.028728 0.031501
0.143323 -0.037230 0.034219
0.175993 -0.031542 0.031681
0.159898 -0.026915 0.031962
0.171155 -0.035750 0.033926
0.164853 -0.033567 0.032272
0.163866 -0.029434 0.031960
0.158049 -0.022389 0.027513
0.177897 -0.027220 0.030087
0.184187 -0.032318 0.031039
0.161478 -0.034083 0.033315
0.187077 -0.030501 0.032068
0.170900 -0.027969 0.030794
0.166407 -0.024985 0.031133
0.141715 -0.030297 0.031142
0.172176 -0.022786 0.028764
0.151314 -0.033212 0.034083
0.155281 -0.025530 0.030092
0.176078 -0.082256 -0.001738
0.150547 -0.081500 0.006173
0.131839 -0.081269 -0.000124
0.158844 -0.081664 -0.003354
0.182280 -0.082024 -0.005014
0.171318 -0.080870 -0.023455
0.189122 -0.081644 -0.011303
0.146838 -0.082138 0.000263
0.116411 -0.081961 -0.015861
0.161227 -0.080901 -0.007329
0.150398 -0.081733 -0.017783
0.106303 -0.081925 -0.004576
0.141879 -0.081544 -0.022669
0.172964 -0.080896 -0.010944
0.127186 -0.080990 -0.024800
0.124918 -0.082353 -0.007802
0.166489 -0.081819 -0.000415
0.156082 -0.081303 -0.009253
0.163973 -0.081001 0.008024
0.157148 -0.081270 0.002623
0.165405 -0.080812 -0.013826
0.148315 -0.081559 -0.008281
0.171386 -0.080759 0.003650
0.182278 -0.081457 -0.018141
0.141456 -0.081409 0.003891
0.183697 -0.080794 0.003282
0.152560 -0.081551 -0.003289
0.157363 -0.082057 -0.027449
0.119811 -0.081347 0.001336
0.167193 -0.080458 -0.003307
0.136016 -0.081084 -0.013314
0.141543 -0.081041 -0.008017
0.195247 -0.053998 0.031907
0.177312 -0.053142 0.032820
0.168122 -0.043495 0.033553
0.186243 -0.053359 0.032204
0.201215 -0.055522 0.031539
0.188699 -0.044531 0.033817
0.206384 -0.041925 0.033432
0.179702 -0.040219 0.033848
0.162261 -0.040922 0.033910
0.183839 -0.056688 0.031752
0.172791 -0.050496 0.032793
0.158109 -0.050214 0.032949
0.172103 -0.055965 0.031650
0.184301 -0.042498 0.033614
0.167682 -0.049858 0.033392
0.163254 -0.054764 0.032234
0.192575 -0.048155 0.032970
0.174736 -0.045987 0.033727
0.186466 -0.050041 0.033468
0.180984 -0.049725 0.033082
0.178277 -0.048696 0.033497
0.173723 -0.038550 0.034978
0.193786 -0.043367 0.033491
0.199043 -0.051760 0.032597
0.179051 -0.050488 0.032698
0.201166 -0.045240 0.033519
0.186501 -0.045784 0.032491
0.181966 -0.047921 0.034376
0.162342 -0.046448 0.033440
0.187456 -0.038639 0.034164
0.170149 -0.052375 0.033215
0.173306 -0.041753 0.033218
0.178523 -0.024158 0.029721
0.157002 -0.026608 0.031571
0.140903 -0.018484 0.026505
0.166072 -0.023055 0.029439
0.182954 -0.025501 0.030381
0.173781 -0.014007 0.022447
0.191279 -0.017256 0.024053
0.155719 -0.018313 0.024602
0.129397 -0.015433 0.022420
0.165379 -0.025671 0.033256
0.150592 -0.017649 0.026151
0.123203 -0.019337 0.027324
0.147696 -0.021790 0.030263
0.170297 -0.016495 0.024928
0.138334 -0.016142 0.024790
0.135563 -0.023482 0.029970
0.171776 -0.020929 0.027392
0.156963 -0.016940 0.026303
0.169623 -0.025081 0.030707
0.160397 -0.022820 0.028977
0.162608 -0.018074 0.026366
0.151825 -0.015622 0.021107
0.176411 -0.018638 0.025461
0.183286 -0.019196 0.025539
0.152567 -0.023093 0.029483
0.187898 -0.021743 0.029002
0.163439 -0.018565 0.026021
0.160899 -0.014283 0.023739
0.131870 -0.021170 0.027405
0.167930 -0.016020 0.023683
0.143641 -0.019750 0.029066
0.147889 -0.017428 0.025329
0.205174 -0.063359 0.028510
0.187135 -0.061216 0.029420
0.176520 -0.053514 0.031736
0.195761 -0.062761 0.028544
0.211746 -0.063773 0.028104
0.198568 -0.056441 0.031970
0.217232 -0.052071 0.032273
0.189085 -0.049401 0.033050
0.170197 -0.051645 0.032818
0.194123 -0.066111 0.027195
0.182590 -0.060881 0.029756
0.165354 -0.060060 0.030144
0.181428 -0.065984 0.027348
0.194554 -0.052476 0.032204
0.176191 -0.060460 0.031292
0.171603 -0.064413 0.028137
0.202634 -0.057633 0.030639
0.184120 -0.056658 0.031581
0.196997 -0.058320 0.031037
0.190739 -0.058630 0.030753
0.187777 -0.058535 0.031578
0.181696 -0.047831 0.035246
0.203913 -0.052921 0.031889
0.209161 -0.061192 0.030787
0.188567 -0.059474 0.029508
0.210774 -0.053706 0.032117
0.195735 -0.056208 0.030124
0.190909 -0.060435 0.031839
0.171251 -0.055881 0.031557
0.196747 -0.048369 0.034049
0.179271 -0.062260 0.029956
0.182343 -0.052002 0.031813
0.194445 -0.044569 0.033581
0.177328 -0.044979 0.034629
0.167157 -0.032913 0.033141
0.186037 -0.043809 0.033815
0.198926 -0.047151 0.033501
0.188400 -0.031122 0.033265
0.203225 -0.031134 0.032364
0.179354 -0.030574 0.032446
0.160559 -0.029413 0.032287
0.183291 -0.047154 0.034790
0.171489 -0.039336 0.033803
0.157086 -0.039840 0.033675
0.170912 -0.045366 0.034152
0.184087 -0.031629 0.032895
0.166144 -0.037983 0.033714
0.161689 -0.044806 0.034211
0.191366 -0.038368 0.033282
0.174841 -0.034676 0.033998
0.185557 -0.041714 0.034395
0.180403 -0.040280 0.033481
0.178338 -0.037425 0.033774
0.174082 -0.028552 0.032130
0.192512 -0.033697 0.032649
0.197873 -0.041241 0.032895
0.178496 -0.040930 0.034187
0.199941 -0.036376 0.033537
0.186756 -0.035039 0.032800
0.181810 -0.034414 0.034025
0.160560 -0.036434 0.033038
0.187195 -0.028475 0.032263
0.168624 -0.041644 0.034745
0.172599 -0.031220 0.032595
0.149682 -0.009428 -0.000373
0.120144 -0.008665 0.008288
0.100000 -0.009680 0.003737
0.129793 -0.008718 0.000148
0.158314 -0.009157 -0.002780
0.143416 -0.010669 -0.019264
0.168057 -0.009967 -0.008284
0.115793 -0.009464 0.004305
0.083991 -0.010324 -0.011557
0.133296 -0.008453 -0.005636
0.119292 -0.010228 -0.014224
0.075375 -0.009854 -0.001105
0.111447 -0.009117 -0.020040
0.146096 -0.009142 -0.008012
0.094988 -0.010938 -0.020142
0.092350 -0.009724 -0.005319
0.139394 -0.009048 0.003750
0.126237 -0.009518 -0.006097
0.135233 -0.008766 0.009939
0.127450 -0.008807 0.007031
0.136290 -0.009465 -0.011362
0.117429 -0.009911 -0.003424
0.144783 -0.008663 0.007140
0.158322 -0.010218 -0.015248
0.108640 -0.008470 0.007360
0.161099 -0.008915 0.006127
0.122248 -0.009031 0.000313
0.128236 -0.011927 -0.022611
0.087943 -0.009198 0.004920
0.139061 -0.008596 0.001359
0.103874 -0.009678 -0.009754
0.110484 -0.008680 -0.005087
0.061798 -0.078079 -0.011296
0.140475 -0.077588 -0.003444
0.102355 -0.066764 -0.029757
0.084137 -0.078154 -0.012214
0.175775 -0.078824 -0.010150
0.141231 -0.065801 -0.029410
0.155549 -0.074050 -0.019005
0.141538 -0.070692 -0.025233
0.107954 -0.072513 -0.026479
0.103657 -0.079041 -0.007510
0.171727 -0.070895 -0.027435
0.063264 -0.071488 -0.027021
0.115936 -0.071147 -0.015757
0.080348 -0.080788 -0.011853
0.163735 -0.064828 -0.033157
0.177125 -0.073426 -0.020241
0.131543 -0.075574 -0.024347
0.114014 -0.067813 -0.027773
0.163345 -0.078760 -0.013855
0.124688 -0.076859 -0.015924
0.074383 -0.067956 -0.028607
0.123852 -0.057166 -0.031818
0.192904 -0.070997 -0.021885
0.091551 -0.072584 -0.020664
0.147606 -0.076614 -0.014941
0.110000 -0.080416 -0.007175
0.126644 -0.074019 -0.020116
0.132072 -0.067457 -0.032049
0.147944 -0.078035 -0.016413
0.084620 -0.066049 -0.032942
0.154749 -0.071260 -0.024319
0.096877 -0.075604 -0.024872
0.203757 -0.077675 0.014676
0.183534 -0.073449 0.017454
0.171416 -0.074805 0.019857
0.191839 -0.077008 0.015415
0.212210 -0.076462 0.013775
0.199763 -0.078595 0.015578
0.220629 -0.075032 0.018136
0.183984 -0.072360 0.022076
0.162573 -0.075423 0.019384
0.191331 -0.080228 0.011249
0.180311 -0.078582 0.014941
0.154867 -0.076349 0.016951
0.177328 -0.080319 0.010421
0.195605 -0.074511 0.018911
0.169123 -0.079001 0.015321
0.165403 -0.079298 0.013594
0.199357 -0.074110 0.018688
0.183855 -0.077116 0.018349
0.194976 -0.071336 0.020614
0.188405 -0.073965 0.018859
0.187472 -0.076270 0.018296
0.178408 -0.072034 0.023754
0.203477 -0.072314 0.020183
0.208824 -0.077004 0.017138
0.181268 -0.073320 0.017415
0.210777 -0.071319 0.020841
0.189044 -0.075198 0.017486
0.187388 -0.081159 0.013436
0.164924 -0.073844 0.020046
0.194089 -0.072818 0.023051
0.174790 -0.077609 0.015542
0.177853 -0.075509 0.018940
0.190622 -0.034449 0.033042
0.173218 -0.035801 0.033863
0.161580 -0.023878 0.030688
0.181815 -0.033574 0.033009
0.194585 -0.037148 0.033065
0.185019 -0.020294 0.029837
0.199598 -0.022323 0.028873
0.173874 -0.022478 0.029016
0.153650 -0.020216 0.028270
0.179508 -0.036925 0.035015
0.167070 -0.027821 0.032099
0.149646 -0.028585 0.031960
0.166314 -0.034080 0.034256
0.180728 -0.022534 0.030038
0.160276 -0.026061 0.031013
0.156265 -0.034508 0.033621
0.186155 -0.028779 0.031246
0.171219 -0.024147 0.031623
0.181722 -0.032816 0.033362
0.175678 -0.030634 0.031852
0.174843 -0.026499 0.031533
0.169435 -0.019899 0.027309
0.188165 -0.024434 0.029795
0.193936 -0.029572 0.030521
0.172701 -0.031455 0.033022
0.196436 -0.027762 0.031504
0.181493 -0.025228 0.030508
0.177300 -0.022288 0.030662
0.154598 -0.027382 0.030878
0.182290 -0.020304 0.028537
0.163491 -0.030362 0.033610
0.167025 -0.022882 0.029862
0.126080 -0.038176 0.039703
0.193206 -0.039920 0.034037
0.162386 -0.009861 0.032634
0.147235 -0.039712 0.042405
0.227868 -0.034034 0.035105
0.208544 -0.024207 0.023035
0.216432 -0.018396 0.029523
0.202242 -0.014872 0.031554
0.169154 -0.014614 0.036664
0.161593 -0.054509 0.037159
0.228569 -0.018467 0.036730
0.118753 -0.016268 0.035349
0.177249 -0.044840 0.040233
0.142090 -0.027912 0.035554
0.223908 -0.011144 0.026712
0.227286 -0.041009 0.036439
0.191910 -0.023705 0.037398
0.167657 -0.026306 0.026763
0.213202 -0.031490 0.039298
0.183322 -0.016598 0.031745
0.134517 -0.011870 0.032199
0.183412 -0.012172 0.028114
0.245642 -0.019040 0.034274
0.155168 -0.018018 0.034430
0.201700 -0.046880 0.040626
0.173086 -0.028884 0.034311
0.182776 -0.027929 0.040112
0.193012 -0.011367 0.021043
0.202598 -0.024597 0.038157
0.147672 -0.013138 0.022509
0.214583 -0.018670 0.034483
0.154035 -0.028431 0.040057
0.096614 -0.079960 0.001955
0.162182 -0.076897 0.016138
0.128668 -0.079176 -0.015605
0.115802 -0.078849 -0.000452
0.198690 -0.078554 0.006289
0.166261 -0.072404 -0.016467
0.182897 -0.080386 0.006116
0.164070 -0.082980 -0.003233
0.133507 -0.080944 -0.008709
0.134055 -0.078585 0.002489
0.190423 -0.080482 -0.010657
0.095563 -0.078245 -0.015571
0.140616 -0.075980 -0.007759
0.110387 -0.080825 0.009554
0.183904 -0.080861 -0.015791
0.193792 -0.078424 -0.010111
0.158041 -0.080454 -0.009150
0.142207 -0.073489 -0.018129
0.187718 -0.080694 0.000580
0.151125 -0.082054 0.006030
0.103934 -0.080253 -0.010236
0.150555 -0.074844 -0.014554
0.210519 -0.076469 -0.008398
0.121650 -0.080361 0.000064
0.170221 -0.077967 -0.002892
0.139905 -0.079425 0.012144
0.153133 -0.076839 -0.004152
0.157802 -0.077627 -0.016476
0.173145 -0.079840 0.003703
0.112123 -0.075287 -0.016175
0.173938 -0.076993 -0.010436
0.124210 -0.079045 -0.010681
0.201376 -0.081139 0.004518
0.176035 -0.079420 0.010839
0.162875 -0.080617 0.008559
0.183760 -0.080895 0.005280
0.208137 -0.080917 0.000847
0.196654 -0.082149 -0.011453
0.216593 -0.080969 -0.001919
0.174130 -0.080594 0.009154
0.152062 -0.081882 -0.003077
0.185276 -0.081076 -0.000368
0.177740 -0.081938 -0.006195
0.144469 -0.081330 0.004251
0.170758 -0.082318 -0.013340
0.197711 -0.080442 -0.000200
0.159404 -0.082048 -0.012455
0.157276 -0.082184 0.000688
0.192149 -0.080068 0.007906
0.182795 -0.081580 0.001162
0.188423 -0.078432 0.012577
0.182938 -0.079595 0.010050
0.190646 -0.080828 -0.002811
0.175882 -0.080369 0.004055
0.196795 -0.079230 0.010794
0.207686 -0.081457 -0.006773
0.169619 -0.079768 0.010270
0.208718 -0.078878 0.009569
0.178324 -0.080607 0.005405
0.183139 -0.083279 -0.015896
0.153536 -0.079781 0.009298
0.192534 -0.079836 0.007229
0.166583 -0.081093 -0.002995
0.171286 -0.080959 0.001906
0.059117 -0.095831 -0.091648
0.047634 -0.095230 -0.082526
0.035805 -0.081109 -0.094099
0.049619 -0.096306 -0.096415
0.063271 -0.097855 -0.091019
0.050858 -0.080448 -0.101906
0.065613 -0.077852 -0.094592
0.044939 -0.072676 -0.089179
0.030543 -0.072267 -0.101092
0.053802 -0.098024 -0.096650
0.043830 -0.091476 -0.099398
0.023589 -0.089471 -0.097027
0.044947 -0.096974 -0.103630
0.050007 -0.083587 -0.093615
0.035351 -0.088476 -0.105536
0.033937 -0.096179 -0.098022
0.051610 -0.091467 -0.094335
0.042326 -0.082466 -0.097911
0.050807 -0.088988 -0.075785
0.046846 -0.088198 -0.089736
0.048895 -0.086670 -0.096322
0.041553 -0.059407 -0.093968
0.053632 -0.080463 -0.089831
0.059873 -0.087744 -0.099002
0.045987 -0.092178 -0.088134
0.059178 -0.082057 -0.081066
0.047581 -0.086773 -0.096262
0.045988 -0.084858 -0.110529
0.031556 -0.085212 -0.089936
0.050191 -0.067543 -0.094435
0.041888 -0.092916 -0.094947
0.042953 -0.078374 -0.094921
0.213396 -0.062816 0.028652
0.196378 -0.060885 0.029762
0.186276 -0.053144 0.031860
0.204759 -0.062276 0.028663
0.219616 -0.063445 0.028243
0.207658 -0.055929 0.032137
0.225256 -0.051693 0.032120
0.198659 -0.048944 0.033119
0.179644 -0.051354 0.032982
0.203237 -0.065684 0.027500
0.192397 -0.060492 0.029958
0.174309 -0.059667 0.030409
0.191272 -0.065397 0.027729
0.203523 -0.052397 0.032177
0.185980 -0.060189 0.031650
0.181273 -0.064058 0.028461
0.211127 -0.057375 0.030683
0.193818 -0.056336 0.031826
0.205563 -0.057971 0.031283
0.199730 -0.058181 0.030902
0.196979 -0.058027 0.031664
0.191615 -0.047294 0.035251
0.212531 -0.052521 0.031845
0.217472 -0.060652 0.030894
0.197802 -0.059021 0.029660
0.218437 -0.053328 0.032224
0.204801 -0.055908 0.030277
0.200504 -0.059892 0.032208
0.180799 -0.055683 0.031851
0.205835 -0.048051 0.033951
0.188966 -0.061759 0.030203
0.191966 -0.051819 0.031922
0.207162 -0.044712 0.033756
0.189307 -0.045125 0.034822
0.179440 -0.032880 0.033291
0.198358 -0.043859 0.034036
0.212092 -0.047289 0.033638
0.200922 -0.030948 0.033145
0.216678 -0.031003 0.032189
0.191278 -0.030260 0.032338
0.173282 -0.029122 0.032269
0.195594 -0.047119 0.034922
0.183934 -0.039189 0.034005
0.169577 -0.039561 0.033915
0.183546 -0.045503 0.034449
0.196228 -0.031579 0.032860
0.178616 -0.037795 0.033630
0.174304 -0.044976 0.034484
0.203561 -0.038331 0.033348
0.186949 -0.034336 0.033970
0.197735 -0.041793 0.034586
0.192483 -0.040194 0.033617
0.190505 -0.037297 0.033747
0.186281 -0.027906 0.031967
0.205125 -0.033441 0.032645
0.210798 -0.041192 0.032748
0.190426 -0.041201 0.034339
0.212996 -0.036310 0.033427
0.198729 -0.034883 0.032795
0.194178 -0.034113 0.033969
0.173032 -0.036365 0.033177
0.199377 -0.028141 0.032097
0.181195 -0.041648 0.034955
0.184847 -0.031097 0.032639
0.159048 -0.009278 0.001810
0.129540 -0.008756 0.011395
0.108348 -0.009503 0.005607
0.138820 -0.008813 0.002033
0.166744 -0.009005 -0.000773
0.152445 -0.010269 -0.016332
0.175892 -0.009713 -0.006731
0.125055 -0.009259 0.006027
0.089938 -0.010337 -0.008887
0.142816 -0.007887 -0.002945
0.128982 -0.010043 -0.011663
0.080592 -0.009976 0.000981
0.120510 -0.008946 -0.016937
0.155823 -0.009005 -0.006320
0.102639 -0.010313 -0.016819
0.099670 -0.009643 -0.003031
0.148666 -0.009128 0.005494
0.136425 -0.009177 -0.003758
0.144867 -0.008793 0.013334
0.136915 -0.008593 0.009083
0.146186 -0.008939 -0.009177
0.127164 -0.009515 -0.001600
0.153656 -0.008594 0.009270
0.166655 -0.009758 -0.012661
0.117283 -0.008768 0.009990
0.169857 -0.008796 0.008771
0.131159 -0.009156 0.002095
0.137313 -0.011193 -0.018587
0.094620 -0.009214 0.006990
0.149063 -0.008487 0.002882
0.112224 -0.009504 -0.007723
0.119661 -0.008519 -0.003184
-0.092101 -0.044765 -0.178499
-0.025457 -0.044054 -0.130307
-0.058548 -0.047175 -0.284580
-0.065638 -0.043952 -0.213562
0.000325 -0.041810 -0.172840
-0.018086 -0.038643 -0.325813
-0.015846 -0.045065 -0.137710
-0.025182 -0.050171 -0.207601
-0.039431 -0.044382 -0.215964
-0.037108 -0.050523 -0.168193
-0.010826 -0.044919 -0.233897
-0.090565 -0.039970 -0.266535
-0.045098 -0.046744 -0.244017
-0.087221 -0.043419 -0.138129
-0.004183 -0.043204 -0.297919
0.003069 -0.043264 -0.255372
-0.033239 -0.044156 -0.243949
-0.047473 -0.041962 -0.300126
-0.012977 -0.040220 -0.205303
-0.043506 -0.046031 -0.151363
-0.087813 -0.046877 -0.219843
-0.035672 -0.044026 -0.265347
0.005836 -0.045876 -0.231565
-0.063742 -0.047293 -0.169689
-0.015137 -0.046267 -0.226111
-0.059513 -0.043648 -0.100270
-0.046746 -0.040462 -0.196538
-0.024091 -0.043166 -0.294193
-0.022521 -0.046596 -0.175213
-0.075316 -0.040868 -0.327781
-0.021028 -0.040030 -0.271921
-0.058777 -0.043607 -0.245362
0.024711 -0.071126 -0.085694
0.060244 -0.073607 -0.072717
0.040243 -0.057079 -0.104584
0.035449 -0.079516 -0.095096
0.082053 -0.067396 -0.078570
0.064434 -0.072551 -0.109158
0.072648 -0.056659 -0.069443
0.063543 -0.057866 -0.087142
0.050849 -0.062212 -0.090242
0.048196 -0.087786 -0.085681
0.073833 -0.058809 -0.091451
0.022385 -0.062841 -0.101972
0.054540 -0.082758 -0.099126
0.027196 -0.061463 -0.073093
0.073372 -0.056762 -0.103738
0.081450 -0.079376 -0.101193
0.057500 -0.067766 -0.096592
0.044184 -0.075592 -0.105961
0.072096 -0.073785 -0.089916
0.049782 -0.055933 -0.073331
0.024220 -0.055345 -0.092547
0.053742 -0.056156 -0.097104
0.088837 -0.065075 -0.094995
0.036291 -0.055475 -0.079870
0.068731 -0.086522 -0.093306
0.043309 -0.063298 -0.058586
0.051612 -0.068857 -0.088298
0.058565 -0.059416 -0.104201
0.064553 -0.063973 -0.082487
0.032669 -0.064551 -0.111087
0.068737 -0.064612 -0.100637
0.039550 -0.069093 -0.098542
0.005351 -0.063012 -0.076806
0.048683 -0.061289 -0.063618
0.022954 -0.058319 -0.097236
0.017683 -0.067182 -0.084866
0.075508 -0.061018 -0.070225
0.055139 -0.064539 -0.104367
0.063325 -0.058682 -0.062878
0.051761 -0.059682 -0.079189
0.033828 -0.060194 -0.082521
0.032781 -0.076020 -0.079501
0.065026 -0.058870 -0.084086
-0.000453 -0.061098 -0.094831
0.037604 -0.072557 -0.090469
0.010597 -0.058406 -0.065358
0.062703 -0.061227 -0.096277
0.072567 -0.068628 -0.093256
0.046687 -0.062669 -0.088280
0.030500 -0.064810 -0.101244
0.064611 -0.062562 -0.078516
0.037408 -0.056439 -0.065304
0.006239 -0.058027 -0.083816
0.038554 -0.058902 -0.089246
0.083199 -0.061451 -0.086014
0.023099 -0.056473 -0.071741
0.058307 -0.072798 -0.083595
0.031177 -0.059548 -0.054589
0.039120 -0.060716 -0.079242
0.045909 -0.060237 -0.097951
0.052215 -0.061412 -0.072792
0.014623 -0.061149 -0.104728
0.057586 -0.061554 -0.092630
0.021657 -0.061833 -0.090796
0.213131 -0.077141 0.015558
0.193751 -0.072934 0.018126
0.181527 -0.074030 0.020770
0.201817 -0.076524 0.016110
0.221590 -0.076048 0.014452
0.209556 -0.077836 0.016927
0.230197 -0.074098 0.019076
0.194458 -0.071571 0.022959
0.172054 -0.074650 0.020590
0.201090 -0.080016 0.012104
0.190385 -0.078031 0.016042
0.163855 -0.075886 0.017805
0.187284 -0.079727 0.011756
0.205285 -0.073951 0.019801
0.179029 -0.078385 0.016727
0.175122 -0.078919 0.014546
0.209074 -0.073511 0.019270
0.193971 -0.076499 0.019488
0.204777 -0.070454 0.021722
0.198496 -0.073379 0.019470
0.197106 -0.075644 0.019341
0.188736 -0.070910 0.024776
0.213462 -0.071402 0.020869
0.218360 -0.076259 0.018316
0.191679 -0.072658 0.018032
0.220109 -0.070389 0.021816
0.199347 -0.074752 0.018302
0.197292 -0.080311 0.015084
0.174674 -0.073221 0.020942
0.204183 -0.071971 0.023942
0.184838 -0.076975 0.016559
0.188074 -0.074958 0.019996
0.039078 -0.056707 -0.054689
0.073132 -0.058012 -0.024545
0.047400 -0.054561 -0.092001
0.050306 -0.060888 -0.068971
0.099775 -0.059479 -0.040200
0.079431 -0.060912 -0.107455
0.085803 -0.055823 -0.028975
0.072021 -0.057644 -0.058654
0.060940 -0.056051 -0.065919
0.064445 -0.072246 -0.050868
0.085145 -0.054828 -0.069870
0.031738 -0.055809 -0.085797
0.064931 -0.070034 -0.082216
0.038271 -0.052128 -0.032546
0.085267 -0.060009 -0.093484
0.098398 -0.065508 -0.083336
0.072052 -0.057926 -0.073623
0.054260 -0.060257 -0.097712
0.089884 -0.058155 -0.056372
0.059244 -0.053169 -0.035363
0.034384 -0.055492 -0.067241
0.062377 -0.058654 -0.079293
0.104956 -0.059328 -0.069666
0.049022 -0.051689 -0.046696
0.082662 -0.068505 -0.066042
0.055446 -0.053806 -0.009402
0.062538 -0.055449 -0.058740
0.068390 -0.056842 -0.094809
0.076022 -0.057003 -0.048160
0.040060 -0.055256 -0.104731
0.078651 -0.059508 -0.085993
0.050696 -0.054743 -0.078839
0.217213 -0.071201 0.022416
0.200686 -0.067683 0.023627
0.188509 -0.064520 0.027301
0.208304 -0.070667 0.022367
0.224312 -0.070387 0.021889
0.212885 -0.068688 0.026518
0.231276 -0.063481 0.027742
0.202369 -0.060611 0.029596
0.179752 -0.064283 0.028598
0.207190 -0.074794 0.019637
0.196354 -0.070643 0.023863
0.172106 -0.068844 0.024600
0.193981 -0.074435 0.020270
0.208958 -0.063938 0.027759
0.187134 -0.070661 0.025883
0.182014 -0.073076 0.021459
0.214991 -0.066576 0.025536
0.198379 -0.067829 0.026684
0.210519 -0.064545 0.026455
0.204265 -0.066459 0.025643
0.201483 -0.067644 0.026944
0.194347 -0.059096 0.032388
0.217523 -0.062452 0.027282
0.221925 -0.068927 0.026337
0.200747 -0.066758 0.023623
0.222698 -0.061822 0.028248
0.207735 -0.066818 0.025013
0.203402 -0.072662 0.025219
0.182585 -0.065374 0.027215
0.209699 -0.060468 0.031019
0.191817 -0.070692 0.023943
0.194893 -0.064479 0.027446
-0.022944 -0.054898 -0.101126
0.018536 -0.052553 -0.087072
-0.006405 -0.055716 -0.125338
-0.011237 -0.056583 -0.107248
0.045937 -0.054601 -0.094349
0.024358 -0.056675 -0.139153
0.033921 -0.054158 -0.087347
0.020387 -0.056691 -0.101782
0.002806 -0.055727 -0.107540
0.006721 -0.062950 -0.103463
0.035024 -0.055352 -0.109640
-0.028850 -0.056218 -0.122931
0.005551 -0.059533 -0.116608
-0.017081 -0.052083 -0.088926
0.033367 -0.058691 -0.124286
0.043462 -0.058305 -0.118522
0.017361 -0.056054 -0.113058
0.001796 -0.055884 -0.134557
0.037416 -0.055541 -0.102387
0.009812 -0.053902 -0.091060
-0.022252 -0.056085 -0.107066
0.009633 -0.057334 -0.114552
0.053465 -0.056668 -0.110282
-0.004189 -0.053630 -0.093472
0.026898 -0.059929 -0.109447
0.002390 -0.052482 -0.081118
0.008650 -0.053962 -0.104372
0.016295 -0.056479 -0.128057
0.023182 -0.054213 -0.096067
-0.013372 -0.057280 -0.136049
0.026623 -0.055705 -0.119564
-0.009623 -0.054518 -0.116222
0.202156 -0.033609 0.032946
0.183896 -0.035463 0.033904
0.170868 -0.023520 0.029975
0.192566 -0.032632 0.032904
0.206155 -0.036296 0.033273
0.196791 -0.019231 0.028605
0.211793 -0.021771 0.027942
0.184253 -0.022131 0.028033
0.162009 -0.019600 0.026883
0.190468 -0.035874 0.035485
0.177205 -0.026546 0.031447
0.157314 -0.027605 0.031383
0.176040 -0.032767 0.034283
0.192485 -0.021906 0.029100
0.169160 -0.024699 0.030090
0.165263 -0.033593 0.033462
0.197109 -0.028197 0.030740
0.182107 -0.023194 0.030837
0.193351 -0.032623 0.033243
0.186591 -0.030140 0.031496
0.186136 -0.025450 0.030805
0.179817 -0.019297 0.025724
0.199869 -0.023991 0.029006
0.206016 -0.028343 0.029900
0.182561 -0.030994 0.032743
0.208838 -0.027585 0.031201
0.192012 -0.024604 0.029838
0.187971 -0.020878 0.029504
0.163438 -0.027112 0.030279
0.193574 -0.019907 0.027444
0.172982 -0.029327 0.033267
0.176897 -0.022595 0.028995
0.186420 -0.013207 0.017728
0.157346 -0.014911 0.023396
0.137932 -0.012254 0.018249
0.166854 -0.012234 0.018032
0.191772 -0.012040 0.016853
0.181505 -0.008973 0.003822
0.203225 -0.011093 0.011008
0.153813 -0.012333 0.017173
0.123220 -0.010618 0.009984
0.169690 -0.010493 0.019809
0.154557 -0.010042 0.008426
0.115450 -0.012153 0.016181
0.148466 -0.009243 0.009462
0.181212 -0.010471 0.011753
0.133555 -0.009072 0.005316
0.132443 -0.011932 0.016213
0.176086 -0.012788 0.018443
0.162197 -0.010413 0.013292
0.173690 -0.014761 0.021667
0.163151 -0.013498 0.021553
0.172013 -0.010222 0.010817
0.153133 -0.010743 0.011251
0.183542 -0.012311 0.018142
0.193983 -0.010781 0.008274
0.147442 -0.013982 0.020896
0.198473 -0.013449 0.021164
0.161248 -0.012176 0.015986
0.163815 -0.009260 0.004057
0.125486 -0.012994 0.019464
0.174918 -0.010079 0.014409
0.141288 -0.010629 0.012821
0.147621 -0.010256 0.013994
0.047342 -0.053212 -0.050333
0.076165 -0.053375 -0.024406
0.051564 -0.054151 -0.085110
0.055310 -0.056200 -0.061883
0.102484 -0.057107 -0.037921
0.083165 -0.057324 -0.102233
0.089862 -0.055512 -0.029212
0.074072 -0.057014 -0.052927
0.063336 -0.055405 -0.061839
0.070051 -0.066732 -0.049082
0.087291 -0.054578 -0.065227
0.037043 -0.054085 -0.079301
0.068418 -0.064310 -0.075626
0.045031 -0.050660 -0.032094
0.086680 -0.059727 -0.087523
0.098694 -0.061468 -0.076742
0.075928 -0.056165 -0.067000
0.058884 -0.056418 -0.092201
0.093554 -0.055330 -0.049862
0.063542 -0.052403 -0.033915
0.040953 -0.054838 -0.062041
0.065662 -0.057585 -0.072951
0.106203 -0.058036 -0.063589
0.054882 -0.051932 -0.043407
0.084341 -0.062020 -0.060131
0.061427 -0.052023 -0.012545
0.066113 -0.053236 -0.054585
0.072278 -0.056313 -0.089414
0.078276 -0.055243 -0.043908
0.046610 -0.054528 -0.096862
0.080556 -0.057068 -0.079987
0.053741 -0.052977 -0.072575
0.017889 -0.060302 -0.082632
0.060162 -0.060355 -0.069135
0.036047 -0.053114 -0.103993
0.030195 -0.066568 -0.090884
0.085508 -0.058014 -0.075523
0.066114 -0.062620 -0.109757
0.073476 -0.053512 -0.067799
0.063095 -0.054067 -0.085672
0.047325 -0.056216 -0.089514
0.045384 -0.074188 -0.084248
0.076674 -0.053987 -0.090685
0.013372 -0.056364 -0.100982
0.051546 -0.070385 -0.095922
0.022289 -0.055702 -0.070154
0.075041 -0.053406 -0.103338
0.084331 -0.067494 -0.099324
0.057542 -0.060086 -0.095069
0.042673 -0.063877 -0.105798
0.075692 -0.062288 -0.085712
0.048562 -0.052017 -0.070505
0.017974 -0.051651 -0.090825
0.050905 -0.051194 -0.096538
0.094645 -0.058579 -0.093194
0.033531 -0.051667 -0.077392
0.069686 -0.073042 -0.090201
0.041749 -0.057184 -0.057206
0.050814 -0.059213 -0.085565
0.058038 -0.055475 -0.103966
0.064659 -0.058760 -0.079288
0.027999 -0.057737 -0.111394
0.069696 -0.058310 -0.098950
0.034804 -0.060296 -0.097085
0.015501 -0.032746 -0.028256
0.096396 -0.026999 -0.025569
0.056087 -0.012903 -0.021878
0.036887 -0.036385 -0.028151
0.135783 -0.015940 -0.022243
0.099913 -0.033781 -0.030849
0.120868 -0.008335 -0.014789
0.105495 -0.009534 -0.014618
0.069158 -0.013460 -0.022840
0.059011 -0.041483 -0.028723
0.139700 -0.014277 -0.019942
0.012926 -0.021342 -0.026025
0.076623 -0.038025 -0.032506
0.033880 -0.018905 -0.021624
0.126485 -0.011582 -0.019706
0.141905 -0.037837 -0.029937
0.089467 -0.022540 -0.022828
0.067709 -0.036150 -0.032360
0.119670 -0.031452 -0.024306
0.084305 -0.008307 -0.017987
0.024296 -0.011697 -0.019254
0.076871 -0.009052 -0.015280
0.161942 -0.018689 -0.021408
0.048368 -0.006580 -0.016188
0.110036 -0.039809 -0.030643
0.064505 -0.014016 -0.020278
0.081344 -0.024488 -0.026380
0.090152 -0.020532 -0.027544
0.108948 -0.015883 -0.021256
0.044936 -0.025095 -0.030649
0.120382 -0.020979 -0.024102
0.052992 -0.030508 -0.026743
0.178521 -0.009336 0.003032
0.148238 -0.009020 0.012262
0.130700 -0.009409 0.006807
0.157455 -0.008855 0.004035
0.187066 -0.008826 0.000199
0.171799 -0.009760 -0.014573
0.198046 -0.009647 -0.005227
0.144426 -0.009183 0.007082
0.116647 -0.009685 -0.006529
0.160874 -0.007652 -0.000225
0.148680 -0.009538 -0.009398
0.109320 -0.009528 0.002865
0.142025 -0.008347 -0.014272
0.174488 -0.008969 -0.004599
0.126693 -0.009624 -0.014641
0.124615 -0.009138 -0.000765
0.167472 -0.008901 0.006628
0.155243 -0.009059 -0.002064
0.162706 -0.009131 0.013387
0.155231 -0.008881 0.010296
0.164805 -0.008770 -0.007497
0.146351 -0.008937 -0.000191
0.173317 -0.008724 0.009979
0.187240 -0.009808 -0.010904
0.138054 -0.009045 0.010712
0.190261 -0.008995 0.009474
0.150370 -0.009022 0.003349
0.156245 -0.010498 -0.016473
0.119393 -0.009028 0.008160
0.167138 -0.008293 0.003622
0.134670 -0.009150 -0.005954
0.140609 -0.008309 -0.001700
0.226006 -0.065454 0.027229
0.210255 -0.063102 0.028283
0.200392 -0.056404 0.030787
0.217870 -0.064997 0.027049
0.232012 -0.065808 0.026630
0.220562 -0.059532 0.030918
0.237142 -0.055229 0.030983
0.211884 -0.052267 0.032220
0.194097 -0.054953 0.032026
0.216671 -0.068122 0.025759
0.206582 -0.063477 0.028617
0.188888 -0.062462 0.029136
0.205691 -0.068071 0.025975
0.216897 -0.055898 0.031199
0.200299 -0.063159 0.030567
0.195960 -0.066671 0.026911
0.223612 -0.060355 0.029419
0.207888 -0.059668 0.030747
0.218540 -0.060354 0.030062
0.212962 -0.060696 0.029661
0.210622 -0.060903 0.030633
0.205044 -0.050600 0.034631
0.224909 -0.055631 0.030587
0.229493 -0.063139 0.029852
0.211540 -0.061610 0.028340
0.229975 -0.056024 0.031274
0.217667 -0.059197 0.029137
0.213733 -0.063444 0.030690
0.195455 -0.058482 0.030747
0.218388 -0.051700 0.033225
0.203284 -0.064339 0.028875
0.205804 -0.055290 0.031020
0.070752 -0.097026 -0.098280
0.056096 -0.095769 -0.090247
0.044045 -0.088167 -0.100132
0.058631 -0.096245 -0.103471
0.076385 -0.097636 -0.098579
0.062464 -0.088346 -0.113292
0.078581 -0.087714 -0.102826
0.051967 -0.082237 -0.096857
0.038835 -0.082037 -0.109974
0.064677 -0.094732 -0.103804
0.052694 -0.093957 -0.108408
0.032899 -0.093338 -0.104047
0.054366 -0.095268 -0.114203
0.061034 -0.090150 -0.102164
0.042392 -0.091496 -0.117781
0.043713 -0.096838 -0.105255
0.061289 -0.095257 -0.100293
0.051429 -0.088765 -0.105651
0.061261 -0.092856 -0.084703
0.055222 -0.091836 -0.096815
0.059553 -0.091076 -0.104247
0.049015 -0.072069 -0.101366
0.064550 -0.088752 -0.097009
0.071680 -0.092394 -0.108499
0.053090 -0.094576 -0.094580
0.070874 -0.089318 -0.089314
0.055289 -0.092213 -0.102717
0.054761 -0.090086 -0.123883
0.039157 -0.090899 -0.097030
0.059223 -0.078658 -0.100959
0.049654 -0.094485 -0.103480
0.050613 -0.086596 -0.102124
-0.039930 -0.057416 -0.091199
0.005660 -0.057962 -0.083887
-0.016932 -0.052757 -0.122860
-0.025206 -0.059092 -0.101367
0.026205 -0.059354 -0.091489
0.010111 -0.054824 -0.136313
0.012366 -0.057627 -0.088047
0.005361 -0.057174 -0.103313
-0.009678 -0.054946 -0.103609
-0.009495 -0.065818 -0.091043
0.016077 -0.053670 -0.107671
-0.042253 -0.054833 -0.117867
-0.006158 -0.060845 -0.107175
-0.031634 -0.055694 -0.086320
0.018054 -0.055155 -0.125734
0.028344 -0.059542 -0.111950
0.000663 -0.056578 -0.110188
-0.011348 -0.053469 -0.128494
0.017346 -0.057052 -0.098243
-0.005604 -0.056449 -0.089262
-0.036449 -0.053369 -0.104681
-0.004283 -0.055901 -0.115452
0.033079 -0.056684 -0.107460
-0.020198 -0.053926 -0.092314
0.012885 -0.061971 -0.101703
-0.012659 -0.059118 -0.078881
-0.005227 -0.054787 -0.097479
0.002728 -0.051682 -0.125354
0.006974 -0.057413 -0.093015
-0.027594 -0.051844 -0.136967
0.011682 -0.054153 -0.117158
-0.020745 -0.054837 -0.109909
0.223343 -0.048085 0.034068
0.206242 -0.048623 0.035136
0.196523 -0.035869 0.033499
0.214946 -0.047133 0.034436
0.227989 -0.050815 0.034032
0.217495 -0.033845 0.033258
0.232229 -0.033902 0.032238
0.208049 -0.033020 0.032479
0.190359 -0.031844 0.032271
0.212590 -0.050593 0.035345
0.201239 -0.042287 0.034268
0.186684 -0.042614 0.034234
0.200870 -0.048861 0.034980
0.212931 -0.034690 0.032962
0.196063 -0.040834 0.033793
0.191748 -0.048281 0.034888
0.219798 -0.041633 0.033612
0.203978 -0.037216 0.034233
0.214397 -0.045145 0.034833
0.209162 -0.043429 0.033898
0.207375 -0.040370 0.033874
0.203224 -0.030594 0.031924
0.221441 -0.036471 0.032841
0.226953 -0.044304 0.032913
0.207087 -0.044563 0.034694
0.228756 -0.039594 0.033516
0.215288 -0.037940 0.033037
0.211101 -0.036890 0.034083
0.190259 -0.039487 0.033506
0.215824 -0.030914 0.032154
0.198408 -0.044933 0.035284
0.201892 -0.034042 0.032802
0.081435 -0.093494 -0.091638
0.063166 -0.093172 -0.086403
0.047648 -0.084339 -0.091300
0.069043 -0.093432 -0.094248
0.087397 -0.095492 -0.091496
0.074718 -0.083848 -0.098405
0.091692 -0.082885 -0.093089
0.062114 -0.078829 -0.089730
0.038110 -0.079020 -0.096371
0.072301 -0.095246 -0.093740
0.059060 -0.090046 -0.096208
0.030126 -0.090186 -0.094103
0.057198 -0.094513 -0.099708
0.071833 -0.084160 -0.092368
0.045304 -0.088272 -0.101021
0.042883 -0.094371 -0.094855
0.074292 -0.090476 -0.091926
0.059628 -0.085415 -0.093669
0.072763 -0.089546 -0.083019
0.065399 -0.089052 -0.089672
0.067217 -0.087415 -0.093135
0.056617 -0.070520 -0.090906
0.078078 -0.084682 -0.090473
0.084318 -0.089543 -0.095137
0.060565 -0.091096 -0.088929
0.085013 -0.085546 -0.085387
0.067082 -0.088073 -0.092894
0.064246 -0.087218 -0.104520
0.039914 -0.087717 -0.089258
0.071650 -0.075062 -0.090600
0.052768 -0.091592 -0.092747
0.056206 -0.082630 -0.091749
0.200104 -0.013294 0.017455
0.170409 -0.014800 0.023574
0.151791 -0.012096 0.018242
0.179848 -0.012199 0.017982
0.205751 -0.012124 0.016443
0.195014 -0.009016 0.002999
0.217308 -0.011253 0.010469
0.166898 -0.012260 0.017136
0.138664 -0.010423 0.009618
0.182737 -0.010357 0.019600
0.168431 -0.009871 0.007828
0.131511 -0.011999 0.016094
0.162456 -0.009198 0.008810
0.194807 -0.010470 0.011283
0.148062 -0.008973 0.004631
0.147394 -0.011755 0.015979
0.189172 -0.012740 0.018360
0.175433 -0.010389 0.013035
0.186712 -0.014739 0.021687
0.176203 -0.013527 0.021726
0.185536 -0.010228 0.010264
0.166244 -0.010612 0.010973
0.197068 -0.012321 0.018163
0.208033 -0.010929 0.007591
0.161025 -0.013904 0.020965
0.212285 -0.013507 0.021160
0.174172 -0.012057 0.015831
0.177079 -0.009320 0.003364
0.140242 -0.012846 0.019528
0.188120 -0.010018 0.014100
0.155558 -0.010470 0.012184
0.161283 -0.010133 0.013633
0.050073 -0.068610 -0.023344
0.130485 -0.070144 -0.020183
0.094889 -0.036398 -0.032301
0.071468 -0.072577 -0.021573
0.163381 -0.063708 -0.021552
0.130447 -0.058566 -0.033114
0.146102 -0.045240 -0.028609
0.134058 -0.039425 -0.030844
0.101507 -0.047507 -0.031198
0.091664 -0.072766 -0.017166
0.166373 -0.045702 -0.028516
0.048904 -0.049933 -0.028747
0.106898 -0.067938 -0.021530
0.069312 -0.062293 -0.026890
0.158805 -0.032107 -0.033219
0.171625 -0.067369 -0.023619
0.119195 -0.055724 -0.026959
0.099229 -0.062489 -0.031615
0.151116 -0.067210 -0.021731
0.113917 -0.047592 -0.028164
0.061251 -0.038201 -0.033262
0.111540 -0.031579 -0.030956
0.187114 -0.052560 -0.024735
0.077865 -0.043232 -0.029060
0.137853 -0.073813 -0.021907
0.099607 -0.061869 -0.023352
0.113760 -0.062833 -0.026801
0.121750 -0.041426 -0.033262
0.137582 -0.056192 -0.025931
0.077121 -0.046758 -0.038223
0.149733 -0.052446 -0.028343
0.085721 -0.061884 -0.028355
0.230863 -0.073416 0.020061
0.214362 -0.069484 0.021696
0.203478 -0.068575 0.025134
0.221717 -0.072969 0.020160
0.238360 -0.072498 0.019442
0.227333 -0.072581 0.023271
0.245759 -0.068021 0.024884
0.215601 -0.065042 0.027575
0.195511 -0.068657 0.026076
0.220797 -0.076636 0.016943
0.211055 -0.073559 0.021446
0.187786 -0.071545 0.022422
0.208946 -0.076517 0.017354
0.223112 -0.068187 0.025230
0.202075 -0.073786 0.022910
0.197835 -0.075284 0.019207
0.227997 -0.069387 0.023355
0.213306 -0.071410 0.024340
0.223918 -0.066640 0.025079
0.217951 -0.069106 0.023524
0.215780 -0.070819 0.024670
0.208897 -0.063772 0.030153
0.231192 -0.066071 0.025059
0.235436 -0.071664 0.023825
0.214069 -0.069073 0.021796
0.236226 -0.065114 0.026161
0.220485 -0.070122 0.022830
0.217456 -0.075887 0.021477
0.197908 -0.068527 0.025296
0.222933 -0.065404 0.028704
0.206765 -0.073063 0.021594
0.209334 -0.068920 0.025185
0.222894 -0.080100 0.007406
0.199412 -0.077817 0.013271
0.185453 -0.079302 0.011476
0.206734 -0.079628 0.007718
0.229771 -0.079892 0.003753
0.218855 -0.081201 -0.006568
0.237331 -0.079819 0.001669
0.197301 -0.079331 0.011993
0.174131 -0.080791 0.000889
0.208295 -0.080004 0.001890
0.200359 -0.081115 -0.002375
0.165780 -0.080576 0.007121
0.193544 -0.081467 -0.009019
0.219003 -0.079132 0.003763
0.181988 -0.081203 -0.007296
0.179782 -0.081086 0.003392
0.214365 -0.078851 0.010845
0.205089 -0.080493 0.004882
0.211293 -0.076818 0.015230
0.205594 -0.078026 0.012645
0.211678 -0.079595 0.001704
0.198267 -0.079428 0.007880
0.219129 -0.077930 0.013151
0.228240 -0.080319 -0.001929
0.192835 -0.078221 0.012820
0.229656 -0.077422 0.012572
0.201238 -0.079377 0.008498
0.205406 -0.082113 -0.010279
0.176263 -0.078405 0.012005
0.214074 -0.078716 0.010885
0.189312 -0.079831 0.001084
0.193881 -0.079761 0.005723
0.232987 -0.056371 0.030985
0.216326 -0.055185 0.032007
0.208129 -0.046243 0.033102
0.224762 -0.055758 0.031210
0.238728 -0.057755 0.030447
0.227086 -0.047553 0.033179
0.243549 -0.044846 0.032681
0.218430 -0.042622 0.033564
0.203016 -0.043852 0.033635
0.222727 -0.059054 0.030563
0.212898 -0.053144 0.032077
0.198949 -0.052780 0.032430
0.212474 -0.058483 0.030613
0.222872 -0.045415 0.033076
0.208071 -0.052610 0.032985
0.203946 -0.057261 0.031298
0.230340 -0.050680 0.032259
0.214353 -0.048717 0.033299
0.224518 -0.052364 0.032889
0.219423 -0.051859 0.032474
0.217239 -0.051192 0.032964
0.213088 -0.040896 0.034897
0.231412 -0.045948 0.032840
0.236518 -0.054129 0.031938
0.218141 -0.052910 0.032060
0.237712 -0.047512 0.032983
0.224765 -0.048560 0.031914
0.221141 -0.051041 0.033638
0.202878 -0.048945 0.033012
0.225429 -0.041323 0.033902
0.210276 -0.054821 0.032568
0.213024 -0.044486 0.032859
0.237209 -0.065151 0.027196
0.221910 -0.062632 0.028256
0.213267 -0.056522 0.030897
0.229294 -0.064834 0.026952
0.243244 -0.065300 0.026689
0.232332 -0.059721 0.030851
0.248765 -0.055076 0.031068
0.223891 -0.052035 0.032452
0.208007 -0.055179 0.032136
0.227997 -0.068015 0.025422
0.219034 -0.063456 0.028570
0.202659 -0.062518 0.029228
0.217959 -0.068053 0.025636
0.228599 -0.055751 0.031301
0.213124 -0.063206 0.030547
0.209185 -0.066684 0.026664
0.234897 -0.060032 0.029490
0.220055 -0.059689 0.030677
0.230264 -0.060025 0.030194
0.224652 -0.060250 0.029833
0.222404 -0.060641 0.030774
0.217521 -0.050375 0.034904
0.236283 -0.055307 0.030827
0.240735 -0.062669 0.029922
0.223439 -0.061456 0.028283
0.241231 -0.055450 0.031420
0.229006 -0.059098 0.029117
0.225580 -0.063683 0.030538
0.208958 -0.058372 0.030789
0.229931 -0.051621 0.033540
0.215948 -0.064312 0.028865
0.218311 -0.055270 0.031096
0.202471 -0.013125 0.016784
0.178061 -0.014429 0.022385
0.161016 -0.011739 0.017281
0.185470 -0.012102 0.016930
0.206591 -0.011893 0.015974
0.199218 -0.008807 0.003125
0.215730 -0.011072 0.010208
0.174624 -0.011982 0.016627
0.148921 -0.010428 0.009069
0.188848 -0.009898 0.018702
0.177002 -0.009874 0.007579
0.142219 -0.012005 0.015084
0.170907 -0.009410 0.008423
0.199040 -0.010191 0.011346
0.158060 -0.009039 0.004556
0.157257 -0.011799 0.014801
0.193579 -0.012738 0.017506
0.182779 -0.010100 0.012439
0.192411 -0.014397 0.020542
0.182704 -0.013043 0.020614
0.191520 -0.009919 0.010084
0.174756 -0.010657 0.010465
0.199826 -0.012198 0.017185
0.208823 -0.010435 0.007378
0.169165 -0.013615 0.020010
0.212081 -0.013085 0.020314
0.180642 -0.011937 0.015018
0.183889 -0.009148 0.003449
0.150536 -0.012688 0.018674
0.193064 -0.009849 0.013761
0.164765 -0.010459 0.012063
0.169847 -0.009983 0.013115
0.234765 -0.079612 0.009961
0.213405 -0.077111 0.015789
0.202782 -0.078928 0.014298
0.220404 -0.079347 0.010759
0.241585 -0.078995 0.007065
0.231750 -0.080874 0.001062
0.249854 -0.079027 0.006888
0.212938 -0.078349 0.015534
0.194278 -0.080345 0.007510
0.220664 -0.080664 0.005654
0.214759 -0.080840 0.003765
0.186760 -0.080259 0.010733
0.209102 -0.081784 -0.001791
0.230518 -0.078519 0.008954
0.200374 -0.081400 0.001046
0.197836 -0.081157 0.007140
0.227824 -0.077912 0.013651
0.218696 -0.080155 0.009388
0.224278 -0.075731 0.017990
0.219232 -0.077386 0.015360
0.223588 -0.079283 0.007374
0.213141 -0.078239 0.013023
0.232193 -0.077069 0.015699
0.240097 -0.079667 0.004711
0.209092 -0.077397 0.014972
0.241366 -0.076277 0.015900
0.216039 -0.078703 0.011553
0.219156 -0.082418 -0.001354
0.195554 -0.078002 0.015108
0.226523 -0.078006 0.014643
0.206489 -0.079676 0.006274
0.209958 -0.079407 0.009979
0.215499 -0.018038 0.023730
0.191019 -0.019911 0.027463
0.173526 -0.014906 0.022231
0.199787 -0.016384 0.023650
0.220188 -0.017654 0.023938
0.211287 -0.010552 0.013216
0.230064 -0.013959 0.017839
0.188114 -0.015009 0.020581
0.162317 -0.012326 0.016531
0.201050 -0.016692 0.027199
0.186645 -0.012547 0.017402
0.155586 -0.014921 0.021528
0.182456 -0.013913 0.020868
0.208849 -0.012781 0.018850
0.170897 -0.011371 0.015661
0.169808 -0.016338 0.023281
0.206634 -0.016369 0.022767
0.192565 -0.012777 0.019988
0.205310 -0.019592 0.025496
0.194671 -0.017703 0.025280
0.200704 -0.013347 0.019300
0.185331 -0.012619 0.015773
0.213331 -0.015187 0.020895
0.221623 -0.014050 0.017451
0.184089 -0.017792 0.024708
0.226034 -0.017246 0.025268
0.195604 -0.014766 0.020958
0.195495 -0.010868 0.014364
0.163926 -0.016505 0.023294
0.203695 -0.012507 0.018602
0.177140 -0.013796 0.021575
0.181597 -0.013071 0.020116
0.086634 -0.025482 -0.034917
0.162233 -0.020537 -0.032304
0.124913 -0.010110 -0.026957
0.107031 -0.028054 -0.034728
0.197969 -0.011336 -0.029212
0.168115 -0.024479 -0.036278
0.186339 -0.005076 -0.022522
0.170454 -0.006742 -0.022251
0.136751 -0.009287 -0.028677
0.127514 -0.035738 -0.037059
0.201048 -0.010663 -0.026930
0.082401 -0.016429 -0.031313
0.144149 -0.031686 -0.038540
0.102047 -0.013405 -0.027781
0.188810 -0.009223 -0.025363
0.200681 -0.029313 -0.034938
0.158228 -0.016438 -0.029188
0.136941 -0.027332 -0.036792
0.183096 -0.024400 -0.030386
0.151666 -0.004443 -0.026630
0.093877 -0.008146 -0.026556
0.145897 -0.004885 -0.021845
0.218310 -0.013006 -0.027702
0.116215 -0.004472 -0.025591
0.174567 -0.032878 -0.036792
0.134066 -0.008623 -0.026164
0.148875 -0.017385 -0.032457
0.156860 -0.016341 -0.033046
0.172864 -0.010777 -0.028711
0.114043 -0.017243 -0.034064
0.182875 -0.015490 -0.029428
0.122683 -0.021875 -0.032298
0.233285 -0.042244 0.033895
0.216597 -0.043179 0.035080
0.206332 -0.029959 0.032421
0.225064 -0.041270 0.034127
0.237506 -0.045345 0.034031
0.227730 -0.026812 0.031972
0.241635 -0.028232 0.030724
0.217707 -0.027644 0.030929
0.199619 -0.025991 0.030483
0.222704 -0.045016 0.035758
0.211300 -0.035568 0.033697
0.196029 -0.036115 0.033591
0.210840 -0.042511 0.034936
0.223478 -0.028740 0.031825
0.205598 -0.033790 0.032941
0.201577 -0.042209 0.034620
0.229208 -0.035710 0.032771
0.214596 -0.030757 0.033391
0.224489 -0.039759 0.034455
0.219118 -0.037447 0.033249
0.217954 -0.033371 0.033107
0.213394 -0.025310 0.029645
0.231167 -0.030716 0.031514
0.236728 -0.037539 0.032100
0.216966 -0.038772 0.034497
0.238229 -0.034056 0.032805
0.225212 -0.031822 0.032225
0.221054 -0.029519 0.032815
0.200034 -0.033562 0.032510
0.225469 -0.025710 0.030521
0.208108 -0.038192 0.034934
0.211782 -0.028472 0.031698
0.242689 -0.073096 0.020196
0.226419 -0.069471 0.021781
0.217353 -0.068012 0.025058
0.233772 -0.072770 0.020224
0.249886 -0.072433 0.019588
0.239152 -0.071684 0.023366
0.256965 -0.067192 0.024781
0.227860 -0.064202 0.027375
0.211271 -0.067813 0.025949
0.232570 -0.076053 0.017307
0.224027 -0.073113 0.021544
0.204429 -0.071382 0.022742
0.222280 -0.076444 0.017499
0.234959 -0.067276 0.025254
0.216437 -0.073376 0.023076
0.212452 -0.075029 0.019434
0.239820 -0.069036 0.023347
0.225871 -0.070689 0.024363
0.235651 -0.066832 0.024718
0.229832 -0.068913 0.023578
0.228251 -0.070464 0.024584
0.221998 -0.062870 0.029849
0.242541 -0.065470 0.024969
0.247214 -0.071434 0.023632
0.226977 -0.069100 0.021925
0.247697 -0.064727 0.025901
0.232738 -0.069379 0.022833
0.230145 -0.075267 0.021629
0.212652 -0.068128 0.025182
0.234845 -0.064425 0.028468
0.220321 -0.072898 0.021888
0.222740 -0.067797 0.025140
0.201651 -0.075329 0.014246
0.243346 -0.065960 0.021687
0.223282 -0.077545 0.013962
0.213384 -0.075166 0.012636
0.274670 -0.067286 0.019093
0.258076 -0.078016 -0.000604
0.271362 -0.068569 0.027283
0.249590 -0.071303 0.027234
0.231698 -0.074425 0.017386
0.228804 -0.078349 0.005568
0.266370 -0.075955 0.016900
