-0.223397 -0.376416 0.213576
-0.202597 -0.383896 0.216085
-0.223329 -0.334033 0.214197
-0.220980 -0.312484 0.215498
-0.168938 -0.381815 0.212242
-0.213969 -0.283751 0.214444
-0.128160 -0.386564 0.211317
-0.205517 -0.247445 0.210334
-0.200185 -0.219219 0.208139
-0.093028 -0.379305 0.207225
-0.194960 -0.188055 0.207411
-0.066284 -0.379440 0.207357
-0.190374 -0.158419 0.214048
-0.040893 -0.387284 0.211750
-0.190084 -0.118982 0.214105
-0.185783 -0.139277 0.207161
-0.011361 -0.379242 0.205642
-0.180592 -0.078006 0.214385
-0.178427 -0.098236 0.206517
0.018732 -0.387466 0.209381
-0.169251 -0.048795 0.209177
-0.168494 -0.012273 0.216675
0.052941 -0.386862 0.208922
-0.100036 -0.261492 0.151423
0.085175 -0.388111 0.208475
-0.158878 0.017190 0.203747
-0.155210 -0.008925 0.186767
-0.140548 -0.059639 0.172713
0.113954 -0.382313 0.210564
-0.166046 -0.022491 0.159560
-0.157540 0.038677 0.191128
-0.116514 -0.008017 0.188897
-0.150495 0.064696 0.190127
-0.155880 0.044893 0.170589
-0.154180 0.034255 0.163841
-0.090473 -0.012354 0.188410
-0.116296 -0.017383 0.155273
-0.144495 0.106820 0.185356
-0.146479 0.080482 0.169106
-0.148640 0.153831 0.191653
-0.151544 0.046625 0.141770
-0.057988 -0.003239 0.188702
-0.111137 -0.156758 0.075467
-0.147895 0.069000 0.149531
-0.079364 -0.009744 0.158038
-0.120701 -0.018199 0.122713
-0.153080 0.039032 0.121527
-0.150362 0.190638 0.190294
-0.145382 0.096940 0.151340
-0.033854 -0.118313 0.133544
-0.027082 -0.008005 0.186585
-0.055419 -0.144854 0.102526
-0.144419 0.128192 0.157537
-0.157160 0.230126 0.191121
-0.146198 0.167143 0.169216
-0.150877 0.210654 0.184451
-0.124403 -0.018116 0.101637
-0.146930 0.073925 0.126425
-0.048266 -0.010316 0.157972
-0.142096 0.061376 0.118642
-0.144933 0.148747 0.152101
-0.170436 0.282714 0.191027
0.006138 -0.238282 0.085122
-0.145345 0.094493 0.122240
-0.156696 0.030322 0.084307
-0.187698 0.326136 0.191212
-0.143919 0.121903 0.133457
-0.195059 0.348076 0.192120
-0.205762 0.368564 0.191797
-0.148955 0.062636 0.100063
-0.173698 0.231065 0.153806
-0.151712 0.212951 0.161179
-0.050224 -0.010106 0.136924
0.011721 -0.007283 0.183381
-0.147306 0.173716 0.146166
-0.161459 0.264485 0.173067
-0.171525 0.301544 0.181242
0.238360 -0.348387 0.186181
0.065459 -0.181098 0.136345
-0.157682 0.246533 0.161853
-0.146156 0.082703 0.097405
-0.109102 0.133350 0.147673
-0.130967 -0.018294 0.061670
0.232520 -0.317688 0.188441
-0.144423 0.103571 0.103345
-0.144738 0.143612 0.117936
-0.182262 0.333382 0.170016
0.042669 -0.005143 0.186312
-0.175268 0.312437 0.164766
-0.156226 0.032190 0.053443
-0.190679 0.355837 0.170925
0.028662 -0.062790 0.148793
-0.072881 -0.031606 0.086580
-0.147208 0.072310 0.076317
-0.146665 0.171446 0.121082
-0.167248 0.284068 0.155029
-0.226995 -0.372219 -0.199463
-0.206904 0.374335 0.162056
-0.053354 -0.010870 0.105694
-0.150765 0.204882 0.128379
-0.135217 -0.019242 0.037001
-0.162363 0.264364 0.143745
-0.144506 0.125064 0.093650
0.235391 -0.278361 0.187998
-0.155507 0.234142 0.130316
-0.187459 0.345343 0.153535
-0.227791 -0.340398 -0.200095
-0.144939 0.154102 0.098031
0.235800 -0.257299 0.188526
-0.003814 0.005715 0.135119
-0.180167 0.325556 0.142480
-0.173487 0.305384 0.137300
-0.144645 0.101070 0.067735
0.232511 -0.237363 0.189759
-0.144186 0.122399 0.073382
-0.164066 0.272327 0.124202
-0.159145 0.252076 0.118500
-0.004013 0.065040 0.151356
-0.147599 0.182599 0.095859
-0.146564 0.081938 0.051279
-0.155967 0.032015 0.020821
-0.005564 -0.023800 0.108863
0.202885 -0.286464 0.139812
0.091348 -0.001223 0.187433
-0.140000 -0.019624 0.006089
-0.218433 0.378611 0.124656
0.232526 -0.217319 0.189188
-0.201080 -0.369319 -0.211782
-0.195775 0.363578 0.133463
-0.081859 0.018489 0.066157
0.013889 -0.006064 0.125121
-0.153701 0.224229 0.102257
-0.219424 -0.307720 -0.200136
0.073366 -0.004075 0.167069
-0.150619 0.204524 0.094173
-0.092880 -0.065216 0.013824
-0.144821 0.152861 0.072654
-0.169286 -0.378061 -0.202473
-0.173578 0.305474 0.113565
-0.220087 -0.288996 -0.200202
-0.149674 0.061504 0.021276
-0.183550 0.335274 0.116182
-0.160074 0.254906 0.097841
0.095111 -0.085448 0.133907
-0.146468 0.082787 0.029175
-0.059146 -0.010465 0.050902
0.012463 -0.005908 0.106158
0.238616 -0.186898 0.186189
0.122523 0.006265 0.190436
-0.153560 0.041987 0.000977
-0.179338 0.232117 0.066070
-0.152131 0.214027 0.077776
-0.144349 0.132544 0.046777
-0.147561 0.182429 0.065332
0.112850 -0.019609 0.166351
-0.167362 0.282399 0.093143
-0.193519 0.355620 0.105214
-0.154606 0.068403 0.005503
-0.033093 0.183932 0.148205
0.236369 -0.158715 0.188169
-0.143947 0.113569 0.031668
-0.158024 0.244668 0.078581
-0.212923 -0.257346 -0.199639
-0.131098 -0.047640 -0.036639
-0.222942 0.376126 0.082110
-0.173552 0.305547 0.088325
-0.145438 0.162952 0.046273
-0.155434 0.032727 -0.023607
-0.150485 0.203961 0.057813
0.052122 0.080801 0.153329
-0.079485 0.090585 0.058197
-0.188234 0.346366 0.089203
-0.162692 0.263991 0.070882
0.129131 -0.196855 0.075877
0.239046 -0.127132 0.187313
0.009529 -0.005421 0.074720
0.232783 -0.108140 0.189971
-0.148463 0.066924 -0.011532
0.187510 -0.184717 0.122467
-0.206346 -0.231469 -0.200172
-0.117476 0.129821 0.037609
0.157158 0.014062 0.186716
-0.150599 -0.020054 -0.059670
-0.064337 -0.010674 0.010116
-0.144302 0.144004 0.020173
0.126620 -0.001196 0.155750
0.071858 -0.002608 0.115555
-0.145172 0.097330 -0.002732
0.015473 -0.005936 0.070941
-0.108789 -0.377098 -0.202822
-0.225624 0.377069 0.058909
-0.167507 0.284147 0.062139
-0.184351 0.336234 0.071059
0.152204 -0.007712 0.165717
0.232432 -0.078856 0.190578
-0.148557 0.194424 0.032902
-0.155217 0.232277 0.044370
-0.160274 0.254754 0.046327
-0.193072 0.355854 0.065209
0.232411 -0.059002 0.190625
-0.143858 0.128767 -0.001687
0.125337 -0.030090 0.126663
-0.173131 0.303346 0.053049
0.227323 -0.115537 0.159175
0.071472 -0.002249 0.097268
-0.198438 -0.207043 -0.207770
0.195918 0.008028 0.190162
-0.154281 0.034902 -0.057643
-0.180723 0.325800 0.052721
-0.146747 0.179576 0.012724
-0.154624 -0.020792 -0.086240
-0.067037 -0.010546 -0.014028
-0.198199 -0.186030 -0.199837
0.127612 -0.000410 0.133511
-0.149484 0.058708 -0.046961
-0.079241 -0.382008 -0.206194
0.233663 -0.094839 0.164555
-0.158857 0.247313 0.025643
-0.164991 0.275557 0.032377
-0.145424 0.090229 -0.037142
-0.154244 0.227184 0.018354
-0.193585 0.355415 0.043682
-0.144200 0.120644 -0.024902
-0.145089 0.159865 -0.008015
0.061289 0.021106 0.083386
0.007523 -0.005455 0.031000
0.105933 -0.023470 0.094435
0.159131 -0.072682 0.109397
0.221349 -0.082749 0.148609
0.207899 -0.070189 0.144625
0.222705 0.013892 0.191187
-0.191687 -0.155417 -0.200698
0.175362 0.000329 0.149247
-0.146461 0.077049 -0.056310
-0.089363 -0.242521 -0.165359
-0.113869 -0.237254 -0.181702
-0.150706 0.206671 -0.001721
0.239270 -0.019473 0.181156
0.238693 -0.049457 0.166234
-0.146896 0.177687 -0.015368
-0.169680 0.290712 0.017210
-0.178193 0.318693 0.022874
-0.027321 -0.004496 -0.010224
-0.055780 -0.369607 -0.208379
0.072768 -0.002144 0.065073
-0.158958 0.247026 0.003417
0.226052 -0.097828 0.131322
-0.144821 0.149349 -0.030872
0.128874 -0.000335 0.104440
-0.160075 -0.020611 -0.122673
-0.047371 -0.190311 -0.116846
-0.143980 0.117960 -0.048282
-0.191331 -0.125744 -0.200808
-0.069860 -0.011272 -0.052789
0.010220 0.075073 0.046882
-0.151164 0.045185 -0.091945
-0.187180 0.341658 0.014765
0.215547 0.019565 0.166345
-0.165260 0.274675 -0.001874
-0.028600 -0.379097 -0.205612
0.202653 -0.120437 0.091781
-0.154068 0.227137 -0.015333
-0.144670 0.100387 -0.066669
0.236991 -0.000890 0.169369
0.070085 -0.096415 0.002920
0.152126 0.031148 0.121109
-0.163368 -0.003077 -0.133263
-0.148126 0.188055 -0.034223
-0.167002 0.237879 -0.027403
-0.144134 0.141304 -0.054289
-0.183337 -0.101185 -0.200798
-0.164295 -0.018330 -0.147061
-0.198770 0.367492 0.002511
-0.145859 0.078896 -0.087022
-0.159210 0.250203 -0.019830
0.223664 -0.088936 0.108827
-0.070735 -0.011361 -0.072624
-0.095623 0.001264 -0.085707
0.210320 -0.036312 0.122251
-0.005080 -0.378618 -0.205705
0.072314 -0.002107 0.032926
0.237479 -0.042900 0.134459
-0.174143 0.305667 -0.013913
0.238266 -0.009251 0.149198
-0.145768 0.168180 -0.055776
-0.150686 0.207231 -0.042726
0.212406 0.019967 0.137536
-0.154333 0.031851 -0.131569
-0.148457 0.061190 -0.113370
-0.186298 0.339543 -0.017823
-0.144023 0.106569 -0.091327
0.221239 -0.094489 0.087052
0.055246 -0.011351 0.004352
-0.073064 -0.011792 -0.093815
-0.176944 -0.063228 -0.201116
-0.155933 0.235161 -0.046628
0.238018 -0.050361 0.115735
-0.144419 0.147749 -0.077989
-0.165221 0.275383 -0.036487
-0.165283 0.132834 -0.103090
0.178304 0.088523 0.132487
0.005087 -0.005754 -0.040051
0.218503 -0.066520 0.088806
0.114847 -0.048089 0.020584
0.034553 -0.085450 -0.058638
-0.145411 0.085797 -0.117220
-0.152567 0.218407 -0.061129
0.230655 0.009045 0.127134
0.210826 0.020566 0.117237
-0.146361 0.170571 -0.080195
-0.164647 -0.014218 -0.180084
0.238187 -0.157306 0.055847
0.168203 -0.031319 0.062749
-0.172673 0.300639 -0.041780
-0.143733 0.134614 -0.096640
-0.025722 0.114975 -0.015560
-0.195310 0.359807 -0.036043
-0.178273 0.002757 -0.188080
0.237744 -0.010440 0.116346
-0.161731 0.260102 -0.057382
-0.110808 -0.077821 -0.174926
0.184858 -0.089161 0.040912
0.031814 -0.369727 -0.210062
-0.179710 0.321502 -0.047417
-0.171643 -0.024063 -0.201134
-0.075647 -0.013451 -0.122901
-0.186805 0.340281 -0.047108
0.050623 -0.380156 -0.206752
-0.148822 0.062752 -0.146194
-0.156410 0.239385 -0.070765
-0.144061 0.122692 -0.115259
0.138287 -0.096379 -0.004074
-0.072692 -0.065184 -0.148778
0.237677 -0.052032 0.087079
0.237643 -0.031156 0.096305
0.206862 0.021588 0.095418
-0.151114 0.212031 -0.084931
0.217711 -0.094639 0.047677
-0.154505 0.032686 -0.172864
-0.169674 0.290508 -0.070062
-0.144350 0.146229 -0.116017
0.230007 0.009686 0.098304
-0.144332 0.094301 -0.142649
-0.143956 0.114203 -0.134838
-0.148998 0.195008 -0.101419
-0.162527 0.263834 -0.082028
-0.047912 0.087864 -0.075940
-0.194589 0.360578 -0.065344
-0.146178 0.173726 -0.112049
0.079043 -0.376733 -0.205341
-0.185725 0.340027 -0.071817
-0.157426 0.242902 -0.096045
-0.179723 0.321798 -0.078019
-0.074146 -0.145252 -0.217584
0.237786 -0.054491 0.056934
0.238036 -0.032041 0.066529
-0.040259 -0.032720 -0.141881
-0.168092 0.284471 -0.093305
0.236231 -0.001897 0.075413
-0.147117 0.072658 -0.179834
-0.219551 0.376026 -0.098071
-0.144641 0.107362 -0.162930
-0.148991 0.193381 -0.126735
-0.145043 0.153111 -0.142479
0.215286 -0.089659 0.014552
-0.162582 0.264338 -0.106823
-0.173931 0.304947 -0.098332
0.062991 -0.229912 -0.168481
-0.143827 0.134968 -0.155698
-0.155947 0.235824 -0.120647
-0.187790 0.345899 -0.097955
0.238454 -0.010860 0.057259
0.216349 -0.055816 0.020671
-0.119182 0.077810 -0.168998
0.192008 -0.056438 0.002395
0.238106 -0.051255 0.036362
0.112461 -0.369226 -0.210111
-0.196889 0.367105 -0.099067
-0.129287 0.064043 -0.187164
0.215139 0.023900 0.051192
0.029472 -0.058850 -0.125713
0.101089 -0.024924 -0.056656
-0.009332 0.012752 -0.122473
-0.144803 0.102954 -0.185415
-0.119924 0.110308 -0.163498
-0.145574 0.155525 -0.163942
-0.178114 0.318789 -0.114726
-0.166410 0.279745 -0.123581
0.232668 0.006899 0.046614
0.215496 -0.084180 -0.007755
-0.036879 -0.026911 -0.169355
-0.159353 0.176238 -0.169068
0.238406 -0.022145 0.036764
0.137854 -0.078794 -0.063470
-0.147255 0.182215 -0.159006
0.145478 -0.378377 -0.205803
-0.159443 0.253575 -0.136698
-0.144403 0.127086 -0.184475
0.208843 -0.183410 -0.065042
-0.185408 0.339094 -0.121687
0.019704 0.044880 -0.102213
0.215646 -0.096500 -0.023714
0.238305 -0.051651 0.014251
-0.153254 0.225058 -0.151477
-0.126628 0.240220 -0.124553
0.032970 -0.112199 -0.169589
-0.214841 0.376861 -0.133647
0.116896 -0.205121 -0.152297
-0.150688 0.206647 -0.162242
0.218495 0.018493 0.026264
0.137828 -0.176106 -0.124818
0.242896 -0.072132 0.000569
0.169739 -0.376608 -0.204259
0.236781 -0.001886 0.024120
-0.147176 0.165914 -0.187130
-0.170167 0.294525 -0.146934
-0.160066 0.255419 -0.158176
-0.179503 0.322720 -0.142448
0.024395 -0.080782 -0.177305
-0.186948 0.343402 -0.143189
0.033244 -0.105738 -0.184490
0.121005 0.102431 -0.021093
0.238467 -0.022904 0.005229
-0.196773 0.366652 -0.143908
0.171440 0.005343 -0.031266
-0.150258 0.202524 -0.184034
0.096581 -0.069181 -0.123384
-0.165168 0.276079 -0.163100
-0.153482 0.223995 -0.179584
0.198544 -0.380801 -0.201490
0.217419 -0.095214 -0.056333
0.238217 -0.052779 -0.023889
0.186520 -0.087525 -0.078452
-0.027231 0.016091 -0.190687
-0.159008 0.248096 -0.185364
0.229598 0.010300 -0.006273
-0.176195 0.313040 -0.174066
0.132647 -0.107480 -0.135428
0.238810 -0.351069 -0.177388
0.005729 0.068280 -0.150210
-0.009048 0.073414 -0.159700
-0.170159 0.294476 -0.181757
0.078831 -0.051475 -0.157419
0.038717 0.031500 -0.149083
0.238598 -0.011245 -0.022954
0.217320 0.019574 -0.025094
-0.207316 0.383366 -0.179702
0.138851 -0.076133 -0.129490
-0.185871 0.340196 -0.183159
0.234322 -0.316663 -0.177174
0.230728 -0.369030 -0.206540
0.219521 -0.083999 -0.078030
-0.109059 0.244401 -0.171331
0.239862 -0.321104 -0.180794
0.238465 -0.050443 -0.053002
0.028191 0.075828 -0.152002
0.237137 -0.300802 -0.177405
0.143471 0.013788 -0.096642
0.049673 0.002449 -0.177679
0.238479 -0.027456 -0.052972
0.222595 -0.086941 -0.098859
0.208742 -0.109197 -0.120769
0.238805 -0.270382 -0.179935
0.251327 -0.074117 -0.075904
0.216869 0.019505 -0.061287
0.236206 -0.251184 -0.176342
0.231450 -0.230234 -0.176049
0.091738 -0.023320 -0.182718
0.238682 -0.011482 -0.070447
0.238811 -0.031843 -0.084538
0.238976 -0.051953 -0.096250
0.225507 -0.139762 -0.149016
0.238754 -0.211290 -0.179649
0.231583 -0.192597 -0.176477
0.216514 0.019444 -0.087917
0.193863 -0.083819 -0.156316
0.261349 -0.110867 -0.121107
0.228741 -0.091582 -0.136890
0.258644 -0.208139 -0.173002
0.236220 -0.017915 -0.104363
0.237679 -0.001985 -0.098359
0.215378 0.019643 -0.108032
0.140608 0.058326 -0.144548
0.086480 0.120558 -0.156794
0.239048 -0.161745 -0.179538
0.232093 -0.142366 -0.175949
0.239042 -0.020303 -0.116455
0.238786 -0.043773 -0.129606
0.176550 -0.004660 -0.156875
0.232368 -0.089909 -0.158603
0.185911 0.060954 -0.121693
0.165565 -0.012153 -0.173268
0.231846 -0.120138 -0.176622
0.171225 -0.042818 -0.184873
0.228916 -0.054802 -0.149915
0.208088 -0.026435 -0.158820
0.239240 -0.019262 -0.135752
0.226903 -0.037022 -0.153850
0.238938 -0.045937 -0.150247
0.229865 0.012131 -0.129031
0.251397 -0.118801 -0.179856
0.243214 -0.090919 -0.172333
0.235430 -0.091420 -0.178392
0.239129 -0.083292 -0.179935
0.223400 0.019246 -0.150646
0.238690 -0.004428 -0.151113
0.238256 -0.051829 -0.179951
0.210936 0.025445 -0.167593
0.238820 -0.020860 -0.178975
0.238118 0.035240 -0.154601
0.238363 -0.003064 -0.173352
0.197467 0.129893 -0.183082
