-0.008891 -0.006006 -0.217933
-0.012392 -0.008455 -0.111716
0.014953 -0.007124 -0.050159
0.018511 -0.006335 -0.137008
0.013202 -0.006593 0.031353
0.010177 -0.007550 -0.029397
0.028764 -0.006692 -0.154097
0.014334 -0.007121 -0.113293
0.017964 -0.006719 -0.000823
0.037037 -0.007819 -0.185161
-0.002935 -0.007579 0.001995
0.033076 -0.006774 0.005940
0.001576 -0.008549 -0.095703
0.012224 -0.007823 -0.237502
-0.014225 -0.008259 -0.035243
0.022965 -0.007212 -0.074875
-0.004495 -0.006304 -0.146740
0.003178 -0.007023 -0.130188
0.033344 0.002847 0.124696
0.121709 0.006515 0.164315
0.070229 -0.001170 0.038109
0.060920 0.004814 0.095840
0.171725 0.000648 0.124853
0.132411 0.004525 -0.009514
0.149299 0.001700 0.151775
0.121586 -0.001678 0.108084
0.088021 0.004136 0.083858
0.091562 0.004545 0.128355
0.147480 0.002075 0.065557
0.033741 0.000646 0.050332
0.087864 0.008189 0.059774
0.056161 0.003623 0.145798
0.153131 -0.000284 0.016726
0.167964 0.002170 0.046197
0.116602 0.002697 0.074453
0.089641 0.007000 0.015400
0.151162 0.005388 0.111111
0.106266 0.001157 0.139541
0.039214 -0.001172 0.083732
0.111139 -0.001566 0.046005
0.172757 0.002517 0.087488
0.071737 -0.002626 0.119281
0.133937 0.006645 0.089314
0.084738 0.002590 0.170505
0.100370 0.002926 0.103244
0.117091 0.001316 0.018941
0.128000 0.001016 0.129510
0.057724 0.004601 0.003289
0.130284 0.002390 0.042496
0.066776 0.002334 0.062626
0.025198 -0.123608 0.169132
0.144498 -0.119717 0.206257
0.093047 -0.104153 0.111327
0.074745 -0.127527 0.150569
0.193407 -0.116075 0.182945
0.162083 -0.118662 0.070092
0.191896 -0.097821 0.201045
0.167019 -0.100503 0.169424
0.117591 -0.102976 0.152487
0.097244 -0.143279 0.178687
0.178715 -0.097984 0.139808
0.025508 -0.121119 0.115823
0.112859 -0.137116 0.124417
0.066385 -0.106504 0.194788
0.183957 -0.104947 0.100211
0.181400 -0.125045 0.115327
0.149197 -0.113830 0.140045
0.106317 -0.118379 0.087648
0.180418 -0.107975 0.160372
0.139640 -0.100564 0.193856
0.049308 -0.105367 0.154881
0.147764 -0.094290 0.129876
0.207760 -0.101470 0.148705
0.101062 -0.105173 0.179125
0.154291 -0.129742 0.150377
0.113891 -0.101892 0.212012
0.123335 -0.116825 0.164066
0.143630 -0.107240 0.094784
0.155258 -0.109214 0.181752
0.072508 -0.114816 0.074639
0.159663 -0.113756 0.113784
0.092406 -0.112574 0.131574
0.221678 -0.084425 0.172786
0.218771 -0.086917 0.192437
0.222657 -0.079085 0.159892
0.219333 -0.085878 0.155173
0.218503 -0.088080 0.163554
0.227698 -0.074755 0.117686
0.230451 -0.070722 0.159949
0.228379 -0.071977 0.172252
0.219001 -0.074753 0.128660
0.216295 -0.090162 0.146425
0.223414 -0.084171 0.130109
0.204390 -0.085242 0.151385
0.218036 -0.089316 0.120207
0.225258 -0.078522 0.151889
0.217433 -0.085500 0.112555
0.212085 -0.091160 0.139346
0.223241 -0.082279 0.159931
0.226121 -0.076792 0.136654
0.222239 -0.078505 0.203259
0.222594 -0.080044 0.169079
0.224666 -0.081423 0.136561
0.231946 -0.064657 0.144217
0.224667 -0.076483 0.178944
0.226884 -0.079414 0.122437
0.220191 -0.083224 0.180932
0.227982 -0.074927 0.188864
0.222616 -0.080444 0.145943
0.223698 -0.079999 0.102387
0.216970 -0.080304 0.166409
0.228696 -0.070479 0.153051
0.221327 -0.084325 0.143586
0.226623 -0.076754 0.142404
0.099154 -0.100376 0.179127
0.196297 -0.092551 0.180828
0.177665 -0.062630 0.183883
0.144845 -0.102963 0.180028
0.218406 -0.081416 0.183185
0.218967 -0.095508 0.148305
0.227287 -0.048977 0.190542
0.226815 -0.052565 0.193742
0.185598 -0.071533 0.188200
0.163323 -0.121930 0.179996
0.226562 -0.062627 0.184793
0.079395 -0.087259 0.175778
0.188926 -0.113954 0.162986
0.141718 -0.071947 0.189962
0.221626 -0.049050 0.175507
0.204564 -0.105350 0.164062
0.207537 -0.083645 0.184506
0.175787 -0.099475 0.153793
0.214787 -0.090004 0.179301
0.205256 -0.059438 0.195072
0.121057 -0.055104 0.196184
0.206897 -0.036157 0.195182
0.230580 -0.076186 0.179925
0.176084 -0.065774 0.198196
0.202996 -0.105902 0.175706
0.184274 -0.070000 0.184477
0.182784 -0.089489 0.187221
0.211116 -0.068012 0.165162
0.204751 -0.074928 0.190504
0.162341 -0.082698 0.156515
0.208520 -0.079731 0.172241
0.165187 -0.092093 0.181329
0.234896 -0.017741 0.188342
0.211754 -0.025367 0.187641
0.181161 0.010307 0.186871
0.227744 -0.028698 0.186061
0.232083 -0.049977 0.187989
0.228896 0.010720 0.177900
0.239615 0.005058 0.181304
0.208679 0.008721 0.183195
0.148447 0.009937 0.182438
0.225200 -0.083546 0.189176
0.202534 0.001097 0.187329
0.132680 0.003712 0.188022
0.200986 -0.048163 0.186714
0.223786 0.009946 0.185203
0.181876 0.003911 0.183078
0.166594 -0.021715 0.189032
0.227384 0.001490 0.185759
0.206702 0.009447 0.186893
0.221558 -0.006977 0.188592
0.213695 0.001383 0.186711
0.213301 0.008993 0.187922
0.198150 0.011608 0.181919
0.225890 0.006623 0.182947
0.233277 0.001796 0.184087
0.209619 -0.006435 0.189596
0.230710 0.004697 0.185358
0.223975 0.006676 0.185920
0.220229 0.009632 0.173519
0.161528 0.005970 0.185876
0.220666 0.011739 0.184265
0.187646 -0.005887 0.190066
0.193427 0.009352 0.186706
-0.196502 -0.179295 -0.202640
-0.197798 -0.187264 -0.199177
-0.191627 -0.129011 -0.201535
-0.196874 -0.189169 -0.200487
-0.199987 -0.206164 -0.199859
-0.190792 -0.118474 -0.199584
-0.189734 -0.112112 -0.200728
-0.187929 -0.096952 -0.200259
-0.190325 -0.105417 -0.199532
-0.198740 -0.215057 -0.200328
-0.195510 -0.171249 -0.198933
-0.197737 -0.155943 -0.200263
-0.198363 -0.196186 -0.198939
-0.192500 -0.144228 -0.202105
-0.195075 -0.171174 -0.199984
-0.199439 -0.181741 -0.199482
-0.194427 -0.162694 -0.199877
-0.192170 -0.133326 -0.199616
-0.195505 -0.163634 -0.197098
-0.194001 -0.152435 -0.200759
-0.193763 -0.151890 -0.200376
-0.185078 -0.075143 -0.201270
-0.192199 -0.124512 -0.199268
-0.194603 -0.157258 -0.202370
-0.195806 -0.167034 -0.200915
-0.192502 -0.136950 -0.198489
-0.193119 -0.143337 -0.201256
-0.192393 -0.142932 -0.198585
-0.192978 -0.139519 -0.200951
-0.186594 -0.094097 -0.201121
-0.197421 -0.174872 -0.198517
-0.189931 -0.117927 -0.200808
0.194115 0.003708 0.123861
0.161047 0.002832 0.161788
0.145233 0.002296 0.088045
0.166149 0.002746 0.067512
0.201321 0.005017 0.094032
0.184423 0.003897 -0.088572
0.207299 0.003036 0.059977
0.152247 0.003009 0.120843
0.125936 0.002048 -0.053271
0.175814 0.004916 0.039564
0.171021 0.004319 -0.046107
0.122273 0.001039 0.057436
0.152361 0.003541 -0.076664
0.204273 0.004570 0.019982
0.136019 0.005372 -0.109230
0.132955 0.003213 0.021243
0.177015 0.003379 0.090984
0.181017 0.004751 -0.007746
0.173320 0.004143 0.175803
0.168984 0.003834 0.111640
0.198481 0.005050 -0.031094
0.171722 0.002294 0.019965
0.177475 0.003371 0.144056
0.204732 0.003516 -0.067029
0.145138 0.003288 0.148256
0.200478 0.003647 0.148710
0.153121 0.002812 0.040139
0.169777 0.003046 -0.131562
0.128617 0.002735 0.104078
0.190435 0.003305 0.061430
0.144537 0.003055 -0.024282
0.155697 0.004040 -0.000093
-0.147702 0.059561 -0.041860
-0.147786 0.056900 -0.031423
-0.146896 0.081537 -0.049917
-0.147913 0.057319 -0.050322
-0.148153 0.048498 -0.043568
-0.146181 0.084570 -0.068966
-0.145593 0.088347 -0.046812
-0.145787 0.092842 -0.040103
-0.146432 0.089694 -0.063575
-0.147920 0.047766 -0.055273
-0.147431 0.064793 -0.063255
-0.147610 0.069779 -0.053279
-0.147747 0.053817 -0.067227
-0.146320 0.074968 -0.049750
-0.147230 0.063870 -0.071135
-0.148273 0.056786 -0.060072
-0.146502 0.066538 -0.046751
-0.146945 0.080474 -0.062637
-0.146767 0.070511 -0.026041
-0.147974 0.072833 -0.041078
-0.145851 0.071734 -0.059981
-0.145336 0.096914 -0.057238
-0.148081 0.082811 -0.036570
-0.147124 0.072073 -0.068199
-0.147475 0.067722 -0.036253
-0.146071 0.079302 -0.030971
-0.146978 0.077791 -0.056625
-0.147005 0.075198 -0.073170
-0.147297 0.079504 -0.044515
-0.145714 0.091045 -0.052112
-0.147065 0.062340 -0.054583
-0.146522 0.085341 -0.058386
-0.229762 -0.356034 -0.211584
-0.217607 -0.362307 -0.209092
-0.214370 -0.221201 -0.213723
-0.224279 -0.365054 -0.225085
-0.233675 -0.338755 -0.221470
-0.217336 -0.325469 -0.218730
-0.232161 -0.213299 -0.209875
-0.216664 -0.191215 -0.215697
-0.215494 -0.258700 -0.211203
-0.217919 -0.404223 -0.205668
-0.215535 -0.268201 -0.211774
-0.239458 -0.267603 -0.217128
-0.215563 -0.377515 -0.227478
-0.221933 -0.296668 -0.224892
-0.206396 -0.207895 -0.214254
-0.212694 -0.353847 -0.212475
-0.218880 -0.311767 -0.211550
-0.224048 -0.341966 -0.214491
-0.219916 -0.348042 -0.208029
-0.223940 -0.268786 -0.206208
-0.229684 -0.221029 -0.222866
-0.220171 -0.138196 -0.214364
-0.207418 -0.280566 -0.210208
-0.231975 -0.237003 -0.222514
-0.216542 -0.377441 -0.223617
-0.217561 -0.301404 -0.211338
-0.217542 -0.326089 -0.222274
-0.214127 -0.244932 -0.217409
-0.220352 -0.282100 -0.216094
-0.219363 -0.268634 -0.210409
-0.224375 -0.297273 -0.216103
-0.221261 -0.313020 -0.211818
-0.221560 -0.252254 -0.211288
-0.221594 -0.254499 -0.217947
-0.205535 -0.134235 -0.207772
-0.219252 -0.254088 -0.216633
-0.234323 -0.223576 -0.219319
-0.223215 -0.203660 -0.196938
-0.215057 -0.125001 -0.207866
-0.205051 -0.116291 -0.208927
-0.205216 -0.156910 -0.208426
-0.223252 -0.319885 -0.215080
-0.214507 -0.162713 -0.210073
-0.218119 -0.174325 -0.212373
-0.223045 -0.274466 -0.218478
-0.212904 -0.189703 -0.216442
-0.204046 -0.129388 -0.207344
-0.226712 -0.230724 -0.208624
-0.218501 -0.193122 -0.208401
-0.219179 -0.225767 -0.211513
-0.228609 -0.229483 -0.209122
-0.211392 -0.163272 -0.210287
-0.216880 -0.145853 -0.215106
-0.195492 -0.088071 -0.210491
-0.222298 -0.170661 -0.207653
-0.210754 -0.142405 -0.216507
-0.231241 -0.261146 -0.216325
-0.213207 -0.185055 -0.217805
-0.212265 -0.213610 -0.214615
-0.207662 -0.140207 -0.207884
-0.214897 -0.175943 -0.209584
-0.214954 -0.162910 -0.208831
-0.220211 -0.180465 -0.211045
-0.211961 -0.203190 -0.211563
-0.151063 0.196927 0.006708
-0.150049 0.195997 0.014573
-0.153323 0.216615 -0.001455
-0.150300 0.195698 -0.001749
-0.149330 0.189730 0.005222
-0.153020 0.218349 -0.019765
-0.153486 0.221352 0.001740
-0.154434 0.226007 0.008596
-0.154341 0.224452 -0.015305
-0.149269 0.189320 -0.005512
-0.151344 0.202133 -0.013376
-0.150510 0.206598 -0.004011
-0.150158 0.193765 -0.017897
-0.151207 0.209396 -0.000644
-0.151310 0.202508 -0.021533
-0.150287 0.195105 -0.010966
-0.150534 0.202341 0.002127
-0.152724 0.214984 -0.012959
-0.151819 0.206679 0.019901
-0.152211 0.208211 0.006273
-0.150931 0.207511 -0.010056
-0.154402 0.229378 -0.008086
-0.154357 0.216658 0.009775
-0.152028 0.208519 -0.018629
-0.151031 0.204450 0.011055
-0.152386 0.212978 0.015392
-0.152252 0.212875 -0.006650
-0.152321 0.211653 -0.024321
-0.153273 0.214414 0.003681
-0.153525 0.223881 -0.002903
-0.150255 0.199477 -0.005349
-0.153080 0.218473 -0.009504
0.237246 -0.037323 0.181300
0.236831 -0.039778 0.185705
0.237902 -0.006729 0.179412
0.238631 -0.039965 0.178589
0.236751 -0.048840 0.183203
0.237897 -0.001790 0.166052
0.236910 0.000940 0.178455
0.236067 0.007164 0.183299
0.237580 0.004862 0.169536
0.237948 -0.053772 0.177432
0.238875 -0.028565 0.172640
0.239281 -0.020939 0.179086
0.238910 -0.044923 0.169025
0.238233 -0.016590 0.180375
0.239138 -0.027095 0.165660
0.238901 -0.038087 0.174092
0.238148 -0.027244 0.180856
0.238803 -0.008148 0.171775
0.235423 -0.023286 0.186681
0.236809 -0.019883 0.183384
0.239547 -0.017366 0.175003
0.236800 0.014494 0.174493
0.235235 -0.004837 0.183892
0.237720 -0.018984 0.168150
0.237100 -0.028371 0.185127
0.235758 -0.011129 0.186165
0.238287 -0.013373 0.176326
0.238265 -0.012151 0.162142
0.236937 -0.011103 0.182307
0.238048 0.005768 0.177227
0.238913 -0.031412 0.178973
0.238176 -0.003409 0.175282
0.237121 -0.057218 0.180150
0.236511 -0.058793 0.188625
0.239341 -0.037691 0.173861
0.236869 -0.058022 0.173188
0.235471 -0.064243 0.178646
0.240080 -0.034416 0.156020
0.239402 -0.031117 0.175470
0.240713 -0.025878 0.182245
0.240618 -0.028564 0.160246
0.235727 -0.065315 0.169554
0.238106 -0.052871 0.161507
0.238472 -0.049380 0.171669
0.236656 -0.060642 0.157685
0.239519 -0.044059 0.173227
0.238379 -0.053205 0.154281
0.236494 -0.059754 0.164287
0.238145 -0.051355 0.176262
0.239385 -0.038534 0.163195
0.237442 -0.047570 0.192846
0.237388 -0.046015 0.180850
0.239266 -0.046715 0.164998
0.241356 -0.020937 0.166964
0.237986 -0.036127 0.183977
0.239228 -0.045363 0.156978
0.237402 -0.050584 0.184866
0.238781 -0.039308 0.188650
0.238669 -0.041883 0.167828
0.239130 -0.042219 0.151416
0.239028 -0.040655 0.177803
0.241088 -0.027887 0.171833
0.238114 -0.054112 0.170104
0.240192 -0.034392 0.166379
-0.147467 0.166904 -0.006131
-0.146695 0.165721 0.001796
-0.149243 0.186612 -0.013974
-0.146854 0.165732 -0.014146
-0.146201 0.159549 -0.007470
-0.148943 0.188646 -0.031140
-0.149381 0.191647 -0.010843
-0.150033 0.196386 -0.004236
-0.149987 0.194595 -0.026867
-0.146003 0.159208 -0.017871
-0.147665 0.171949 -0.025354
-0.146866 0.176428 -0.016380
-0.146733 0.163854 -0.029402
-0.147415 0.179486 -0.013138
-0.147601 0.172194 -0.032799
-0.146937 0.165106 -0.022896
-0.146835 0.172359 -0.010525
-0.148702 0.185160 -0.024932
-0.148042 0.176594 0.006971
-0.148456 0.178192 -0.006281
-0.147059 0.177282 -0.022235
-0.149966 0.199923 -0.020308
-0.150392 0.186929 -0.002856
-0.148219 0.178524 -0.030301
-0.147384 0.174357 -0.001793
-0.148487 0.183241 0.002563
-0.148260 0.182940 -0.019115
-0.148419 0.181554 -0.035163
-0.149270 0.184412 -0.008940
-0.149183 0.194329 -0.015419
-0.146751 0.169413 -0.017565
-0.148969 0.188839 -0.021653
-0.167573 0.280270 0.022417
-0.166057 0.278896 0.031626
-0.171410 0.300928 0.012709
-0.166172 0.278303 0.011991
-0.164457 0.271281 0.020099
-0.171099 0.303232 -0.013418
-0.171416 0.305881 0.015419
-0.172994 0.310864 0.023911
-0.173038 0.309416 -0.007296
-0.165021 0.271040 0.006648
-0.168138 0.285907 -0.003514
-0.167709 0.291432 0.009250
-0.166061 0.275996 -0.010137
-0.168570 0.293258 0.012959
-0.167969 0.286386 -0.015697
-0.166087 0.278292 0.000083
-0.167502 0.285856 0.016709
-0.170843 0.299886 -0.002870
-0.168825 0.290760 0.036772
-0.169644 0.291922 0.021362
-0.168289 0.291993 0.000842
-0.173488 0.314378 0.003276
-0.172022 0.300785 0.025560
-0.169270 0.292137 -0.011053
-0.167931 0.287998 0.027700
-0.169876 0.296754 0.032022
-0.170083 0.297249 0.006116
-0.169887 0.296699 -0.021368
-0.170816 0.298766 0.018687
-0.172378 0.308601 0.010540
-0.166545 0.283294 0.007364
-0.171272 0.302754 0.001879
-0.175678 0.309045 0.030483
-0.173927 0.307956 0.041295
-0.179808 0.330094 0.018574
-0.173807 0.307331 0.017620
-0.172095 0.300272 0.026827
-0.179189 0.332694 -0.012428
-0.180022 0.335675 0.021569
-0.181577 0.340882 0.031623
-0.181689 0.339527 -0.005340
-0.172588 0.301086 0.010988
-0.175885 0.314545 -0.000768
-0.175418 0.320064 0.014512
-0.173775 0.305404 -0.007853
-0.176760 0.321855 0.018335
-0.175649 0.315316 -0.015156
-0.173372 0.307002 0.003816
-0.175252 0.314374 0.023237
-0.179355 0.329387 0.000043
-0.177059 0.320016 0.047048
-0.178025 0.320469 0.028487
-0.176534 0.320686 0.004156
-0.182211 0.344431 0.007113
-0.180306 0.329962 0.033924
-0.177579 0.321251 -0.010020
-0.175956 0.317034 0.036653
-0.178365 0.325858 0.041066
-0.178391 0.326360 0.010435
-0.178101 0.326142 -0.021816
-0.178958 0.327800 0.025614
-0.181180 0.338427 0.015775
-0.174271 0.311964 0.012089
-0.179966 0.332083 0.005405
-0.121206 -0.020550 0.048693
-0.032267 -0.016506 0.110864
-0.080228 -0.017821 -0.045889
-0.090951 -0.021224 0.014529
0.020761 -0.021109 0.060084
-0.019539 -0.018421 -0.090670
0.000429 -0.016483 0.093613
-0.022911 -0.019381 0.028883
-0.057204 -0.015081 0.009401
-0.064894 -0.035221 0.061140
-0.000641 -0.013416 -0.011785
-0.120507 -0.023497 -0.033220
-0.062859 -0.033579 -0.021600
-0.096046 -0.018811 0.084058
0.006215 -0.017302 -0.064724
0.014031 -0.021042 -0.033712
-0.031622 -0.017473 -0.006873
-0.063475 -0.017536 -0.066615
0.002600 -0.012544 0.034669
-0.045746 -0.016767 0.079440
-0.112002 -0.020546 0.005900
-0.037140 -0.015108 -0.032768
0.027188 -0.013832 0.009863
-0.076415 -0.019173 0.047698
-0.019562 -0.026956 0.012476
-0.066341 -0.015035 0.124062
-0.052723 -0.018950 0.030953
-0.034179 -0.018458 -0.060289
-0.024520 -0.018207 0.059944
-0.093633 -0.016572 -0.084514
-0.018742 -0.016755 -0.038604
-0.082241 -0.017310 -0.016903
-0.019701 -0.378341 -0.207840
-0.061120 -0.376443 -0.203112
-0.095207 -0.373054 -0.204429
-0.043605 -0.375860 -0.207946
0.002095 -0.379085 -0.210093
-0.021621 -0.375659 -0.210488
0.020868 -0.374910 -0.209363
-0.061587 -0.374727 -0.205970
-0.119451 -0.375896 -0.206900
-0.041878 -0.377642 -0.209088
-0.068720 -0.375471 -0.210002
-0.140441 -0.376388 -0.207046
-0.078662 -0.379312 -0.209082
-0.034750 -0.373195 -0.207842
-0.098813 -0.377121 -0.209134
-0.107014 -0.379568 -0.206012
-0.026144 -0.374875 -0.204587
-0.062317 -0.374576 -0.205833
-0.031226 -0.374221 -0.200328
-0.048759 -0.375261 -0.204221
-0.054137 -0.375046 -0.206486
-0.071798 -0.375970 -0.205017
-0.012474 -0.372868 -0.204627
-0.008002 -0.376410 -0.209471
-0.071791 -0.374531 -0.204606
0.005425 -0.374008 -0.203317
-0.048282 -0.372732 -0.206798
-0.051026 -0.377120 -0.211231
-0.111293 -0.374711 -0.203417
-0.036686 -0.374012 -0.203234
-0.088265 -0.375935 -0.204894
-0.082133 -0.373924 -0.204661
0.093597 -0.002239 0.006686
0.071073 -0.002904 0.040276
0.058806 -0.003523 -0.025184
0.075426 -0.001646 -0.045528
0.101718 -0.002627 -0.019174
0.088963 -0.001632 -0.173831
0.108096 -0.002244 -0.043966
0.064339 -0.002022 0.003584
0.046828 -0.003194 -0.149751
0.081229 -0.004172 -0.068850
0.077186 -0.001961 -0.143538
0.042303 -0.004058 -0.055050
0.066826 -0.001923 -0.168748
0.101439 -0.001800 -0.088340
0.054682 -0.001547 -0.190058
0.052643 -0.003297 -0.086716
0.081818 -0.002285 -0.025117
0.083957 -0.001589 -0.113127
0.079233 -0.001927 0.057360
0.076258 -0.002714 -0.004033
0.096237 -0.001941 -0.131688
0.079014 -0.002351 -0.089124
0.085943 -0.002318 0.024944
0.106099 -0.003127 -0.160026
0.061565 -0.002517 0.027641
0.101609 -0.001748 0.030455
0.066785 -0.003488 -0.071594
0.077657 -0.002631 -0.206578
0.048437 -0.003516 -0.009820
0.090241 -0.002655 -0.050385
0.060380 -0.001648 -0.124272
0.067090 -0.001953 -0.106614
-0.157625 0.237013 0.014364
-0.156643 0.235734 0.022883
-0.160631 0.256781 0.005861
-0.156813 0.235384 0.005505
-0.155570 0.228870 0.012746
-0.160263 0.258924 -0.013813
-0.160568 0.261810 0.008856
-0.161702 0.266756 0.016152
-0.161731 0.264900 -0.009159
-0.155570 0.228479 0.001219
-0.158312 0.242242 -0.006904
-0.157395 0.247103 0.003052
-0.156662 0.233072 -0.011308
-0.158252 0.249502 0.006399
-0.158199 0.242585 -0.015880
-0.156908 0.235159 -0.004257
-0.157394 0.242527 0.009268
-0.160018 0.255589 -0.006540
-0.158634 0.247037 0.028166
-0.159324 0.248381 0.013594
-0.157815 0.247928 -0.003459
-0.161706 0.269971 -0.001270
-0.161514 0.257068 0.017597
-0.158984 0.248501 -0.012589
-0.158032 0.244585 0.019049
-0.159279 0.253439 0.023334
-0.159469 0.253343 0.000273
-0.159335 0.252227 -0.018955
-0.160293 0.254885 0.011180
-0.160878 0.264295 0.004141
-0.157035 0.239501 0.001745
-0.160413 0.258784 -0.002822
0.226401 -0.094103 0.149084
0.225437 -0.095273 0.164609
0.226093 -0.092732 0.138809
0.225451 -0.094715 0.134700
0.225480 -0.093801 0.142763
0.229246 -0.089934 0.104653
0.231263 -0.088167 0.137263
0.229766 -0.088885 0.148498
0.222027 -0.090071 0.112417
0.223120 -0.094035 0.128670
0.226814 -0.094687 0.115210
0.213379 -0.095353 0.132492
0.224246 -0.094429 0.107048
0.229118 -0.092507 0.130864
0.223245 -0.094997 0.100261
0.219625 -0.096884 0.123755
0.226985 -0.094419 0.138905
0.228924 -0.091452 0.121057
0.225882 -0.092096 0.175281
0.227084 -0.092429 0.144631
0.227952 -0.093723 0.120357
0.231884 -0.083845 0.127049
0.227175 -0.091886 0.153235
0.229523 -0.091851 0.109015
0.225716 -0.093878 0.155471
0.229500 -0.090075 0.161830
0.227238 -0.093557 0.128600
0.226867 -0.092296 0.089117
0.222136 -0.093713 0.143158
0.230028 -0.088318 0.134042
0.226635 -0.094094 0.125662
0.229150 -0.092029 0.124904
-0.145429 0.138334 -0.023220
-0.144763 0.137263 -0.015490
-0.146851 0.157668 -0.030826
-0.144799 0.137260 -0.031010
-0.144388 0.131255 -0.024481
-0.146679 0.159913 -0.047890
-0.147047 0.162739 -0.027720
-0.147563 0.167105 -0.021370
-0.147580 0.165552 -0.043668
-0.144135 0.131461 -0.034555
-0.145402 0.143261 -0.042080
-0.144839 0.147607 -0.033145
-0.144633 0.135529 -0.045969
-0.145389 0.150633 -0.029873
-0.145344 0.143443 -0.049485
-0.144822 0.136490 -0.039484
-0.144603 0.143659 -0.027444
-0.146492 0.156248 -0.041828
-0.145927 0.148014 -0.010726
-0.146424 0.149394 -0.023234
-0.144912 0.148443 -0.038904
-0.147570 0.170801 -0.037127
-0.148162 0.158064 -0.020103
-0.146163 0.149750 -0.047013
-0.145362 0.145552 -0.019157
-0.146237 0.154475 -0.014641
-0.146047 0.153938 -0.036019
-0.146347 0.152818 -0.051788
-0.146981 0.155458 -0.025878
-0.146880 0.165289 -0.032252
-0.144550 0.140841 -0.034374
-0.146694 0.159889 -0.038505
0.171711 0.002070 0.055543
0.136520 0.001368 0.097960
0.119764 0.000969 0.024058
0.142667 0.001955 0.003086
0.179301 0.002101 0.026214
0.162651 0.002553 -0.143073
0.191093 0.001981 -0.002303
0.127132 0.002536 0.054265
0.107272 0.001430 -0.112040
0.151034 0.001850 -0.023764
0.144568 0.002773 -0.105940
0.104279 0.000215 -0.007414
0.132522 0.002153 -0.134530
0.180508 0.002955 -0.045693
0.116065 0.004393 -0.161365
0.116057 0.001012 -0.040860
0.152506 0.002689 0.025278
0.152803 0.002468 -0.070978
0.146619 0.001353 0.112748
0.142206 0.002190 0.048716
0.171286 0.002899 -0.092787
0.143279 0.002052 -0.045006
0.158409 0.000975 0.077863
0.187913 0.001000 -0.125305
0.123670 0.000883 0.081997
0.180771 0.002750 0.084953
0.130458 0.001562 -0.025345
0.145980 0.002329 -0.181693
0.107445 0.001273 0.039690
0.163003 0.001540 -0.004221
0.124380 0.003015 -0.084663
0.130232 0.003013 -0.064515
-0.155717 -0.026543 -0.098006
-0.157900 -0.028804 -0.070599
-0.164032 -0.019389 -0.114495
-0.156504 -0.028988 -0.123335
-0.154133 -0.040492 -0.109345
-0.158632 -0.018392 -0.169899
-0.148682 -0.019159 -0.118341
-0.160744 -0.015496 -0.101425
-0.175060 -0.017519 -0.157670
-0.155575 -0.056300 -0.133128
-0.157094 -0.022533 -0.153110
-0.188378 -0.019388 -0.124391
-0.158304 -0.039620 -0.163842
-0.156519 -0.020798 -0.130282
-0.164014 -0.020972 -0.179555
-0.167788 -0.028130 -0.137866
-0.158584 -0.021678 -0.113712
-0.159702 -0.017837 -0.146158
-0.160775 -0.018956 -0.050321
-0.159765 -0.019381 -0.105349
-0.155082 -0.022269 -0.144552
-0.158973 -0.010983 -0.133078
-0.160303 -0.018934 -0.089672
-0.154518 -0.022276 -0.164724
-0.162276 -0.020274 -0.084315
-0.155164 -0.019124 -0.076457
-0.160927 -0.019236 -0.126862
-0.158821 -0.018957 -0.192582
-0.173820 -0.018416 -0.103804
-0.159420 -0.016186 -0.123529
-0.160158 -0.022842 -0.136861
-0.160140 -0.019414 -0.136904
-0.183864 -0.045225 0.031126
-0.091793 -0.043627 0.122965
-0.170220 -0.019043 -0.107181
-0.164965 -0.044224 -0.039721
-0.001997 -0.060746 0.040817
-0.090001 -0.049877 -0.161001
-0.039446 -0.026303 0.085710
-0.098282 -0.024757 -0.001811
-0.130005 -0.020338 -0.056140
-0.137914 -0.058883 0.036136
-0.054199 -0.028692 -0.074370
-0.188476 -0.042920 -0.094008
-0.115203 -0.054038 -0.098249
-0.169923 -0.036267 0.062711
-0.049793 -0.030995 -0.150033
-0.014691 -0.046905 -0.105829
-0.096570 -0.041003 -0.059856
-0.149846 -0.043643 -0.135135
-0.050099 -0.037737 0.018942
-0.131051 -0.029600 0.082578
-0.186202 -0.022245 -0.059086
-0.123557 -0.018620 -0.103474
0.001441 -0.040850 -0.019888
-0.151092 -0.026804 -0.000766
-0.077699 -0.055682 -0.017651
-0.133790 -0.039540 0.153900
-0.129240 -0.040648 -0.012909
-0.119873 -0.032354 -0.128346
-0.091388 -0.041806 0.038625
-0.178478 -0.034701 -0.149998
-0.072074 -0.044579 -0.114303
-0.153726 -0.033537 -0.078742
-0.144830 0.104596 -0.037489
-0.144607 0.102893 -0.028753
-0.145291 0.124919 -0.045068
-0.144711 0.103330 -0.045130
-0.144511 0.096334 -0.038883
-0.144934 0.127673 -0.062047
-0.144828 0.130751 -0.041960
-0.145141 0.135412 -0.035566
-0.145344 0.133035 -0.057514
-0.144339 0.096178 -0.049153
-0.144832 0.109531 -0.056718
-0.144226 0.114133 -0.047590
-0.144558 0.101054 -0.060343
-0.144123 0.118133 -0.044377
-0.144619 0.109292 -0.063759
-0.144863 0.102520 -0.053893
-0.143983 0.110577 -0.041777
-0.145012 0.123783 -0.056211
-0.144678 0.114583 -0.023737
-0.145459 0.116474 -0.036998
-0.143713 0.115193 -0.053658
-0.144934 0.139257 -0.051401
-0.146421 0.125856 -0.033472
-0.144864 0.116445 -0.061347
-0.144696 0.112178 -0.032782
-0.144565 0.122184 -0.028152
-0.144789 0.121322 -0.050645
-0.145063 0.119513 -0.065749
-0.145445 0.122767 -0.040106
-0.144610 0.133540 -0.046650
-0.144261 0.107216 -0.048750
-0.144913 0.128042 -0.052720
-0.194788 -0.145799 -0.202104
-0.196119 -0.154277 -0.196276
-0.191628 -0.086915 -0.201819
-0.195413 -0.155117 -0.200832
-0.196956 -0.171636 -0.198478
-0.189859 -0.075828 -0.198075
-0.189086 -0.065448 -0.200004
-0.189165 -0.045663 -0.197758
-0.189806 -0.056560 -0.199924
-0.197662 -0.179973 -0.200451
-0.193674 -0.138009 -0.199359
-0.194830 -0.120641 -0.200240
-0.196866 -0.160377 -0.198526
-0.192142 -0.106195 -0.201836
-0.192921 -0.135737 -0.199562
-0.197200 -0.146824 -0.199724
-0.193008 -0.128661 -0.200013
-0.191790 -0.091993 -0.199457
-0.194269 -0.129643 -0.192915
-0.192812 -0.116672 -0.199386
-0.192893 -0.115976 -0.200893
-0.185913 -0.016777 -0.201285
-0.191756 -0.081850 -0.197667
-0.192250 -0.120991 -0.201745
-0.194918 -0.133732 -0.200192
-0.191594 -0.097320 -0.193873
-0.192383 -0.106016 -0.201972
-0.190820 -0.104420 -0.196965
-0.192324 -0.100425 -0.200609
-0.185756 -0.039408 -0.201041
-0.196028 -0.141199 -0.199292
-0.189437 -0.071257 -0.201099
-0.049168 -0.011594 -0.056388
-0.069115 -0.012669 -0.033416
-0.077148 -0.013594 -0.071908
-0.066420 -0.012494 -0.081593
-0.044148 -0.010832 -0.074541
-0.052515 -0.011714 -0.163230
-0.034059 -0.011556 -0.091608
-0.070758 -0.013229 -0.056649
-0.085624 -0.014108 -0.143224
-0.062710 -0.009816 -0.097223
-0.063951 -0.011501 -0.139860
-0.090637 -0.013492 -0.086832
-0.071485 -0.013074 -0.156462
-0.043408 -0.010897 -0.108148
-0.080315 -0.011671 -0.172723
-0.083732 -0.013530 -0.105803
-0.059268 -0.011372 -0.071698
-0.056497 -0.011723 -0.119520
-0.062150 -0.011474 -0.023422
-0.064954 -0.011706 -0.061194
-0.048572 -0.011194 -0.134304
-0.061011 -0.012656 -0.106499
-0.058263 -0.011657 -0.044102
-0.039515 -0.012299 -0.152530
-0.076335 -0.013028 -0.041899
-0.041000 -0.011965 -0.041771
-0.071571 -0.012630 -0.096355
-0.062225 -0.012399 -0.185039
-0.085690 -0.013093 -0.064927
-0.052358 -0.011767 -0.084887
-0.076055 -0.012059 -0.128073
-0.070056 -0.011662 -0.116805
-0.089028 -0.018057 0.100784
-0.000240 -0.014094 0.166655
-0.050082 -0.022333 0.000916
-0.053238 -0.018324 0.073247
0.059301 -0.023428 0.112054
0.013350 -0.018270 -0.050627
0.034243 -0.019245 0.135743
0.000219 -0.023599 0.086853
-0.027465 -0.015662 0.061974
-0.026983 -0.028006 0.109193
0.029986 -0.017740 0.036692
-0.080885 -0.019632 0.020785
-0.033374 -0.030390 0.017457
-0.059417 -0.017071 0.127674
0.037273 -0.025070 -0.017517
0.058002 -0.021109 0.014904
-0.004285 -0.016306 0.047812
-0.029059 -0.017582 -0.023373
0.034881 -0.012249 0.090381
-0.014761 -0.022116 0.127225
-0.080595 -0.024133 0.058368
-0.013946 -0.021449 0.015585
0.063083 -0.020652 0.064039
-0.045386 -0.017801 0.100454
0.017282 -0.022274 0.064148
-0.032900 -0.016378 0.160343
-0.018602 -0.014568 0.081658
-0.001070 -0.022954 -0.009700
0.009622 -0.018047 0.110976
-0.063123 -0.018548 -0.039140
0.012331 -0.018517 0.014124
-0.047060 -0.015929 0.035117
-0.152888 0.019783 -0.072806
-0.153227 0.016233 -0.058312
-0.151485 0.045110 -0.083322
-0.153114 0.016967 -0.085037
-0.154130 0.005202 -0.075157
-0.150415 0.047588 -0.109125
-0.149517 0.053210 -0.079678
-0.149480 0.057328 -0.071971
-0.151194 0.053911 -0.102566
-0.153246 0.003480 -0.091753
-0.151886 0.025617 -0.101907
-0.155981 0.030507 -0.088543
-0.153125 0.011057 -0.108025
-0.151106 0.037980 -0.084177
-0.152535 0.024915 -0.113157
-0.154154 0.016639 -0.097805
-0.151060 0.028263 -0.079769
-0.151926 0.043794 -0.100274
-0.151080 0.032538 -0.051740
-0.152747 0.034967 -0.072410
-0.150416 0.035564 -0.097009
-0.149053 0.062355 -0.093591
-0.152297 0.046219 -0.065663
-0.152296 0.033779 -0.108197
-0.153113 0.029109 -0.065374
-0.150470 0.042796 -0.058376
-0.152152 0.040017 -0.092105
-0.151669 0.037540 -0.117502
-0.152216 0.042908 -0.076195
-0.149771 0.055625 -0.086784
-0.152076 0.023416 -0.090708
-0.150829 0.048961 -0.094282
-0.182367 0.329753 0.029928
-0.180595 0.328182 0.043994
-0.187852 0.353136 0.016591
-0.180306 0.326819 0.014713
-0.178935 0.318643 0.024739
-0.186813 0.355567 -0.019360
-0.188280 0.359024 0.019264
-0.189708 0.365058 0.031163
-0.189936 0.363167 -0.010741
-0.178673 0.317789 0.006333
-0.182784 0.335448 -0.006463
-0.183839 0.342696 0.011444
-0.180113 0.323722 -0.014622
-0.184174 0.344243 0.015317
-0.182484 0.336681 -0.023085
-0.180291 0.327959 -0.000601
-0.182735 0.336291 0.021157
-0.186899 0.352780 -0.004693
-0.184731 0.341882 0.050988
-0.185647 0.342779 0.027353
-0.183905 0.342586 -0.000742
-0.190729 0.369158 0.004105
-0.188338 0.352844 0.034467
-0.184884 0.342908 -0.016615
-0.183195 0.338774 0.038195
-0.186470 0.349054 0.042933
-0.185941 0.349263 0.007067
-0.184727 0.348195 -0.031511
-0.187249 0.350848 0.024403
-0.189217 0.362765 0.013184
-0.181225 0.333223 0.009178
-0.187818 0.355463 0.001934
0.226807 0.014633 0.169907
0.213668 0.014565 0.180474
0.201151 0.015378 0.166477
0.216964 0.015689 0.162102
0.229482 0.014533 0.165463
0.223985 0.015672 0.135888
0.232776 0.013190 0.154799
0.209432 0.014092 0.169703
0.189545 0.014449 0.145403
0.222714 0.015004 0.159780
0.216114 0.016559 0.144468
0.179938 0.015883 0.161719
0.212605 0.015610 0.137981
0.226092 0.015592 0.153912
0.200617 0.016683 0.133672
0.198523 0.015696 0.158193
0.221279 0.014771 0.166933
0.217001 0.016489 0.153791
0.218276 0.014711 0.184114
0.214719 0.016234 0.169654
0.223090 0.015604 0.148906
0.213172 0.014483 0.156442
0.219308 0.013891 0.172492
0.229382 0.014069 0.142228
0.204223 0.015534 0.176452
0.229689 0.013798 0.176196
0.210043 0.015835 0.161703
0.216739 0.015369 0.127376
0.191478 0.015764 0.170178
0.220563 0.015600 0.161514
0.205438 0.017308 0.150379
0.208431 0.017131 0.154905
-0.163182 0.263441 0.007725
-0.161913 0.261786 0.016502
-0.167001 0.283714 -0.000760
-0.162048 0.261146 -0.001323
-0.160576 0.254406 0.006021
-0.166586 0.285321 -0.021252
-0.167044 0.288276 0.002138
-0.168327 0.293170 0.009607
-0.168397 0.291380 -0.016238
-0.160758 0.253168 -0.005834
-0.163976 0.268960 -0.014000
-0.163584 0.274338 -0.003719
-0.162025 0.258430 -0.019027
-0.164362 0.276352 -0.000093
-0.163804 0.269552 -0.023247
-0.162255 0.261598 -0.011220
-0.163224 0.269159 0.002724
-0.166288 0.282272 -0.013426
-0.164385 0.273526 0.021769
-0.165236 0.275174 0.007004
-0.163995 0.274962 -0.010351
-0.168671 0.296465 -0.008020
-0.167678 0.283491 0.010887
-0.165031 0.275244 -0.019802
-0.163616 0.270960 0.012671
-0.165429 0.279889 0.016965
-0.165532 0.280026 -0.006203
-0.165355 0.279035 -0.026992
-0.166561 0.281724 0.004656
-0.167572 0.290807 -0.002477
-0.162539 0.266240 -0.004920
-0.166777 0.285443 -0.009398
-0.005313 -0.382963 -0.205388
-0.034053 -0.380661 -0.202795
-0.055375 -0.379721 -0.203149
-0.022083 -0.380814 -0.205513
0.007407 -0.382563 -0.207649
-0.008915 -0.381444 -0.207425
0.020692 -0.381050 -0.206795
-0.033813 -0.380692 -0.204726
-0.072300 -0.380820 -0.205384
-0.020624 -0.381166 -0.206403
-0.039379 -0.380863 -0.206217
-0.086372 -0.381979 -0.205028
-0.045052 -0.382078 -0.207561
-0.016463 -0.379783 -0.205053
-0.059212 -0.381977 -0.207083
-0.064696 -0.384033 -0.204259
-0.011835 -0.380498 -0.203527
-0.034074 -0.380542 -0.203232
-0.014219 -0.380156 -0.200126
-0.026439 -0.380665 -0.204073
-0.028600 -0.381486 -0.203806
-0.039960 -0.380949 -0.203714
-0.003492 -0.379297 -0.203831
0.000381 -0.381713 -0.206770
-0.040107 -0.380304 -0.204481
0.010006 -0.380194 -0.202669
-0.025691 -0.379690 -0.205153
-0.028162 -0.381619 -0.210030
-0.067492 -0.380411 -0.203476
-0.018173 -0.379840 -0.201523
-0.051310 -0.381153 -0.202420
-0.046022 -0.379751 -0.203068
0.154547 -0.082863 0.164512
0.238290 -0.077657 0.197850
0.216833 -0.071248 0.101483
0.198460 -0.079785 0.137940
0.237684 -0.078596 0.177044
0.240256 -0.076098 0.049371
0.249655 -0.057450 0.185986
0.249950 -0.069055 0.156181
0.230618 -0.060958 0.137741
0.211362 -0.094388 0.172411
0.242052 -0.066227 0.117133
0.140060 -0.081186 0.100313
0.220245 -0.090065 0.106888
0.190248 -0.071547 0.186665
0.244951 -0.060159 0.075896
0.223005 -0.079058 0.104013
0.240044 -0.078488 0.128918
0.218782 -0.078960 0.069077
0.239770 -0.067126 0.158093
0.240031 -0.073418 0.191843
0.166699 -0.073985 0.137667
0.248583 -0.056158 0.116666
0.239469 -0.067123 0.136157
0.227689 -0.076476 0.163497
0.230909 -0.081510 0.146598
0.227249 -0.070758 0.214931
0.220583 -0.076612 0.154143
0.238051 -0.066715 0.075197
0.230800 -0.075705 0.168643
0.202620 -0.072583 0.055138
0.232557 -0.071322 0.095151
0.218784 -0.073477 0.120842
-0.154090 0.217414 -0.003839
-0.153123 0.216374 0.004529
-0.156782 0.236420 -0.012662
-0.153273 0.216229 -0.013015
-0.152319 0.210262 -0.005505
-0.156393 0.238146 -0.031851
-0.156934 0.240989 -0.009332
-0.157882 0.245618 -0.002079
-0.157862 0.244026 -0.027335
-0.152051 0.209996 -0.017188
-0.154542 0.222460 -0.025190
-0.153597 0.226884 -0.015456
-0.153131 0.214308 -0.029402
-0.154587 0.229290 -0.012064
-0.154570 0.222776 -0.033902
-0.153294 0.215517 -0.022562
-0.153581 0.222654 -0.009025
-0.156148 0.234953 -0.024956
-0.155055 0.227171 0.010059
-0.155536 0.228314 -0.004696
-0.154168 0.227784 -0.021784
-0.157947 0.248562 -0.019734
-0.157868 0.236488 -0.000692
-0.155401 0.228673 -0.030825
-0.154246 0.224843 0.000709
-0.155707 0.233093 0.005028
-0.155609 0.233024 -0.018222
-0.155669 0.231832 -0.036447
-0.156585 0.234475 -0.007179
-0.157045 0.243126 -0.014398
-0.153427 0.219850 -0.016882
-0.156600 0.238106 -0.021284
-0.145537 0.084400 -0.055064
-0.145455 0.082126 -0.045952
-0.145362 0.105072 -0.062261
-0.145584 0.082431 -0.062494
-0.145651 0.074693 -0.056351
-0.144849 0.107793 -0.079333
-0.144563 0.111217 -0.059334
-0.144764 0.115408 -0.053318
-0.145190 0.112860 -0.074479
-0.145472 0.073714 -0.066619
-0.145436 0.089541 -0.074097
-0.145446 0.094141 -0.065063
-0.145484 0.079338 -0.077753
-0.144562 0.098667 -0.061686
-0.145201 0.089097 -0.081131
-0.145921 0.082008 -0.071183
-0.144583 0.090837 -0.059328
-0.145284 0.103971 -0.073495
-0.144994 0.094654 -0.041232
-0.146026 0.096763 -0.054263
-0.144141 0.095684 -0.071014
-0.144377 0.119369 -0.068679
-0.146448 0.106143 -0.050621
-0.145282 0.096474 -0.078493
-0.145363 0.091947 -0.050146
-0.144622 0.102632 -0.045378
-0.145162 0.101443 -0.068048
-0.145300 0.099432 -0.083159
-0.145730 0.103084 -0.057352
-0.144459 0.113859 -0.064132
-0.144967 0.087145 -0.066163
-0.144995 0.108425 -0.069766
0.236769 -0.013463 0.178503
0.237817 -0.015183 0.186125
0.234512 0.010013 0.170671
0.238265 -0.015334 0.170407
0.237808 -0.023462 0.177760
0.235022 0.014284 0.149736
0.233191 0.016109 0.172265
0.233058 0.021527 0.180133
0.233006 0.020211 0.153938
0.238328 -0.024178 0.165782
0.237547 -0.006448 0.158294
0.238239 -0.000211 0.168969
0.237788 -0.018771 0.153704
0.236775 0.002050 0.171718
0.237106 -0.006457 0.148308
0.238542 -0.015653 0.160952
0.237583 -0.005946 0.174560
0.235447 0.010386 0.157735
0.235295 -0.000330 0.189593
0.235827 0.000451 0.178550
0.237169 0.001610 0.161656
0.232747 0.024515 0.161635
0.233224 0.011843 0.182137
0.235294 0.001467 0.151148
0.237435 -0.004481 0.183804
0.234585 0.006656 0.186317
0.236297 0.007048 0.165090
0.235465 0.007072 0.144511
0.235119 0.008051 0.176606
0.233995 0.018896 0.168172
0.238299 -0.009041 0.167861
0.235007 0.012887 0.162128
-0.072361 -0.096057 0.081231
0.031213 -0.099164 0.140007
-0.046176 -0.083832 0.001248
-0.036834 -0.105004 0.048832
0.096031 -0.107654 0.097201
0.043311 -0.104503 -0.045242
0.070168 -0.091134 0.117633
0.025636 -0.085736 0.068574
-0.013507 -0.085651 0.039486
-0.005903 -0.120012 0.090733
0.059914 -0.089446 0.027301
-0.088204 -0.096357 0.008812
0.002560 -0.115077 0.012642
-0.049085 -0.091962 0.111018
0.058778 -0.094178 -0.020993
0.085107 -0.110331 0.007180
0.026590 -0.100943 0.032843
-0.019625 -0.098423 -0.022400
0.071291 -0.094652 0.076694
0.004577 -0.089779 0.112236
-0.070429 -0.083257 0.043999
0.001618 -0.079307 0.010835
0.103235 -0.099656 0.047495
-0.027317 -0.089157 0.074595
0.041794 -0.111805 0.053300
-0.011315 -0.091436 0.150680
0.002044 -0.100996 0.063908
0.014250 -0.094849 -0.020085
0.027330 -0.099111 0.094647
-0.046235 -0.093213 -0.033950
0.038202 -0.101341 0.002649
-0.038209 -0.093150 0.021105
0.071451 0.012509 0.167854
0.163380 0.014832 0.199368
0.112237 0.006203 0.099979
0.107361 0.013927 0.152033
0.207965 0.007998 0.174971
0.171141 0.011616 0.064022
0.193371 0.008884 0.189118
0.167596 0.003854 0.162664
0.129749 0.011341 0.145899
0.139797 0.011706 0.171665
0.188448 0.009529 0.130468
0.070671 0.009442 0.107612
0.131468 0.013209 0.125723
0.100696 0.013422 0.187697
0.189427 0.002374 0.091557
0.204214 0.011555 0.113839
0.160597 0.010197 0.134965
0.131779 0.014411 0.081015
0.195433 0.013543 0.157265
0.154044 0.007464 0.183808
0.081881 0.004821 0.142336
0.155114 -0.000692 0.116553
0.211582 0.009414 0.140741
0.120401 0.005284 0.174331
0.172458 0.011044 0.144011
0.135582 0.013380 0.198084
0.146221 0.013370 0.157632
0.157178 0.008501 0.090416
0.175259 0.011375 0.176465
0.095928 0.009160 0.069302
0.170056 0.011200 0.109419
0.109409 0.013219 0.125154
-0.201489 0.033440 -0.050659
-0.209348 0.026686 -0.007592
-0.201744 0.170869 -0.118516
-0.201474 0.046878 -0.100672
-0.215071 0.054473 -0.028674
-0.208476 0.073500 -0.146993
-0.209154 0.179733 -0.018223
-0.203942 0.199554 -0.053099
-0.201783 0.134832 -0.069831
-0.201141 -0.005505 -0.042423
-0.208990 0.149495 -0.101793
-0.202226 0.117484 -0.109595
-0.205951 0.009191 -0.122330
-0.201928 0.089850 -0.031306
-0.213449 0.173758 -0.143523
-0.209667 0.059470 -0.111715
-0.209651 0.081561 -0.113361
-0.203768 0.055952 -0.140440
-0.212375 0.058588 -0.072617
-0.205053 0.125186 -0.002669
-0.201421 0.159423 -0.086327
-0.199944 0.201652 -0.102041
-0.211012 0.108045 -0.081021
-0.201235 0.150205 -0.047306
-0.215172 0.018497 -0.080631
-0.204226 0.078408 0.014317
-0.207664 0.083117 -0.059281
-0.207191 0.139060 -0.130649
-0.211748 0.116421 -0.045617
-0.201666 0.123172 -0.164327
-0.209849 0.099849 -0.136142
-0.198381 0.092590 -0.085508
-0.148311 0.177610 -0.024873
-0.147535 0.176414 -0.016933
-0.150478 0.197512 -0.032800
-0.147649 0.176297 -0.032971
-0.146908 0.170074 -0.026214
-0.150157 0.199507 -0.050566
-0.150574 0.202563 -0.029666
-0.151367 0.207240 -0.022988
-0.151326 0.205528 -0.046166
-0.146714 0.169685 -0.036766
-0.148606 0.182733 -0.044401
-0.147912 0.187273 -0.035300
-0.147522 0.174323 -0.048638
-0.148491 0.190315 -0.031947
-0.148538 0.183067 -0.052266
-0.147725 0.175709 -0.041880
-0.147833 0.183098 -0.029327
-0.149862 0.196150 -0.044088
-0.148990 0.187438 -0.011820
-0.149459 0.188990 -0.025159
-0.148112 0.188199 -0.041172
-0.151395 0.210847 -0.039205
-0.151501 0.197806 -0.021609
-0.149316 0.189419 -0.049450
-0.148367 0.185018 -0.020515
-0.149559 0.194078 -0.016136
-0.149385 0.193816 -0.037967
-0.149522 0.192572 -0.054942
-0.150409 0.195376 -0.027659
-0.150474 0.205134 -0.034348
-0.147604 0.180146 -0.036453
-0.150223 0.199742 -0.040601
-0.209622 0.257559 0.038143
-0.211479 0.249881 0.075900
-0.216788 0.349349 -0.019066
-0.205862 0.264049 -0.003524
-0.217957 0.269890 0.060035
-0.219174 0.287995 -0.056164
-0.221246 0.358641 0.070658
-0.217278 0.358746 0.035396
-0.215255 0.329723 0.027717
-0.200933 0.217239 0.050436
-0.221721 0.333507 -0.000987
-0.211480 0.314507 -0.016789
-0.208061 0.230156 -0.020552
-0.209690 0.300755 0.055810
-0.228757 0.342635 -0.049101
-0.217905 0.270368 -0.013318
-0.215624 0.291135 -0.011633
-0.211563 0.275494 -0.039016
-0.217137 0.276602 0.024885
-0.210264 0.318063 0.075621
-0.212458 0.343928 0.008883
-0.219879 0.362046 -0.003757
-0.218710 0.312921 0.020310
-0.211524 0.339419 0.047074
-0.214515 0.236365 0.017609
-0.210171 0.295377 0.092705
-0.213271 0.299522 0.032665
-0.220947 0.324829 -0.029629
-0.220498 0.319621 0.042770
-0.212372 0.323761 -0.068769
-0.219931 0.299062 -0.035219
-0.211959 0.304373 0.009466
-0.144993 0.129212 -0.043383
-0.144545 0.127794 -0.034871
-0.146294 0.149479 -0.051479
-0.144576 0.128123 -0.051495
-0.144246 0.121558 -0.044830
-0.145951 0.151848 -0.068784
-0.146207 0.154965 -0.048086
-0.146624 0.159727 -0.041390
-0.146785 0.157733 -0.064412
-0.143884 0.121588 -0.055577
-0.145083 0.134235 -0.063220
-0.144470 0.138831 -0.053939
-0.144418 0.126212 -0.066979
-0.144759 0.142311 -0.050618
-0.144971 0.134281 -0.070631
-0.144662 0.127248 -0.060434
-0.144205 0.135021 -0.047891
-0.145823 0.148104 -0.062812
-0.145323 0.139239 -0.029720
-0.145926 0.140914 -0.043318
-0.144339 0.139755 -0.060051
-0.146604 0.163506 -0.057914
-0.147467 0.150096 -0.039756
-0.145566 0.141123 -0.068143
-0.144958 0.136800 -0.038854
-0.145518 0.146355 -0.034247
-0.145471 0.145825 -0.056939
-0.145724 0.144248 -0.072580
-0.146355 0.147255 -0.046267
-0.145966 0.157675 -0.053026
-0.144356 0.131806 -0.055205
-0.145972 0.152170 -0.059369
-0.187631 -0.119031 -0.200788
-0.188393 -0.125505 -0.195038
-0.184456 -0.076751 -0.200964
-0.187763 -0.126317 -0.199901
-0.189056 -0.138999 -0.197093
-0.183123 -0.069085 -0.197863
-0.181634 -0.061860 -0.199351
-0.181937 -0.048400 -0.197883
-0.183543 -0.055302 -0.199048
-0.189516 -0.147793 -0.199097
-0.186639 -0.112506 -0.198767
-0.188803 -0.099945 -0.199642
-0.189355 -0.131170 -0.197810
-0.184659 -0.090269 -0.200962
-0.186369 -0.110805 -0.198515
-0.189828 -0.120247 -0.199218
-0.185870 -0.105518 -0.199494
-0.184453 -0.081074 -0.198500
-0.187198 -0.106368 -0.191571
-0.185725 -0.097285 -0.198670
-0.185749 -0.096407 -0.199798
-0.179673 -0.027264 -0.200284
-0.184937 -0.073730 -0.197630
-0.185481 -0.100164 -0.200643
-0.186783 -0.108960 -0.199043
-0.184288 -0.083068 -0.193134
-0.185225 -0.090488 -0.201048
-0.184612 -0.089024 -0.197013
-0.185443 -0.086577 -0.200167
-0.179798 -0.044021 -0.200012
-0.188421 -0.115069 -0.198001
-0.182816 -0.066950 -0.200186
-0.162271 -0.024807 -0.127135
-0.163827 -0.026872 -0.105403
-0.166176 -0.017737 -0.142014
-0.163590 -0.026288 -0.147744
-0.159212 -0.033804 -0.137821
-0.162976 -0.015613 -0.187919
-0.153226 -0.015520 -0.144996
-0.163974 -0.013042 -0.130629
-0.169882 -0.014762 -0.178482
-0.162462 -0.040229 -0.158380
-0.163383 -0.021994 -0.174017
-0.177302 -0.020060 -0.150507
-0.163802 -0.032355 -0.183460
-0.161763 -0.019204 -0.153888
-0.166414 -0.022137 -0.194977
-0.168727 -0.027110 -0.162497
-0.164450 -0.021514 -0.140240
-0.164981 -0.016113 -0.168360
-0.164756 -0.019170 -0.089829
-0.165318 -0.019008 -0.132872
-0.161994 -0.020157 -0.167974
-0.162478 -0.009130 -0.159407
-0.165300 -0.016965 -0.120137
-0.159481 -0.020538 -0.184993
-0.165808 -0.020291 -0.116685
-0.159028 -0.017469 -0.110077
-0.165494 -0.018278 -0.154190
-0.164168 -0.018119 -0.205499
-0.170593 -0.017942 -0.134233
-0.163775 -0.012862 -0.148542
-0.164454 -0.022292 -0.159728
-0.164222 -0.017026 -0.161448
-0.195640 0.365097 0.015901
-0.196946 0.368342 0.050061
-0.216251 0.366566 -0.021878
-0.197931 0.365644 -0.038261
-0.195299 0.364348 -0.006595
-0.199455 0.366971 -0.161435
-0.198546 0.366370 -0.029688
-0.207768 0.368631 0.005559
-0.239238 0.367812 -0.127661
-0.191306 0.357337 -0.056512
-0.202252 0.365956 -0.116714
-0.256965 0.370191 -0.043968
-0.204690 0.366107 -0.142115
-0.193228 0.364459 -0.059746
-0.219530 0.369556 -0.184587
-0.224764 0.366875 -0.069560
-0.198356 0.365881 -0.018409
-0.201775 0.369606 -0.093143
-0.200674 0.366506 0.068706
-0.200285 0.367907 -0.006719
-0.193268 0.362784 -0.094253
-0.204398 0.370117 -0.064626
-0.203042 0.365297 0.022395
-0.195320 0.364311 -0.136642
-0.209023 0.368707 0.030717
-0.197827 0.365271 0.040044
-0.206287 0.367552 -0.050127
-0.201105 0.368310 -0.217962
-0.232736 0.367632 -0.006142
-0.199232 0.368070 -0.040916
-0.211858 0.368771 -0.085083
-0.209463 0.367434 -0.075376
-0.147140 0.062132 -0.073955
-0.147123 0.059911 -0.064333
-0.146684 0.083502 -0.082246
-0.147184 0.060463 -0.082391
-0.147285 0.052642 -0.075754
-0.146034 0.086041 -0.101293
-0.145838 0.089762 -0.078794
-0.146062 0.094054 -0.072184
-0.146405 0.091440 -0.095812
-0.147075 0.052523 -0.087202
-0.146835 0.067471 -0.095446
-0.146552 0.072184 -0.085197
-0.147052 0.057701 -0.099451
-0.146018 0.076712 -0.081580
-0.146558 0.066816 -0.103295
-0.147269 0.059669 -0.092201
-0.145998 0.068802 -0.078809
-0.146665 0.082104 -0.094839
-0.146494 0.072789 -0.059335
-0.147608 0.074894 -0.073232
-0.145478 0.073856 -0.092008
-0.145701 0.097824 -0.089528
-0.147693 0.084535 -0.069387
-0.146688 0.074529 -0.100333
-0.146949 0.070065 -0.068773
-0.146042 0.080865 -0.063784
-0.146653 0.079760 -0.088644
-0.146611 0.077559 -0.105286
-0.146936 0.081337 -0.076825
-0.145723 0.092303 -0.084214
-0.146460 0.064980 -0.086953
-0.146362 0.086763 -0.090664
-0.158282 0.240166 -0.006047
-0.157328 0.238810 0.002876
-0.161469 0.259800 -0.015249
-0.157509 0.238655 -0.015504
-0.156337 0.232268 -0.007965
-0.160980 0.261490 -0.035031
-0.161548 0.264666 -0.011846
-0.162505 0.269580 -0.004124
-0.162610 0.267734 -0.030436
-0.156154 0.231920 -0.020147
-0.159015 0.245331 -0.028396
-0.158076 0.250032 -0.018195
-0.157440 0.236505 -0.032671
-0.158918 0.252434 -0.014758
-0.158999 0.245679 -0.037284
-0.157618 0.238191 -0.025687
-0.158066 0.245667 -0.011563
-0.160676 0.258378 -0.027895
-0.159263 0.250083 0.008615
-0.159938 0.251450 -0.007058
-0.158581 0.250953 -0.024897
-0.162539 0.272617 -0.022592
-0.162205 0.259891 -0.002714
-0.159763 0.251673 -0.034088
-0.158681 0.247739 -0.001259
-0.160001 0.256402 0.003272
-0.160183 0.256392 -0.021019
-0.160052 0.255114 -0.039941
-0.161039 0.257929 -0.009651
-0.161597 0.266932 -0.017037
-0.157853 0.242540 -0.019694
-0.161186 0.261629 -0.024237
0.224705 -0.088183 0.132754
0.223811 -0.089634 0.150693
0.225440 -0.084423 0.117250
0.222835 -0.089265 0.113217
0.224051 -0.090052 0.121807
0.228421 -0.081088 0.073160
0.230879 -0.079260 0.117468
0.228707 -0.079705 0.131177
0.226347 -0.081151 0.083559
0.221341 -0.089426 0.104857
0.224651 -0.087500 0.086421
0.221956 -0.088424 0.109205
0.223295 -0.090519 0.079450
0.227472 -0.084267 0.109150
0.224093 -0.088447 0.069367
0.221640 -0.092537 0.095373
0.224959 -0.087656 0.118774
0.226828 -0.082824 0.091870
0.224776 -0.084825 0.160726
0.223880 -0.085563 0.127639
0.225629 -0.085735 0.091719
0.230358 -0.076763 0.099836
0.225693 -0.083640 0.137979
0.228516 -0.083999 0.077137
0.224671 -0.086940 0.140609
0.228825 -0.082148 0.147127
0.225290 -0.085016 0.101884
0.225218 -0.084541 0.060109
0.224801 -0.085429 0.122953
0.227891 -0.079599 0.111469
0.225544 -0.087627 0.100422
0.226701 -0.082903 0.097176
-0.045902 -0.011889 -0.077815
-0.068677 -0.012654 -0.055838
-0.078163 -0.013515 -0.091485
-0.065412 -0.012484 -0.100578
-0.039229 -0.010935 -0.094946
-0.050532 -0.012219 -0.179500
-0.028286 -0.012008 -0.112038
-0.071199 -0.013277 -0.077811
-0.086815 -0.013924 -0.160106
-0.060712 -0.010104 -0.116102
-0.064196 -0.011783 -0.157038
-0.091140 -0.013473 -0.106079
-0.071472 -0.012983 -0.173589
-0.040658 -0.011246 -0.127642
-0.081356 -0.011670 -0.188472
-0.083858 -0.013463 -0.123519
-0.057371 -0.011558 -0.091119
-0.056329 -0.012008 -0.137327
-0.060490 -0.011784 -0.046343
-0.064197 -0.011888 -0.081074
-0.047290 -0.011512 -0.152031
-0.061875 -0.012839 -0.124850
-0.055408 -0.012024 -0.065072
-0.035353 -0.012879 -0.169014
-0.076702 -0.013138 -0.063519
-0.036147 -0.012233 -0.064078
-0.071314 -0.012765 -0.114486
-0.061909 -0.012521 -0.199742
-0.086895 -0.013049 -0.084794
-0.050641 -0.012028 -0.104351
-0.076759 -0.012187 -0.146194
-0.070945 -0.011773 -0.134766
-0.161636 -0.031904 0.013597
-0.101833 -0.030413 0.095486
-0.133412 -0.017658 -0.107919
-0.138617 -0.031448 -0.036456
-0.070982 -0.031494 0.030613
-0.096064 -0.028825 -0.161232
-0.081445 -0.019077 0.069455
-0.095825 -0.016536 -0.014000
-0.113574 -0.019759 -0.037086
-0.118380 -0.047132 0.028641
-0.085554 -0.016283 -0.069878
-0.164285 -0.028492 -0.092157
-0.123308 -0.047492 -0.083756
-0.144391 -0.028175 0.055233
-0.080823 -0.016749 -0.136232
-0.077696 -0.031897 -0.091261
-0.100307 -0.027164 -0.060546
-0.125178 -0.030515 -0.131167
-0.077816 -0.020939 -0.005518
-0.112897 -0.021919 0.060427
