-0.146517 -0.048372 -0.179046
-0.166785 -0.058242 -0.176251
-0.174226 -0.069830 -0.176751
-0.136627 -0.058214 -0.178545
-0.156971 -0.052135 -0.176696
-0.144601 -0.062610 -0.175823
-0.149337 -0.059120 -0.178925
-0.153658 -0.055181 -0.177334
-0.156717 -0.037342 -0.177980
-0.134126 -0.050079 -0.178830
-0.127432 -0.061757 -0.178826
-0.151656 -0.063114 -0.178122
-0.125418 -0.054394 -0.177793
-0.141630 -0.053887 -0.178761
-0.147077 -0.053121 -0.176710
-0.174972 -0.054551 -0.177758
-0.140817 -0.039611 -0.177869
-0.163255 -0.064470 -0.176134
-0.158659 -0.047181 -0.177845
0.172749 -0.179849 0.018404
0.169417 -0.181103 0.030841
0.170127 -0.179429 0.012227
0.170876 -0.180806 0.009361
0.172847 -0.182924 0.015095
0.174910 -0.178634 -0.013424
0.179181 -0.178103 0.009071
0.171775 -0.178673 0.019059
0.168319 -0.179427 -0.007184
0.169499 -0.187393 0.005497
0.172788 -0.179375 -0.006061
0.163107 -0.180172 0.008918
0.170914 -0.184637 -0.012444
0.173778 -0.179092 0.005645
0.170122 -0.180116 -0.015957
0.167417 -0.182444 0.002060
0.171497 -0.179567 0.012927
0.172531 -0.179158 -0.000071
0.170146 -0.178975 0.038884
0.170222 -0.178487 0.016720
0.174071 -0.179783 -0.002066
0.174432 -0.178243 0.003896
0.170260 -0.179331 0.022872
0.175668 -0.178869 -0.009847
0.169198 -0.179466 0.023559
0.175477 -0.178546 0.028268
0.170229 -0.179207 0.005312
0.172740 -0.179550 -0.024417
0.166474 -0.179526 0.016135
0.173113 -0.178751 0.009811
0.172248 -0.179797 0.002109
0.171943 -0.179248 0.002250
0.265836 -0.009754 0.067768
0.192324 -0.011079 0.098850
0.161841 -0.013160 0.065955
0.210402 -0.009525 0.063821
0.289306 -0.005175 0.052887
0.254834 -0.010235 -0.023762
0.326884 -0.010388 0.033829
0.185956 -0.011210 0.075376
0.159398 -0.012483 0.004690
0.212326 -0.011194 0.041295
0.199194 -0.010363 0.000541
0.156196 -0.014678 0.051996
0.177969 -0.011930 -0.015646
0.269185 -0.009038 0.028908
0.161930 -0.012741 -0.028273
0.166297 -0.014385 0.043019
0.234522 -0.009048 0.069197
0.206469 -0.010055 0.024664
0.226718 -0.010662 0.102468
0.207912 -0.010420 0.085295
0.238160 -0.009218 0.006692
0.194385 -0.008342 0.033113
0.253880 -0.009268 0.090270
0.293061 -0.011390 -0.004401
0.173389 -0.011929 0.087157
0.299155 -0.010638 0.087806
0.191906 -0.010471 0.050402
0.211466 -0.011791 -0.042785
0.156094 -0.012226 0.075406
0.243968 -0.009237 0.051053
0.172694 -0.012153 0.011730
0.170261 -0.010449 0.029067
0.232809 -0.027899 0.130130
0.329779 -0.034936 0.152967
0.268023 0.003428 0.044949
0.273043 -0.032031 0.105784
0.372992 -0.033982 0.132153
0.345692 -0.017224 -0.022717
0.358984 -0.009223 0.145253
0.331665 -0.004111 0.111773
0.297000 0.003684 0.096531
0.304227 -0.068523 0.144408
0.349603 -0.005724 0.077204
0.222285 -0.000173 0.061698
0.309453 -0.055826 0.062182
0.256451 -0.004705 0.148414
0.358229 -0.010060 0.014167
0.368718 -0.044764 0.062429
0.325931 -0.013192 0.086901
0.293124 -0.012480 0.021636
0.353604 -0.018394 0.117101
0.304366 -0.001092 0.143921
0.235222 -0.001647 0.099506
0.307013 -0.008938 0.060807
0.373842 -0.008150 0.096613
0.278885 -0.001276 0.121312
0.340275 -0.054939 0.114130
0.297087 -0.010615 0.162046
0.305965 -0.010836 0.119205
0.318715 0.000420 0.009181
0.335258 -0.006385 0.136170
0.254648 0.003353 -0.007324
0.342858 -0.012028 0.047415
0.270776 0.000768 0.084786
-0.108816 -0.089967 -0.176034
-0.132264 -0.092355 -0.174783
-0.146517 -0.070256 -0.176449
-0.121497 -0.090049 -0.175984
-0.100801 -0.095142 -0.175217
-0.117296 -0.068610 -0.175044
-0.094059 -0.066728 -0.176600
-0.128301 -0.064319 -0.177025
-0.154723 -0.063519 -0.176977
-0.123566 -0.096092 -0.173736
-0.138514 -0.081954 -0.175109
-0.160775 -0.082542 -0.176256
-0.141178 -0.094486 -0.174429
-0.123808 -0.069768 -0.177109
-0.147066 -0.080061 -0.174868
-0.154080 -0.091237 -0.175098
-0.112473 -0.080628 -0.175838
-0.136544 -0.074259 -0.175141
-0.119038 -0.085650 -0.173805
-0.125797 -0.082416 -0.176495
-0.132436 -0.077993 -0.175605
-0.135453 -0.058885 -0.176995
-0.108930 -0.072500 -0.176225
-0.102907 -0.084785 -0.176327
-0.129815 -0.085396 -0.176056
-0.098128 -0.078035 -0.175314
-0.118767 -0.076191 -0.176452
-0.126523 -0.075026 -0.174642
-0.153684 -0.077159 -0.176349
-0.117120 -0.060622 -0.175992
-0.142932 -0.087060 -0.174449
-0.137688 -0.068549 -0.176445
0.091859 -0.049279 0.053969
0.132150 -0.042834 0.100782
0.123933 -0.011144 -0.026235
0.103027 -0.042350 0.021798
0.198843 -0.029358 0.072761
0.152938 -0.020921 -0.089367
0.199089 -0.008382 0.087580
0.165319 -0.006810 0.044781
0.138131 -0.008217 0.018942
0.100436 -0.089452 0.072317
0.175586 -0.002899 -0.003633
0.100691 -0.030176 -0.015236
0.106793 -0.065909 -0.016600
0.114202 -0.026093 0.079290
0.194107 -0.006223 -0.061093
0.180573 -0.035283 -0.020340
0.140889 -0.021942 0.005749
0.112561 -0.031767 -0.049280
0.171709 -0.013315 0.039757
0.137070 -0.012512 0.085115
0.113683 -0.020349 0.016608
0.160977 -0.007206 -0.009690
0.216927 0.000751 0.022423
0.134822 -0.014538 0.047466
0.136365 -0.053098 0.038645
0.130100 -0.023984 0.119029
0.121943 -0.025503 0.046458
0.140453 -0.009171 -0.058223
0.151652 -0.013711 0.065594
0.114157 -0.015026 -0.068562
0.156033 -0.016746 -0.031038
0.118177 -0.017553 0.006856
-0.013506 -0.122695 -0.072512
-0.057564 -0.126069 -0.024440
-0.076976 -0.124842 -0.088555
-0.046957 -0.123393 -0.093875
-0.003093 -0.122772 -0.083753
-0.025105 -0.120988 -0.144149
0.014318 -0.122573 -0.105505
-0.061291 -0.125961 -0.073923
-0.095901 -0.122819 -0.134436
-0.040797 -0.123805 -0.104485
-0.052750 -0.123203 -0.134129
-0.107959 -0.124502 -0.100089
-0.066784 -0.122151 -0.137611
-0.012561 -0.123586 -0.119028
-0.083624 -0.120435 -0.145083
-0.086620 -0.125064 -0.110732
-0.034554 -0.125157 -0.083479
-0.044232 -0.122659 -0.122380
-0.036125 -0.127323 0.001008
-0.044049 -0.126644 -0.065449
-0.029494 -0.123301 -0.133492
-0.052398 -0.122823 -0.118422
-0.026691 -0.124847 -0.048997
-0.003010 -0.121144 -0.137055
-0.074259 -0.125894 -0.045564
0.004504 -0.125287 -0.037455
-0.060553 -0.124197 -0.104615
-0.047440 -0.121094 -0.143655
-0.094567 -0.126973 -0.071908
-0.028527 -0.122670 -0.105291
-0.073466 -0.123596 -0.128323
-0.064795 -0.123936 -0.120741
0.280809 -0.182225 0.075823
0.258997 -0.186575 0.093612
0.244295 -0.179949 0.067742
0.259783 -0.182917 0.069417
0.286044 -0.187927 0.076257
0.271915 -0.177197 0.045361
0.300388 -0.180064 0.062914
0.258279 -0.181216 0.071479
0.231444 -0.180062 0.048646
0.262388 -0.198650 0.072063
0.255842 -0.177070 0.052920
0.220590 -0.182808 0.063954
0.244309 -0.187597 0.052548
0.277974 -0.178702 0.060897
0.235396 -0.176920 0.042861
0.234448 -0.184408 0.064946
0.266453 -0.180754 0.071829
0.258521 -0.178119 0.058941
0.273692 -0.185145 0.104352
0.263951 -0.181754 0.078718
0.270687 -0.178479 0.057483
0.260011 -0.177534 0.057870
0.273332 -0.180981 0.080820
0.283915 -0.177325 0.055242
0.251368 -0.183974 0.082056
0.296906 -0.183064 0.089699
0.254886 -0.180147 0.065519
0.253522 -0.177429 0.035930
0.236315 -0.182960 0.073450
0.267883 -0.179679 0.066915
0.246029 -0.180178 0.060104
0.252760 -0.178714 0.061463
0.058051 -0.051051 0.034449
0.043509 -0.063689 0.068354
0.061297 -0.046965 0.013622
0.051360 -0.062461 0.003818
0.045664 -0.072353 0.022339
0.069796 -0.040922 -0.057470
0.073719 -0.037841 0.011415
0.071093 -0.044167 0.029838
0.052677 -0.048331 -0.040507
0.041802 -0.089500 -0.007239
0.058707 -0.050538 -0.038193
0.025698 -0.061178 0.002957
0.041852 -0.076777 -0.049140
0.066136 -0.041430 -0.005552
0.041897 -0.058835 -0.065802
0.031922 -0.069568 -0.020408
0.058923 -0.048360 0.013844
0.066012 -0.042693 -0.025672
0.059772 -0.048532 0.085855
0.060468 -0.046590 0.028835
0.069368 -0.043506 -0.028291
0.082138 -0.039381 -0.014935
0.064412 -0.044040 0.046181
0.063441 -0.042761 -0.050744
0.050044 -0.053978 0.048936
0.071322 -0.043087 0.058131
0.056429 -0.049606 -0.010223
0.063426 -0.046744 -0.078724
0.048233 -0.052248 0.025177
0.072625 -0.039247 0.002302
0.051178 -0.056520 -0.017831
0.066296 -0.044601 -0.015782
-0.217092 -0.003283 -0.220234
-0.230477 -0.003653 -0.201119
-0.228744 0.000022 -0.220498
-0.222979 -0.003491 -0.223047
-0.208993 -0.003387 -0.218047
-0.217790 0.002127 -0.222064
-0.196512 0.000212 -0.225924
-0.229580 0.006515 -0.217079
-0.228259 0.005817 -0.220258
-0.221166 -0.007054 -0.222534
-0.222664 -0.003275 -0.221621
-0.236313 -0.002326 -0.216387
-0.221117 -0.003170 -0.221530
-0.222587 -0.001778 -0.224762
-0.224652 -0.001836 -0.218867
-0.229206 -0.004839 -0.219981
-0.224667 -0.003071 -0.222208
-0.225574 0.001156 -0.221335
-0.230203 -0.002964 -0.186780
-0.228008 -0.001292 -0.216974
-0.223133 -0.001880 -0.223087
-0.226041 0.017251 -0.219988
-0.222258 0.000997 -0.214602
-0.207540 -0.001485 -0.225599
-0.228865 -0.003948 -0.214966
-0.213839 0.000978 -0.203327
-0.225960 -0.002050 -0.224674
-0.217116 -0.001536 -0.223758
-0.232944 -0.001528 -0.215752
-0.221213 0.010252 -0.222090
-0.224718 -0.002648 -0.219514
-0.226340 0.002994 -0.222442
0.262944 -0.008548 0.125419
0.225094 -0.010542 0.149718
0.214835 -0.011057 0.124561
0.232192 -0.009408 0.119867
0.270932 -0.006640 0.115465
0.257764 -0.008157 0.070132
0.291248 -0.008058 0.101682
0.225465 -0.010826 0.131059
0.203617 -0.012125 0.087152
0.235958 -0.010452 0.110685
0.236124 -0.009492 0.084562
0.197527 -0.013928 0.116998
0.222039 -0.009961 0.075993
0.267104 -0.007673 0.098548
0.210140 -0.010501 0.068867
0.207416 -0.012386 0.106885
0.244993 -0.008678 0.124604
0.242769 -0.008610 0.100220
0.241729 -0.009245 0.157320
0.235591 -0.009197 0.135280
0.255711 -0.007723 0.087171
0.237272 -0.008982 0.104450
0.251359 -0.008565 0.140333
0.276476 -0.008495 0.080443
0.215455 -0.011405 0.140861
0.277390 -0.008965 0.142570
0.223948 -0.010313 0.112738
0.237382 -0.010165 0.061199
0.203371 -0.011333 0.129861
0.253452 -0.008013 0.115431
0.218107 -0.010814 0.090244
0.224703 -0.009054 0.100643
-0.196486 0.016506 -0.207669
-0.219452 0.014558 -0.197849
-0.225451 0.016240 -0.206189
-0.211685 0.014858 -0.208476
-0.191131 0.010676 -0.208983
-0.199987 0.017351 -0.219559
-0.175849 0.017201 -0.212563
-0.217638 0.015964 -0.204978
-0.232347 0.014705 -0.214341
-0.212541 0.001158 -0.210003
-0.216043 0.018720 -0.216482
-0.240533 0.015186 -0.207850
-0.220390 0.008659 -0.217238
-0.203125 0.018436 -0.210868
-0.226578 0.016019 -0.218534
-0.231080 0.013665 -0.210245
-0.205868 0.017767 -0.206714
-0.215423 0.018150 -0.212575
-0.209020 0.017869 -0.193338
-0.214028 0.018089 -0.203247
-0.208949 0.017571 -0.213919
-0.215191 0.016351 -0.209848
-0.201281 0.018004 -0.202491
-0.191108 0.017837 -0.217325
-0.222672 0.016299 -0.202660
-0.186643 0.017223 -0.200389
-0.215789 0.018579 -0.210031
-0.211146 0.014988 -0.223746
-0.231661 0.016832 -0.203479
-0.208065 0.017264 -0.207594
-0.222490 0.016621 -0.211322
-0.220646 0.018098 -0.210499
-0.047612 -0.120989 -0.150360
-0.070341 -0.123936 -0.139404
-0.082811 -0.120055 -0.152327
-0.062638 -0.120466 -0.151561
-0.039245 -0.119695 -0.149190
-0.050006 -0.115669 -0.158652
-0.026681 -0.118081 -0.155961
-0.068469 -0.120174 -0.152765
-0.093638 -0.117917 -0.158162
-0.062367 -0.121373 -0.146835
-0.071073 -0.118037 -0.156497
-0.104384 -0.121186 -0.152491
-0.077406 -0.119005 -0.152897
-0.052386 -0.118223 -0.155826
-0.085581 -0.116795 -0.157195
-0.089204 -0.122264 -0.151629
-0.055044 -0.120766 -0.152024
-0.066454 -0.118118 -0.155274
-0.055828 -0.123302 -0.135817
-0.063548 -0.121813 -0.147486
-0.061746 -0.118258 -0.156210
-0.068494 -0.115670 -0.158017
-0.047816 -0.119844 -0.149141
-0.040523 -0.117856 -0.156713
-0.075353 -0.122661 -0.147359
-0.033262 -0.121823 -0.142889
-0.065499 -0.120038 -0.154607
-0.064840 -0.116337 -0.157275
-0.091732 -0.122406 -0.149335
-0.056770 -0.116729 -0.154781
-0.079646 -0.119785 -0.152695
-0.074986 -0.118653 -0.155310
0.346597 -0.230608 0.112651
0.337074 -0.236977 0.138680
0.322942 -0.187483 0.093363
0.337544 -0.234445 0.092527
0.355698 -0.245312 0.108869
0.337170 -0.180869 0.014964
0.357472 -0.179544 0.090778
0.326258 -0.166028 0.109761
0.318145 -0.166067 0.040390
0.344877 -0.253531 0.081699
0.337402 -0.215826 0.051913
0.310615 -0.208807 0.084405
0.336341 -0.240540 0.030353
0.342881 -0.200448 0.091147
0.327450 -0.210087 0.006606
0.325621 -0.232717 0.069026
0.337090 -0.215890 0.099793
0.328820 -0.187053 0.058118
0.336017 -0.215532 0.146257
0.332080 -0.207945 0.113798
0.340500 -0.199310 0.067055
0.326375 -0.142204 0.071151
0.335807 -0.185399 0.119034
0.350281 -0.205685 0.040700
0.333954 -0.220173 0.126639
0.345191 -0.198001 0.136057
0.331283 -0.197268 0.085058
0.336176 -0.194011 -0.027889
0.318638 -0.194397 0.108138
0.334103 -0.161025 0.080303
0.333557 -0.220540 0.080987
0.330350 -0.181235 0.076615
0.335379 -0.204199 0.097418
0.313894 -0.209405 0.116451
0.292153 -0.189639 0.083084
0.314213 -0.207406 0.086969
0.342758 -0.228568 0.099235
0.317537 -0.185218 0.048367
0.354736 -0.195234 0.079849
0.302910 -0.189593 0.090031
0.283909 -0.185998 0.055713
0.319750 -0.257257 0.090512
0.305834 -0.188211 0.066014
0.276836 -0.189516 0.079101
0.300447 -0.226770 0.064265
0.326168 -0.190764 0.078691
0.292080 -0.185424 0.046905
0.292180 -0.203622 0.080484
0.315245 -0.193606 0.090344
0.301201 -0.187049 0.070462
0.323569 -0.200136 0.129643
0.309843 -0.194311 0.099333
0.317957 -0.190562 0.072581
0.301067 -0.183832 0.070827
0.322013 -0.192136 0.099177
0.334718 -0.189709 0.066682
0.304306 -0.196284 0.106930
0.344212 -0.196175 0.111988
0.304582 -0.188510 0.084085
0.299649 -0.185531 0.028602
0.289613 -0.191232 0.091606
0.310190 -0.190092 0.079206
0.299253 -0.192447 0.077965
0.300081 -0.187769 0.076672
-0.076550 -0.105410 -0.170038
-0.097428 -0.108325 -0.167996
-0.111178 -0.090742 -0.171390
-0.088281 -0.105014 -0.170297
-0.068692 -0.109096 -0.169262
-0.083022 -0.087372 -0.170852
-0.060958 -0.087001 -0.172202
-0.093282 -0.084677 -0.172722
-0.120286 -0.083613 -0.172530
-0.090175 -0.109459 -0.167190
-0.103092 -0.099076 -0.170002
-0.128841 -0.100394 -0.170725
-0.106242 -0.107467 -0.168641
-0.088758 -0.089901 -0.172496
-0.112660 -0.097401 -0.170337
-0.119524 -0.106657 -0.169222
-0.080503 -0.098648 -0.170838
-0.100032 -0.092786 -0.170332
-0.085309 -0.103195 -0.167282
-0.091675 -0.100298 -0.171365
-0.096517 -0.096458 -0.170616
-0.098652 -0.077430 -0.172954
-0.076388 -0.092031 -0.171749
-0.070331 -0.101542 -0.171514
-0.096305 -0.102493 -0.170615
-0.065505 -0.096936 -0.169897
-0.086291 -0.095412 -0.171554
-0.092056 -0.092797 -0.170566
-0.118986 -0.096953 -0.171417
-0.082936 -0.080343 -0.171277
-0.107844 -0.103429 -0.168864
-0.101940 -0.088543 -0.171929
0.090301 -0.245592 -0.103249
0.084131 -0.243424 -0.082891
0.079722 -0.236920 -0.108487
0.084851 -0.245194 -0.109945
0.096856 -0.246603 -0.100320
0.083195 -0.236133 -0.113092
0.100772 -0.235118 -0.109490
0.078968 -0.225683 -0.098208
0.080686 -0.225413 -0.112577
0.092361 -0.250276 -0.112241
0.083288 -0.243445 -0.111445
0.079191 -0.240728 -0.108384
0.087972 -0.244356 -0.114985
0.082939 -0.242200 -0.109627
0.083552 -0.241929 -0.113993
0.082698 -0.244550 -0.112035
0.082659 -0.244862 -0.108787
0.079978 -0.236061 -0.111629
0.081879 -0.241188 -0.062306
0.081971 -0.240502 -0.101064
0.083941 -0.241729 -0.112126
0.080181 -0.208992 -0.107099
0.083150 -0.236856 -0.096914
0.091635 -0.240552 -0.113993
0.081535 -0.241332 -0.097995
0.088789 -0.235775 -0.080555
0.080990 -0.240701 -0.112297
0.086011 -0.241227 -0.120671
0.079686 -0.237626 -0.102036
0.084048 -0.221427 -0.107994
0.084477 -0.243934 -0.108952
0.080226 -0.233154 -0.111154
0.168818 -0.176499 -0.007597
0.165644 -0.176958 0.004357
0.163937 -0.175567 -0.014269
0.166398 -0.176771 -0.016394
0.170129 -0.178797 -0.010618
0.169202 -0.175183 -0.039315
0.174276 -0.175044 -0.016957
0.165551 -0.175148 -0.006602
0.162200 -0.175565 -0.033367
0.166641 -0.180384 -0.020431
0.167766 -0.175083 -0.032306
0.158741 -0.175244 -0.018065
0.166901 -0.179520 -0.037803
0.168935 -0.175481 -0.020407
0.165407 -0.175581 -0.041854
0.163839 -0.177763 -0.023992
0.167175 -0.175813 -0.012563
0.166536 -0.175414 -0.027173
0.166078 -0.175261 0.011492
0.165249 -0.174925 -0.009062
0.168881 -0.175745 -0.028762
0.167592 -0.175088 -0.022867
0.165654 -0.175788 -0.003572
0.171264 -0.175853 -0.035723
0.164152 -0.175525 -0.002337
0.171169 -0.175433 0.001961
0.164857 -0.175158 -0.020270
0.167204 -0.175520 -0.048444
0.161386 -0.175127 -0.009619
0.167281 -0.175207 -0.017079
0.167218 -0.175404 -0.025030
0.165710 -0.175179 -0.024460
0.310879 -0.190693 0.070872
0.293551 -0.190459 0.087090
0.277383 -0.186746 0.064130
0.291235 -0.190034 0.061501
0.318285 -0.195893 0.067156
0.297567 -0.188386 0.023353
0.327189 -0.191182 0.055150
0.285861 -0.187116 0.070718
0.268965 -0.186057 0.033053
0.299059 -0.204033 0.057819
0.287972 -0.185926 0.037124
0.264251 -0.185554 0.056498
0.284365 -0.194958 0.028336
0.305718 -0.188693 0.051874
0.274708 -0.183650 0.017001
0.276252 -0.189559 0.053609
0.295259 -0.188810 0.067098
0.286847 -0.187757 0.048790
0.300015 -0.190269 0.098409
0.291151 -0.188238 0.071609
0.301238 -0.188099 0.044328
0.285307 -0.184013 0.052776
0.298428 -0.189006 0.076650
0.313133 -0.189581 0.036021
0.285249 -0.187914 0.078906
0.319668 -0.191172 0.084104
0.284543 -0.187786 0.060135
0.283736 -0.187011 0.002769
0.273026 -0.186535 0.068739
0.293998 -0.187777 0.061880
0.282657 -0.186329 0.047135
0.284112 -0.186587 0.052315
-0.090823 -0.069667 -0.178098
-0.111681 -0.071779 -0.176780
-0.123954 -0.050603 -0.177939
-0.102133 -0.070343 -0.178071
-0.083139 -0.075606 -0.177394
-0.098844 -0.049190 -0.176299
-0.076540 -0.047342 -0.178090
-0.108164 -0.044325 -0.178365
-0.131803 -0.044295 -0.177876
-0.104136 -0.078494 -0.176061
-0.116921 -0.061881 -0.176683
-0.137374 -0.061695 -0.177768
-0.118962 -0.074927 -0.176349
-0.104405 -0.050557 -0.178752
-0.124323 -0.060439 -0.176248
-0.130639 -0.071034 -0.176834
-0.094628 -0.060259 -0.177840
-0.115492 -0.054215 -0.176486
-0.100634 -0.064475 -0.175156
-0.106343 -0.061322 -0.178527
-0.112058 -0.058059 -0.177197
-0.114622 -0.038756 -0.177748
-0.091522 -0.052063 -0.177758
-0.085691 -0.063987 -0.177993
-0.108780 -0.064760 -0.178100
-0.081845 -0.056751 -0.176941
-0.099916 -0.056014 -0.178379
-0.106922 -0.055438 -0.175986
-0.130481 -0.056604 -0.178049
-0.098979 -0.041097 -0.177146
-0.120578 -0.066467 -0.176233
-0.116188 -0.048902 -0.177866
0.158103 -0.180307 -0.030857
0.154154 -0.178891 -0.020730
0.150243 -0.178877 -0.034259
0.153363 -0.180582 -0.036490
0.160470 -0.181582 -0.031899
0.155169 -0.180322 -0.053386
0.163550 -0.179478 -0.035617
0.152101 -0.178023 -0.026996
0.147475 -0.178964 -0.048232
0.155501 -0.184352 -0.040546
0.153463 -0.179264 -0.047407
0.144846 -0.178244 -0.038494
0.153246 -0.183395 -0.054489
0.156269 -0.179396 -0.037941
0.150199 -0.180145 -0.056183
0.150199 -0.181407 -0.042682
0.154089 -0.178989 -0.032792
0.152358 -0.179846 -0.042892
0.154742 -0.177376 -0.013160
0.153085 -0.177875 -0.030277
0.155617 -0.179625 -0.043826
0.152639 -0.177706 -0.037743
0.154166 -0.178727 -0.025921
0.158929 -0.180516 -0.049149
0.151993 -0.178161 -0.025965
0.160205 -0.178398 -0.020671
0.151533 -0.178657 -0.037559
0.152181 -0.180986 -0.063363
0.148426 -0.177506 -0.030503
0.153866 -0.178723 -0.034442
0.153626 -0.179652 -0.042102
0.151926 -0.179033 -0.040483
-0.112543 -0.030119 -0.178589
-0.134519 -0.031165 -0.173787
-0.145223 -0.023838 -0.177741
-0.124469 -0.030633 -0.179455
-0.104992 -0.033562 -0.178941
-0.119030 -0.023259 -0.178770
-0.092838 -0.023995 -0.178860
-0.131055 -0.022482 -0.177899
-0.159971 -0.023696 -0.177597
-0.126450 -0.038520 -0.177372
-0.136791 -0.026320 -0.177966
-0.171654 -0.027392 -0.177472
-0.140190 -0.033545 -0.178566
-0.124328 -0.023500 -0.178098
-0.149426 -0.026652 -0.178515
-0.156681 -0.032861 -0.177299
-0.118989 -0.026532 -0.178492
-0.134407 -0.024632 -0.177310
-0.124145 -0.027457 -0.169529
-0.129459 -0.026445 -0.177496
-0.130262 -0.025170 -0.177064
-0.134993 -0.016881 -0.176506
-0.115229 -0.023386 -0.177829
-0.108606 -0.026428 -0.179142
-0.133647 -0.027920 -0.177719
-0.103542 -0.024369 -0.174137
-0.125510 -0.025614 -0.179314
-0.128529 -0.026329 -0.180715
-0.156181 -0.026343 -0.176770
-0.123006 -0.019862 -0.176277
-0.143124 -0.028808 -0.176068
-0.138362 -0.023641 -0.176943
-0.178694 0.017247 -0.207396
-0.201726 0.016186 -0.194723
-0.212172 0.016990 -0.206213
-0.193872 0.016694 -0.209145
-0.172999 0.014201 -0.209219
-0.181701 0.016963 -0.218820
-0.160985 0.016828 -0.213344
-0.201219 0.016135 -0.204353
-0.222652 0.015217 -0.214293
-0.192550 0.009915 -0.210443
-0.198434 0.018068 -0.216489
-0.231794 0.015448 -0.207996
-0.204743 0.012705 -0.217233
-0.184554 0.018056 -0.212267
-0.214191 0.015888 -0.217489
-0.218032 0.014491 -0.211001
-0.187139 0.017633 -0.206804
-0.196775 0.017845 -0.212414
-0.189672 0.017590 -0.188843
-0.195921 0.018146 -0.202506
-0.190876 0.017511 -0.214564
-0.199152 0.015764 -0.210313
-0.182605 0.017674 -0.201234
-0.173961 0.017457 -0.217292
-0.207485 0.016911 -0.200847
-0.168852 0.017082 -0.197632
-0.199063 0.018274 -0.210402
-0.193844 0.015113 -0.219287
-0.221278 0.016712 -0.202963
-0.189373 0.017365 -0.207684
-0.208274 0.016615 -0.212374
-0.205574 0.018196 -0.211605
0.056592 -0.051866 0.012270
0.043365 -0.063046 0.045389
0.060569 -0.048714 -0.008057
0.050407 -0.061912 -0.017865
0.044467 -0.069889 -0.000488
0.069009 -0.042664 -0.076883
0.071580 -0.039139 -0.010582
0.069884 -0.045466 0.008616
0.053464 -0.049232 -0.060266
0.041282 -0.084123 -0.029024
0.058153 -0.051721 -0.059227
0.028676 -0.061716 -0.018947
0.043060 -0.073748 -0.068104
0.064316 -0.043464 -0.027876
0.043604 -0.059309 -0.083768
0.033401 -0.069506 -0.041908
0.057849 -0.049767 -0.008542
0.065805 -0.044369 -0.046821
0.058203 -0.049518 0.062601
0.058835 -0.048251 0.006623
0.067397 -0.045683 -0.050341
0.080615 -0.040596 -0.036658
0.062848 -0.045664 0.023574
0.062567 -0.044524 -0.071147
0.049740 -0.054251 0.026809
0.068830 -0.044376 0.035644
0.055606 -0.051176 -0.032834
0.063203 -0.048246 -0.094515
0.048219 -0.053506 0.002613
0.071319 -0.040705 -0.019772
0.051208 -0.057130 -0.039458
0.065527 -0.046303 -0.038018
0.089991 -0.208097 -0.097680
0.082193 -0.209802 -0.074995
0.084383 -0.199795 -0.099203
0.085339 -0.212636 -0.103386
0.093098 -0.218015 -0.093058
0.089851 -0.200129 -0.108645
0.103893 -0.199701 -0.100061
0.083189 -0.195250 -0.089724
0.085043 -0.197409 -0.104679
0.087968 -0.233712 -0.104467
0.086965 -0.204429 -0.105846
0.078792 -0.201677 -0.098858
0.088089 -0.221667 -0.109519
0.085982 -0.201257 -0.100083
0.086109 -0.205553 -0.107760
0.082437 -0.212975 -0.106718
0.082675 -0.203581 -0.099991
0.084655 -0.200422 -0.104737
0.081507 -0.200119 -0.056836
0.083137 -0.200027 -0.092069
0.087366 -0.201526 -0.104386
0.087171 -0.190042 -0.098503
0.084921 -0.198507 -0.087473
0.094438 -0.201382 -0.109078
0.082553 -0.202802 -0.088719
0.091171 -0.197172 -0.073264
0.084016 -0.200653 -0.103366
0.090744 -0.204350 -0.114821
0.080617 -0.199656 -0.092224
0.087137 -0.195784 -0.098341
0.086613 -0.206976 -0.101233
0.084355 -0.200222 -0.102841
0.113237 -0.252024 -0.111375
0.098751 -0.250433 -0.092708
0.095621 -0.250910 -0.111777
0.103704 -0.251546 -0.113786
0.123204 -0.250756 -0.108823
0.109219 -0.251094 -0.116335
0.133866 -0.253310 -0.116274
0.097169 -0.248603 -0.106695
0.094176 -0.247366 -0.114264
0.108119 -0.254036 -0.113632
0.101174 -0.250585 -0.114798
0.089103 -0.249864 -0.110146
0.103772 -0.249775 -0.115282
0.107543 -0.252959 -0.115652
0.098917 -0.249837 -0.114483
0.096766 -0.251866 -0.112718
0.103403 -0.252750 -0.112131
0.099898 -0.251017 -0.113701
0.101647 -0.250960 -0.075411
0.100985 -0.250824 -0.108136
0.104518 -0.251989 -0.114777
0.097550 -0.240927 -0.111135
0.107736 -0.251298 -0.104540
0.119024 -0.250943 -0.116458
0.098164 -0.250774 -0.105584
0.118194 -0.250946 -0.092375
0.099991 -0.251609 -0.114585
0.104959 -0.251144 -0.120026
0.092603 -0.249957 -0.105746
0.104640 -0.247153 -0.112788
0.100442 -0.250420 -0.113157
0.097682 -0.250787 -0.113929
-0.051889 -0.104527 -0.168758
-0.071728 -0.107551 -0.166759
-0.082343 -0.092168 -0.170063
-0.063314 -0.104472 -0.169031
-0.043891 -0.107830 -0.168366
-0.057429 -0.088142 -0.169903
-0.033955 -0.087417 -0.170859
-0.065890 -0.085389 -0.171434
-0.090322 -0.084926 -0.171033
-0.066316 -0.109007 -0.166074
-0.076296 -0.099468 -0.168906
-0.099997 -0.100784 -0.169432
-0.079727 -0.106772 -0.167729
-0.062847 -0.091058 -0.171427
-0.084957 -0.098287 -0.169661
-0.091534 -0.106579 -0.168087
-0.055767 -0.098614 -0.169780
-0.072764 -0.093641 -0.169050
-0.060092 -0.102908 -0.165681
-0.065887 -0.100200 -0.170142
-0.070456 -0.097072 -0.169504
-0.069910 -0.077174 -0.171455
-0.050778 -0.092176 -0.170389
-0.045153 -0.100876 -0.170433
-0.070142 -0.102462 -0.169694
-0.039745 -0.096391 -0.168740
-0.061216 -0.096278 -0.170506
-0.066390 -0.093666 -0.170101
-0.089424 -0.097938 -0.170329
-0.056565 -0.080922 -0.169694
-0.080235 -0.103381 -0.167685
-0.073799 -0.089585 -0.170629
0.285841 -0.180691 0.051794
0.265864 -0.182063 0.068722
0.255648 -0.180089 0.047606
0.267052 -0.180991 0.043947
0.292066 -0.185815 0.045965
0.278298 -0.179854 0.009929
0.304213 -0.180867 0.036356
0.263577 -0.179997 0.052390
0.247000 -0.180467 0.019004
0.270415 -0.195964 0.039715
0.265985 -0.178617 0.020718
0.240833 -0.180072 0.040999
0.260369 -0.187862 0.014024
0.284474 -0.179701 0.032207
0.252117 -0.178073 0.005995
0.250281 -0.182181 0.036178
0.272803 -0.180128 0.048277
0.268403 -0.179877 0.031258
0.273965 -0.181035 0.079331
0.268482 -0.180001 0.053777
0.279287 -0.179411 0.025114
0.267362 -0.178334 0.035280
0.276091 -0.180192 0.060095
0.291706 -0.180113 0.018053
0.258997 -0.180784 0.061467
0.296692 -0.181583 0.064090
0.261736 -0.180078 0.040670
0.265428 -0.179457 -0.002841
0.247850 -0.180225 0.051868
0.274763 -0.179894 0.043460
0.258836 -0.179809 0.028668
0.262533 -0.179481 0.033428
0.105467 -0.022497 0.018126
0.096771 -0.027927 0.037124
0.102132 -0.025800 0.006381
0.098583 -0.026555 -0.000510
0.101556 -0.024316 0.007140
0.111619 -0.020458 -0.046684
0.117350 -0.019121 0.000906
0.108881 -0.023333 0.018570
0.100341 -0.026011 -0.033493
0.092292 -0.028705 -0.007174
0.102788 -0.024682 -0.032999
0.090877 -0.031194 -0.002276
0.094998 -0.029005 -0.040410
0.111136 -0.020452 -0.009195
0.094332 -0.028871 -0.049514
0.089110 -0.031383 -0.019100
0.103119 -0.024239 0.003515
0.109670 -0.021499 -0.020666
0.105059 -0.023845 0.045888
0.102643 -0.023557 0.015067
0.108561 -0.021554 -0.028570
0.115761 -0.021103 -0.014372
0.106662 -0.022645 0.025597
0.112550 -0.019568 -0.038748
0.098362 -0.026918 0.026740
0.113928 -0.020341 0.031341
0.101493 -0.025304 -0.013279
0.104312 -0.024144 -0.058379
0.098164 -0.027808 0.010225
0.111432 -0.020756 0.000471
0.099469 -0.026716 -0.019805
0.106728 -0.022382 -0.017627
0.173551 -0.234528 -0.058902
0.169784 -0.233407 -0.046068
0.160778 -0.230232 -0.063436
0.166598 -0.234713 -0.063704
0.179968 -0.235131 -0.056512
0.165177 -0.231445 -0.066566
0.185966 -0.230686 -0.060507
0.167277 -0.225384 -0.056683
0.154354 -0.225437 -0.067546
0.169893 -0.241029 -0.064367
0.163279 -0.233023 -0.064857
0.148836 -0.232258 -0.065102
0.162013 -0.234844 -0.068575
0.168332 -0.233377 -0.062414
0.157025 -0.232175 -0.069975
0.157989 -0.235049 -0.066173
0.165975 -0.233874 -0.061406
0.161261 -0.231545 -0.063203
0.171395 -0.232310 -0.028616
0.168077 -0.231817 -0.058684
0.165945 -0.233924 -0.062813
0.163222 -0.215679 -0.060034
0.170708 -0.230899 -0.053740
0.173356 -0.232406 -0.063987
0.167423 -0.232631 -0.056509
0.179647 -0.229864 -0.042733
0.164193 -0.232669 -0.063334
0.159589 -0.233332 -0.075856
0.159227 -0.231120 -0.058873
0.166476 -0.224021 -0.058978
0.165161 -0.234642 -0.061300
0.163807 -0.229956 -0.061887
0.047017 -0.063202 -0.041873
0.077005 -0.053927 0.011794
0.089384 -0.028009 -0.114678
0.059359 -0.056373 -0.075986
0.121977 -0.042775 -0.019994
0.100317 -0.038641 -0.165171
0.131973 -0.019630 0.000025
0.117360 -0.020354 -0.048710
0.097164 -0.023699 -0.071003
0.056407 -0.086518 -0.022090
0.116499 -0.020412 -0.097786
0.059269 -0.050654 -0.109068
0.059856 -0.071101 -0.111585
0.071655 -0.042798 -0.008793
0.133086 -0.017709 -0.144399
0.109453 -0.046037 -0.117896
0.093660 -0.038544 -0.088511
0.073100 -0.046135 -0.137964
0.110868 -0.029936 -0.056478
0.092132 -0.029621 -0.001653
0.076137 -0.039304 -0.077761
0.122073 -0.015720 -0.097165
0.140179 -0.012881 -0.074856
0.093368 -0.027401 -0.042536
0.078260 -0.058897 -0.060526
0.084549 -0.037143 0.033984
0.076984 -0.040789 -0.047749
0.099760 -0.026959 -0.140009
0.096022 -0.030214 -0.031127
0.078472 -0.032771 -0.147980
0.101521 -0.032125 -0.120757
0.078751 -0.035949 -0.087025
0.132952 -0.014482 0.033703
0.120370 -0.018853 0.053100
0.121730 -0.018999 0.024973
0.122140 -0.017497 0.019375
0.131930 -0.014377 0.023850
0.135681 -0.013910 -0.021153
0.146126 -0.013258 0.016315
0.128425 -0.016976 0.036214
0.118919 -0.019464 -0.009507
0.118046 -0.017445 0.013076
0.126473 -0.016564 -0.009935
0.112355 -0.022081 0.017353
0.118978 -0.019005 -0.015208
0.138036 -0.013855 0.008060
0.116564 -0.019882 -0.022447
0.112141 -0.021554 0.003721
0.127309 -0.016101 0.023000
0.132760 -0.014727 0.001584
0.128403 -0.016056 0.061873
0.125918 -0.016328 0.033608
0.133584 -0.014316 -0.007671
0.135719 -0.015202 0.006520
0.130268 -0.015295 0.043263
0.140753 -0.013214 -0.014133
0.119680 -0.019049 0.043348
0.141123 -0.013855 0.047647
0.122709 -0.017522 0.007955
0.126834 -0.016856 -0.029203
0.117510 -0.020204 0.028857
0.135406 -0.014705 0.019605
0.121456 -0.018331 -0.000763
0.127095 -0.015829 0.002236
0.131448 -0.191334 -0.079154
0.117365 -0.188604 -0.068382
0.107927 -0.190245 -0.078233
0.118919 -0.191256 -0.081761
0.138317 -0.191411 -0.080300
0.125931 -0.193791 -0.091583
0.145367 -0.192338 -0.081726
0.115109 -0.190018 -0.072752
0.100876 -0.192104 -0.086823
0.122891 -0.192018 -0.085597
0.116774 -0.191328 -0.088288
0.094679 -0.190843 -0.082293
0.113360 -0.193466 -0.095156
0.126317 -0.191140 -0.082063
0.106106 -0.192979 -0.092802
0.105086 -0.192618 -0.085302
0.123642 -0.190535 -0.077389
0.116703 -0.192035 -0.083487
0.124159 -0.188101 -0.060278
0.119137 -0.188893 -0.074970
0.122040 -0.191786 -0.084920
0.114475 -0.190116 -0.078473
0.127316 -0.190329 -0.071895
0.133538 -0.192382 -0.088261
0.112893 -0.189272 -0.073352
0.138497 -0.189696 -0.067337
0.115280 -0.190511 -0.080552
0.116543 -0.194874 -0.097830
0.103342 -0.189125 -0.074860
0.121835 -0.190893 -0.076360
0.112144 -0.191612 -0.085171
0.112732 -0.190742 -0.082044
-0.171273 -0.003862 -0.221689
-0.187734 -0.004026 -0.212683
-0.195765 0.000673 -0.223025
-0.181072 -0.002644 -0.224022
-0.161008 -0.003779 -0.220878
-0.176573 0.001319 -0.223253
-0.151749 -0.000747 -0.225824
-0.187235 0.002533 -0.223184
-0.201427 0.003411 -0.224516
-0.179992 -0.003945 -0.220961
-0.188392 -0.001476 -0.222985
-0.209636 -0.002351 -0.221171
-0.189345 -0.001600 -0.222753
-0.180809 -0.000659 -0.224868
-0.195738 -0.000297 -0.223118
-0.199135 -0.004407 -0.221926
-0.178269 -0.002515 -0.223320
-0.189004 0.000484 -0.222616
-0.180396 -0.004140 -0.206583
-0.185333 -0.002036 -0.221266
-0.185185 -0.001093 -0.222865
-0.189738 0.008815 -0.223350
-0.174127 -0.000174 -0.220980
-0.166022 -0.001875 -0.224832
-0.188821 -0.003342 -0.220748
-0.162501 -0.001536 -0.214855
-0.184308 -0.001188 -0.224978
-0.183806 0.000046 -0.224643
-0.200902 -0.001919 -0.221648
-0.180882 0.005366 -0.222640
-0.192126 -0.002162 -0.221068
-0.190850 0.001515 -0.223571
-0.053767 -0.019568 -0.112476
-0.092492 -0.020705 -0.059097
-0.119161 -0.022059 -0.119916
-0.077581 -0.020560 -0.128157
-0.044411 -0.021575 -0.118556
-0.060311 -0.021259 -0.153227
-0.024510 -0.021593 -0.129790
-0.093964 -0.019997 -0.106150
-0.154319 -0.021687 -0.144875
-0.072319 -0.031348 -0.138980
-0.088062 -0.022653 -0.150030
-0.179530 -0.022290 -0.126632
-0.105682 -0.022969 -0.151527
-0.054943 -0.021914 -0.142101
-0.129294 -0.022638 -0.153466
-0.137261 -0.023957 -0.136374
-0.069049 -0.021597 -0.119316
-0.082330 -0.020898 -0.141931
-0.072429 -0.019877 -0.021178
-0.076574 -0.021682 -0.102626
-0.067841 -0.021814 -0.147622
-0.090498 -0.015551 -0.133790
-0.061075 -0.020923 -0.084877
-0.042153 -0.019654 -0.151443
-0.108074 -0.020929 -0.084796
-0.035826 -0.018191 -0.067456
-0.089044 -0.021739 -0.129960
-0.080344 -0.023893 -0.154104
-0.146975 -0.023533 -0.101645
-0.065250 -0.018234 -0.129873
-0.111959 -0.023683 -0.144827
-0.102316 -0.022482 -0.137807
0.198870 -0.229344 -0.045481
0.191804 -0.229035 -0.034560
0.186403 -0.224754 -0.046874
0.192158 -0.229650 -0.047988
0.204639 -0.230150 -0.044301
0.193701 -0.225449 -0.046854
0.212637 -0.224382 -0.046699
0.192020 -0.220168 -0.043830
0.180795 -0.220579 -0.048336
0.192976 -0.235060 -0.047704
0.189338 -0.228282 -0.046751
0.173476 -0.227853 -0.046888
0.187409 -0.230170 -0.049022
0.194069 -0.227414 -0.047251
0.183681 -0.227141 -0.048405
0.182387 -0.230657 -0.047936
0.192265 -0.228140 -0.046625
0.188658 -0.226289 -0.045444
0.194646 -0.227490 -0.021194
0.192167 -0.226942 -0.044653
0.191847 -0.228281 -0.045892
0.189801 -0.212043 -0.044455
0.196801 -0.224989 -0.041183
0.201211 -0.227145 -0.047203
0.191366 -0.227970 -0.043648
0.205427 -0.224449 -0.032877
0.190793 -0.227416 -0.047520
0.189161 -0.227312 -0.051841
0.182888 -0.226449 -0.043725
0.193700 -0.218305 -0.043852
0.189738 -0.229588 -0.044179
0.189735 -0.224180 -0.045478
0.145658 -0.185412 -0.057822
0.140428 -0.183175 -0.046889
0.133689 -0.183678 -0.060561
0.138221 -0.186152 -0.062926
0.149205 -0.188101 -0.057753
0.139985 -0.186491 -0.078314
0.153121 -0.184751 -0.059980
0.137394 -0.182644 -0.051723
0.129534 -0.184802 -0.072611
0.141242 -0.191502 -0.067461
0.137798 -0.184166 -0.072651
0.125940 -0.183087 -0.065783
0.136557 -0.190827 -0.081062
0.141941 -0.183967 -0.062224
0.132430 -0.186442 -0.081438
0.133008 -0.186923 -0.069277
0.139997 -0.183721 -0.058375
0.135914 -0.185049 -0.068307
0.142261 -0.180944 -0.038036
0.139250 -0.181941 -0.055442
0.140421 -0.184654 -0.068219
0.136808 -0.182604 -0.061334
0.141324 -0.183345 -0.050982
0.145559 -0.185514 -0.072454
0.137837 -0.182654 -0.052390
0.149163 -0.182411 -0.045402
0.136106 -0.183529 -0.062597
0.134749 -0.187520 -0.089101
0.132557 -0.181845 -0.055925
0.138906 -0.184089 -0.059063
0.137808 -0.184979 -0.067885
0.136207 -0.184030 -0.064981
0.156501 -0.237699 -0.074877
0.155885 -0.236156 -0.064570
0.144447 -0.231077 -0.080855
0.150374 -0.238111 -0.080842
0.162447 -0.239530 -0.072647
0.145053 -0.233178 -0.085009
0.163254 -0.231946 -0.076143
0.149839 -0.225693 -0.072680
0.138194 -0.225584 -0.086155
0.155221 -0.243796 -0.081364
0.146467 -0.234973 -0.082525
0.137061 -0.233315 -0.084145
0.146948 -0.238283 -0.087362
0.150329 -0.235007 -0.078572
0.141042 -0.234416 -0.089412
0.144386 -0.237182 -0.084692
0.149588 -0.236527 -0.078364
0.143412 -0.232673 -0.081546
0.156216 -0.234583 -0.048244
0.151848 -0.233511 -0.075693
0.148521 -0.235456 -0.080496
0.144474 -0.216166 -0.077530
0.152950 -0.232387 -0.070798
0.153143 -0.234881 -0.081052
0.152809 -0.234490 -0.073047
0.159664 -0.231802 -0.060480
0.147418 -0.234015 -0.080365
0.140283 -0.235344 -0.095101
0.144993 -0.231391 -0.076528
0.147598 -0.224825 -0.076506
0.149648 -0.236912 -0.079374
0.146794 -0.230701 -0.079347
-0.086171 -0.044750 -0.179783
-0.108680 -0.046363 -0.176315
-0.113549 -0.035875 -0.176625
-0.097922 -0.045802 -0.179953
-0.078641 -0.048540 -0.180799
-0.090648 -0.034442 -0.177081
-0.064770 -0.032952 -0.177945
-0.100528 -0.031089 -0.177385
-0.124190 -0.033950 -0.175302
-0.102454 -0.054515 -0.178524
-0.108682 -0.041613 -0.177639
-0.135708 -0.042226 -0.176706
-0.112363 -0.050434 -0.178991
-0.096968 -0.034832 -0.178570
-0.118250 -0.042396 -0.177095
-0.126407 -0.048672 -0.177889
-0.090369 -0.039010 -0.179043
-0.105826 -0.037579 -0.176516
-0.098346 -0.040094 -0.172815
-0.101907 -0.039445 -0.178666
-0.103495 -0.038755 -0.177543
-0.103386 -0.025114 -0.174753
-0.085960 -0.034207 -0.177290
-0.078984 -0.041496 -0.179594
-0.104303 -0.042087 -0.179029
-0.075595 -0.035327 -0.176102
-0.095938 -0.038587 -0.179155
-0.099408 -0.040400 -0.178033
-0.123474 -0.039302 -0.176856
-0.092495 -0.028209 -0.175340
-0.113183 -0.044518 -0.176434
-0.106957 -0.034939 -0.176677
-0.140675 -0.021154 -0.200150
-0.151603 -0.021391 -0.187274
-0.157777 -0.019682 -0.202963
-0.148048 -0.020221 -0.203318
-0.133591 -0.019854 -0.199266
-0.143751 -0.018168 -0.212439
-0.126884 -0.020516 -0.206618
-0.153273 -0.018815 -0.199989
-0.162299 -0.016547 -0.210427
-0.144850 -0.020399 -0.202529
-0.150726 -0.019076 -0.209182
-0.167775 -0.018774 -0.203024
-0.151011 -0.017681 -0.209448
-0.143895 -0.020691 -0.207770
-0.155814 -0.016770 -0.212281
-0.157553 -0.020058 -0.203823
-0.146485 -0.021400 -0.202399
-0.151184 -0.019260 -0.206878
-0.147615 -0.021948 -0.178298
-0.150105 -0.020954 -0.199607
-0.147241 -0.020041 -0.208236
-0.153026 -0.013229 -0.206596
-0.144109 -0.020263 -0.197153
-0.136240 -0.019570 -0.210596
-0.154071 -0.020987 -0.195986
-0.135188 -0.021540 -0.189851
-0.151194 -0.020291 -0.205082
-0.149092 -0.017846 -0.217475
-0.161573 -0.019953 -0.198532
-0.147474 -0.016811 -0.205848
-0.153670 -0.019028 -0.205968
-0.154076 -0.019106 -0.206676
0.194413 -0.156365 -0.008323
0.181658 -0.157080 0.007924
0.179952 -0.158232 -0.007787
0.184850 -0.157573 -0.010999
0.198094 -0.154380 -0.010237
0.196195 -0.156907 -0.021841
0.210963 -0.155335 -0.013257
0.186411 -0.157035 -0.003940
0.173185 -0.158902 -0.017141
0.184186 -0.159091 -0.013584
0.186895 -0.157679 -0.019117
0.163399 -0.159902 -0.010435
0.180701 -0.158550 -0.021358
0.196068 -0.156850 -0.014725
0.177074 -0.158677 -0.021264
0.172686 -0.160729 -0.014831
0.189410 -0.156971 -0.008972
0.189188 -0.157563 -0.014559
0.188845 -0.155360 0.018145
0.186741 -0.156723 -0.003382
0.191277 -0.157167 -0.018190
0.190386 -0.154834 -0.012198
0.193516 -0.156113 0.000620
0.201182 -0.155994 -0.020273
0.179739 -0.157522 -0.001408
0.204070 -0.154894 0.005857
0.183750 -0.158047 -0.013333
0.188154 -0.158677 -0.024040
0.172157 -0.158852 -0.003929
0.193017 -0.155551 -0.009560
0.182056 -0.158902 -0.015020
0.184628 -0.157388 -0.014087
0.046786 -0.116461 -0.069951
-0.002491 -0.119572 -0.021322
-0.024518 -0.117896 -0.086618
0.009147 -0.116602 -0.090576
0.058752 -0.116029 -0.079892
0.031959 -0.114008 -0.141498
0.078279 -0.115832 -0.103030
-0.007987 -0.119097 -0.072209
-0.041364 -0.115062 -0.132048
0.014731 -0.117260 -0.101864
-0.001666 -0.115960 -0.130998
-0.052449 -0.116818 -0.098319
-0.014499 -0.115281 -0.135270
0.045270 -0.116362 -0.115449
-0.031116 -0.112680 -0.142622
-0.032394 -0.118812 -0.106678
0.022645 -0.118314 -0.079594
0.007132 -0.115730 -0.120038
0.021220 -0.120990 0.002869
0.010896 -0.120214 -0.061683
0.025077 -0.116375 -0.130536
-0.001509 -0.115579 -0.116640
0.032413 -0.118106 -0.046188
0.057590 -0.114846 -0.132909
-0.020028 -0.118890 -0.043727
0.067045 -0.118563 -0.034268
-0.005762 -0.117000 -0.101431
0.006180 -0.114055 -0.140934
-0.040759 -0.119474 -0.069843
0.027448 -0.115499 -0.103456
-0.020908 -0.116555 -0.125298
-0.014222 -0.116549 -0.118001
-0.101122 -0.049913 -0.129859
0.038955 -0.048016 -0.090193
-0.024856 -0.036258 -0.171130
-0.050665 -0.049802 -0.144835
0.098300 -0.047047 -0.115527
0.042892 -0.049835 -0.176398
0.075112 -0.039623 -0.100026
0.047230 -0.037593 -0.139031
-0.004169 -0.038201 -0.148113
-0.010279 -0.057770 -0.122187
0.087291 -0.037022 -0.151486
-0.091319 -0.045083 -0.169752
0.003201 -0.054544 -0.156351
-0.063370 -0.043794 -0.106449
0.082506 -0.035048 -0.170563
0.097086 -0.051342 -0.160712
0.032088 -0.042826 -0.156108
-0.003346 -0.045489 -0.178360
0.080684 -0.044041 -0.140223
0.016485 -0.038952 -0.111100
-0.083448 -0.036026 -0.153922
0.018481 -0.028204 -0.164164
0.116203 -0.040757 -0.149250
-0.035329 -0.035259 -0.129673
0.048066 -0.058491 -0.145132
-0.011146 -0.041945 -0.083802
0.012946 -0.045623 -0.136625
0.026206 -0.038884 -0.174426
0.056540 -0.044002 -0.122389
-0.057366 -0.044483 -0.185054
0.064671 -0.043637 -0.164747
-0.029062 -0.046114 -0.160286
0.307886 -0.012102 0.110623
0.258420 -0.011798 0.138730
0.230889 -0.009331 0.106312
0.267756 -0.010820 0.094766
0.322052 -0.021748 0.096111
0.292180 -0.011651 0.010409
0.345734 -0.014114 0.075672
0.246244 -0.009603 0.114426
0.213938 -0.010742 0.039128
0.277398 -0.057531 0.082457
0.262166 -0.009114 0.039369
0.206211 -0.007912 0.092674
0.251473 -0.028152 0.023523
0.305553 -0.010936 0.068685
0.232235 -0.006108 0.001375
0.229577 -0.010899 0.078672
0.280541 -0.009597 0.105343
0.262610 -0.009795 0.063695
0.274871 -0.010320 0.155885
0.264558 -0.009634 0.117251
0.293045 -0.010790 0.052112
0.254902 -0.009409 0.080184
0.285913 -0.011014 0.128688
0.323384 -0.011132 0.030102
0.238892 -0.008439 0.131630
0.322660 -0.012977 0.130940
0.248398 -0.008182 0.092013
0.264525 -0.012934 -0.021491
0.216823 -0.008640 0.114961
0.279925 -0.011559 0.091969
0.241119 -0.008907 0.056470
0.243890 -0.009044 0.072420
0.092210 -0.027461 -0.001959
0.085159 -0.033167 0.017649
0.093392 -0.028755 -0.015401
0.086735 -0.032460 -0.022191
0.086990 -0.031834 -0.012756
0.100602 -0.023564 -0.071480
0.105214 -0.021784 -0.018239
0.100085 -0.026135 -0.002233
0.092705 -0.028599 -0.056812
0.079910 -0.037959 -0.029219
0.091231 -0.028900 -0.056299
0.081530 -0.035891 -0.024574
0.082912 -0.036393 -0.064188
0.098770 -0.023991 -0.029288
0.084093 -0.033663 -0.074566
0.077897 -0.037430 -0.042895
0.091534 -0.028359 -0.017901
0.098552 -0.024866 -0.044510
0.093625 -0.027601 0.026990
0.091694 -0.027112 -0.005392
0.096719 -0.025445 -0.050471
0.107252 -0.023696 -0.037087
0.095978 -0.026083 0.005101
0.099289 -0.023000 -0.062666
0.088039 -0.030818 0.006681
0.101555 -0.023710 0.012196
0.091268 -0.029191 -0.035399
0.094039 -0.028103 -0.084059
0.089398 -0.030897 -0.010470
0.100981 -0.023583 -0.022231
0.088488 -0.031567 -0.041378
0.097025 -0.025612 -0.039569
0.240359 -0.230128 -0.008449
0.217000 -0.229628 0.042994
0.211438 -0.224587 -0.017035
0.223899 -0.231490 -0.025765
0.256163 -0.232597 -0.013451
0.232420 -0.224882 -0.051964
0.278577 -0.224123 -0.026526
0.213737 -0.212015 0.000050
0.205808 -0.215432 -0.042616
0.230930 -0.242120 -0.039687
0.222939 -0.232941 -0.043104
0.192830 -0.227708 -0.021450
0.220990 -0.236094 -0.051777
0.235486 -0.229401 -0.032544
0.212203 -0.229841 -0.053471
0.207508 -0.232849 -0.032460
0.221402 -0.231704 -0.016191
0.216711 -0.224767 -0.035486
0.218451 -0.227049 0.086931
0.218959 -0.226674 -0.002294
0.229850 -0.231244 -0.038688
0.215344 -0.196607 -0.024770
0.228452 -0.223160 0.014678
0.254988 -0.227932 -0.052414
0.213923 -0.228833 0.013871
0.252515 -0.221207 0.040035
0.217107 -0.229374 -0.028596
0.226243 -0.230537 -0.069491
0.200210 -0.226306 -0.002643
0.227086 -0.210757 -0.021797
0.218871 -0.231735 -0.030307
0.217193 -0.221902 -0.030017
-0.139224 0.019946 -0.196926
-0.164775 0.018649 -0.184983
-0.178184 0.020426 -0.196683
-0.155585 0.020068 -0.198332
-0.132117 0.017735 -0.198347
-0.142845 0.020599 -0.211679
-0.120199 0.019645 -0.204069
-0.165485 0.019500 -0.194470
-0.189756 0.019029 -0.205718
-0.153027 0.015025 -0.199769
-0.162372 0.021767 -0.207866
-0.199146 0.019223 -0.198705
-0.168425 0.018009 -0.208841
-0.145235 0.021299 -0.202641
-0.179490 0.019660 -0.210192
-0.182932 0.018380 -0.200860
-0.148315 0.020652 -0.196018
-0.160047 0.021546 -0.203943
-0.150699 0.019868 -0.180288
-0.158539 0.020948 -0.191806
-0.153145 0.021024 -0.205352
-0.163563 0.018967 -0.201359
-0.143261 0.020934 -0.191565
-0.134031 0.020395 -0.208421
-0.172923 0.019794 -0.190101
-0.128482 0.019519 -0.187877
-0.162253 0.021766 -0.199736
-0.156490 0.019093 -0.212890
-0.187605 0.020069 -0.192616
-0.151240 0.020579 -0.198631
-0.174076 0.020272 -0.203515
-0.170844 0.021825 -0.202062
0.001134 -0.114412 -0.145415
-0.022624 -0.118219 -0.130014
-0.033771 -0.113686 -0.148820
-0.014813 -0.114230 -0.147620
0.008664 -0.113818 -0.143389
-0.001888 -0.108655 -0.156456
0.023147 -0.110989 -0.152161
-0.020020 -0.113670 -0.148488
-0.043828 -0.111118 -0.156131
-0.015116 -0.116209 -0.142899
-0.022960 -0.111672 -0.154107
-0.055605 -0.115080 -0.148912
-0.029720 -0.112928 -0.150159
-0.002931 -0.111508 -0.152957
-0.037245 -0.110352 -0.155117
-0.041030 -0.116465 -0.148234
-0.007369 -0.114315 -0.147649
-0.018222 -0.111465 -0.153176
-0.008036 -0.117685 -0.123977
-0.015018 -0.115847 -0.141308
-0.012665 -0.111640 -0.153907
-0.019039 -0.108694 -0.155806
-0.000271 -0.113592 -0.142399
0.009034 -0.110820 -0.153954
-0.027521 -0.116797 -0.140482
0.016448 -0.115238 -0.134651
-0.017810 -0.113520 -0.151427
-0.016513 -0.109560 -0.154933
-0.042986 -0.116650 -0.144231
-0.007859 -0.109725 -0.152341
-0.031207 -0.113489 -0.149974
-0.025862 -0.111966 -0.152624
0.075221 -0.118465 0.007010
0.032824 -0.121391 0.057974
0.010043 -0.118589 -0.020587
0.045441 -0.118147 -0.031665
0.083099 -0.120255 -0.012776
0.066042 -0.117396 -0.103989
0.095899 -0.118045 -0.039242
0.027141 -0.120359 0.002656
-0.012986 -0.117958 -0.088743
0.053903 -0.118646 -0.048067
0.041916 -0.117919 -0.088717
-0.028670 -0.118236 -0.037183
0.026369 -0.119009 -0.094611
0.075441 -0.118974 -0.061128
0.006262 -0.115870 -0.108417
0.000079 -0.121081 -0.055935
0.057117 -0.119595 -0.015429
0.047186 -0.117496 -0.071727
0.052452 -0.121379 0.083538
0.046551 -0.121001 0.003244
0.063216 -0.118728 -0.084153
0.038416 -0.117077 -0.061143
0.059154 -0.119393 0.027312
0.083769 -0.117253 -0.095361
0.013789 -0.119840 0.034730
0.086025 -0.119349 0.041858
0.028538 -0.118566 -0.045024
0.047586 -0.116401 -0.108101
-0.011498 -0.120063 0.000683
0.064194 -0.117013 -0.042139
0.016375 -0.118414 -0.077143
0.024777 -0.118954 -0.066999
0.083170 -0.030765 -0.020403
0.076615 -0.036148 -0.000408
0.084845 -0.031726 -0.035481
0.078110 -0.035476 -0.042767
0.078235 -0.035441 -0.032696
0.091754 -0.026639 -0.096417
0.096369 -0.024801 -0.038264
0.091282 -0.029004 -0.021137
0.084553 -0.031402 -0.080488
0.071853 -0.041557 -0.050755
0.082523 -0.032107 -0.079958
0.073944 -0.038674 -0.045863
0.074703 -0.039592 -0.088453
0.089858 -0.027097 -0.050747
0.075967 -0.036703 -0.100170
0.069839 -0.040395 -0.065172
0.082696 -0.031463 -0.037972
0.090052 -0.027716 -0.067733
0.084887 -0.030474 0.009722
0.082968 -0.030139 -0.025044
0.088065 -0.028687 -0.073878
0.098453 -0.026720 -0.059147
0.087228 -0.028940 -0.013046
0.090492 -0.026252 -0.087513
0.079380 -0.033515 -0.011525
0.092441 -0.026642 -0.006047
0.082652 -0.032255 -0.057127
0.085396 -0.031301 -0.110019
0.081093 -0.033617 -0.030133
0.092284 -0.026505 -0.043128
0.079813 -0.034773 -0.064265
0.088201 -0.028749 -0.062044
0.192107 -0.175681 -0.035126
0.190321 -0.173232 -0.030573
0.182779 -0.172241 -0.035670
0.188550 -0.176211 -0.037517
0.195542 -0.176971 -0.034254
0.186583 -0.175460 -0.037585
0.196541 -0.174572 -0.034146
0.186451 -0.171062 -0.031707
0.177400 -0.171995 -0.037382
0.191454 -0.180797 -0.038405
0.186371 -0.174092 -0.036698
0.174817 -0.172168 -0.037625
0.186020 -0.177875 -0.040827
0.187356 -0.174290 -0.034587
0.181856 -0.174379 -0.039609
0.182570 -0.176378 -0.038308
0.188584 -0.174011 -0.035232
0.184215 -0.174366 -0.034716
0.190751 -0.171864 -0.022946
0.187831 -0.172349 -0.035282
0.186732 -0.174293 -0.034905
0.183174 -0.168825 -0.032568
0.189082 -0.172830 -0.032332
0.190248 -0.175297 -0.036544
0.188456 -0.172110 -0.034327
0.193108 -0.172428 -0.027954
0.186341 -0.173454 -0.035763
0.183779 -0.176304 -0.042967
0.181283 -0.171371 -0.034046
0.186053 -0.171537 -0.032204
0.186948 -0.174797 -0.035532
0.184356 -0.173026 -0.034675
-0.039090 -0.085316 -0.175017
-0.061631 -0.087727 -0.173463
-0.073332 -0.067341 -0.174576
-0.050944 -0.086038 -0.174701
-0.032940 -0.090691 -0.174717
-0.045955 -0.064562 -0.173835
-0.025030 -0.062982 -0.175193
-0.056147 -0.060356 -0.175280
-0.080926 -0.060164 -0.174591
-0.053913 -0.092551 -0.172811
-0.066385 -0.078464 -0.173663
-0.087669 -0.078735 -0.174393
-0.069144 -0.089875 -0.173175
-0.052426 -0.066680 -0.175683
-0.074479 -0.077100 -0.173486
-0.081959 -0.087159 -0.173524
-0.042340 -0.076506 -0.174832
-0.063744 -0.070633 -0.173337
-0.049367 -0.080861 -0.172140
-0.054869 -0.078306 -0.175278
-0.060262 -0.074340 -0.174134
-0.061898 -0.054015 -0.174841
-0.039241 -0.068511 -0.174840
-0.033102 -0.080875 -0.175222
-0.058412 -0.080997 -0.174791
-0.029224 -0.073473 -0.173917
-0.047699 -0.072524 -0.175270
-0.053939 -0.071821 -0.173536
-0.080994 -0.073563 -0.174736
-0.045427 -0.056277 -0.174189
-0.070662 -0.083056 -0.172991
-0.064759 -0.064857 -0.174663
0.123562 -0.242765 -0.116660
0.123921 -0.242637 -0.108239
