-0.303253 -0.212012 0.108313
-0.290847 -0.193660 0.110311
-0.288741 0.002642 0.163649
-0.270729 -0.195008 0.080708
-0.263511 0.035101 0.176284
-0.203425 -0.136349 0.136548
-0.273656 0.059514 0.169460
-0.250670 0.029498 0.170523
-0.292934 0.077913 0.156181
-0.280187 0.110652 0.173377
-0.240153 -0.057313 0.128241
-0.242539 0.002977 0.152997
-0.286987 -0.014244 0.099890
-0.289600 0.071754 0.134202
-0.282658 0.099272 0.148166
-0.166598 -0.130910 0.125481
-0.286909 0.076530 0.122581
-0.252011 0.033981 0.125938
-0.090052 -0.200003 0.141143
-0.327403 -0.248773 -0.071168
-0.236137 0.045533 0.137907
-0.283883 0.193067 0.162497
-0.260944 0.104574 0.137966
-0.326223 -0.195147 -0.053722
-0.289444 0.073663 0.099458
-0.186045 -0.057987 0.116853
-0.277937 0.126235 0.128892
-0.113045 -0.189313 0.111088
-0.299321 -0.253886 -0.065316
-0.210261 -0.097488 0.079125
-0.218799 0.017314 0.123318
-0.161257 -0.037007 0.142168
-0.275698 -0.241742 -0.043641
-0.287617 0.116617 0.111099
-0.280987 0.085578 0.102088
-0.318210 0.037874 0.049291
-0.254842 0.037949 0.096955
-0.131243 -0.180361 0.091296
-0.244176 -0.236534 -0.023898
-0.174538 0.014435 0.146054
-0.287695 0.203065 0.142482
-0.282623 0.097209 0.098743
-0.246473 0.112718 0.130204
-0.270727 0.029961 0.072331
-0.157517 -0.026656 0.131354
-0.294134 -0.229147 -0.073281
-0.281758 0.182333 0.126391
-0.308480 -0.209372 -0.076661
-0.291076 0.177469 0.115882
-0.113620 -0.072518 0.136757
-0.224733 -0.230246 -0.027996
-0.282523 -0.189797 -0.055253
-0.175943 0.062804 0.141611
-0.247946 0.026817 0.069217
-0.279480 0.163230 0.105125
-0.194502 -0.227409 -0.012675
-0.280045 0.108459 0.076316
-0.149739 -0.015638 0.119777
-0.187279 0.040909 0.115539
-0.252829 -0.180717 -0.039112
-0.223597 -0.032488 0.052365
-0.129970 -0.032977 0.123975
-0.251976 -0.202438 -0.050491
-0.189980 -0.005231 0.089650
-0.289345 0.084669 0.052632
-0.266659 0.083746 0.069754
-0.249156 0.050335 0.064996
-0.289116 0.194686 0.098010
-0.334536 0.020232 -0.016875
-0.065796 -0.026576 0.167484
-0.216193 0.031208 0.078092
-0.246851 0.064037 0.069544
-0.260729 0.048244 0.050062
-0.286681 0.185467 0.091465
-0.226916 -0.192001 -0.039287
-0.160555 0.018756 0.109728
-0.276544 0.135792 0.073273
-0.190869 0.043913 0.097121
-0.127060 -0.025524 0.109854
-0.204622 -0.191278 -0.028160
-0.108237 -0.016379 0.127065
-0.184366 0.024376 0.086797
-0.235389 0.106884 0.084317
-0.148866 0.007210 0.105528
-0.288524 -0.001392 -0.006300
-0.140649 0.033462 0.121110
-0.256880 0.084559 0.053553
-0.271028 0.002564 0.005080
-0.057554 -0.051542 0.142551
-0.280402 0.104658 0.042370
-0.067765 -0.095227 0.109634
-0.092150 -0.015472 0.124995
-0.245232 0.023579 0.024905
-0.289597 0.073419 0.013021
-0.332870 0.007735 -0.051801
-0.226741 -0.116907 -0.027538
-0.266008 0.055346 0.021125
-0.106819 0.034210 0.132316
-0.250390 0.124822 0.062547
-0.187971 -0.168024 -0.025502
-0.304345 0.150315 0.030596
-0.148538 -0.012584 0.076369
-0.294001 0.119678 0.024447
-0.201734 0.132959 0.099608
-0.031320 -0.054577 0.142861
-0.293233 0.214413 0.064446
-0.282605 0.100765 0.021125
-0.227052 0.027865 0.029357
-0.023307 -0.031879 0.155524
-0.191684 -0.202039 -0.051913
-0.303753 0.150628 0.024987
-0.276378 0.128154 0.035488
-0.098131 0.011975 0.118555
-0.111185 -0.236139 -0.009301
-0.122682 0.012761 0.098095
-0.140856 -0.204362 -0.018778
-0.116453 -0.024747 0.083437
-0.124656 -0.169007 0.009628
-0.129158 -0.222505 -0.020509
-0.086658 0.056460 0.140936
-0.189698 -0.220883 -0.067600
-0.251176 0.035531 0.002361
-0.311054 -0.034076 -0.077853
-0.150305 -0.173748 -0.018364
-0.286012 0.196522 0.043840
-0.210112 0.089304 0.054275
-0.000639 -0.028846 0.157991
0.009196 -0.031934 0.162368
-0.106832 0.003808 0.089636
-0.318233 -0.015133 -0.086270
-0.057543 -0.067786 0.090315
-0.128758 -0.176236 -0.015125
-0.123345 -0.084256 0.032360
-0.280021 0.169491 0.027040
-0.243689 0.018682 -0.014154
-0.221650 -0.027918 -0.019913
-0.294324 0.204998 0.027631
-0.167396 0.025016 0.043573
-0.336108 0.029032 -0.086804
-0.354723 0.081493 -0.079515
0.075308 -0.234748 0.103202
-0.226906 0.062523 0.012604
-0.074168 -0.240222 -0.014386
-0.292657 0.212094 0.025792
-0.291260 0.079000 -0.033592
-0.095636 -0.176016 -0.000751
-0.148205 -0.180508 -0.044881
-0.305904 0.151562 -0.014357
0.021433 -0.043035 0.143668
-0.052916 -0.252965 -0.011111
-0.253033 0.038174 -0.028198
-0.006481 -0.022756 0.130448
-0.015653 -0.021144 0.123408
-0.170527 -0.175481 -0.067084
-0.282939 -0.096105 -0.118559
-0.277179 0.134677 -0.006175
-0.337476 0.051205 -0.092128
-0.185989 -0.037163 -0.015074
-0.076469 -0.070836 0.051805
0.065282 -0.088969 0.146728
-0.184156 -0.205583 -0.097807
-0.064924 -0.003439 0.088354
-0.279264 0.116343 -0.021783
0.080124 -0.202732 0.102749
-0.095617 -0.189975 -0.023721
-0.181352 -0.230759 -0.110044
-0.029252 0.005324 0.116177
-0.143074 -0.017930 0.016014
-0.294034 -0.060693 -0.123039
-0.280956 0.179747 -0.001680
-0.216841 -0.085612 -0.074544
0.111876 -0.254301 0.094198
-0.151967 0.030968 0.028776
-0.302960 -0.036836 -0.123478
0.040773 -0.064415 0.127247
-0.245005 0.014422 -0.054364
-0.299851 0.064779 -0.074867
-0.145946 -0.185541 -0.074567
-0.291088 0.079184 -0.065057
0.091725 -0.230530 0.082076
-0.310710 -0.012577 -0.125288
-0.063095 -0.214023 -0.028541
-0.058959 -0.183753 -0.010784
-0.167527 -0.180422 -0.092806
-0.292235 0.211624 -0.009226
0.079598 -0.037647 0.158843
-0.319734 0.010771 -0.124676
-0.281064 -0.086155 -0.142378
-0.250347 -0.158260 -0.154277
-0.327648 0.036008 -0.124396
-0.029966 -0.252490 -0.029399
-0.048991 -0.235599 -0.037062
-0.278764 0.150883 -0.034498
-0.178999 -0.203854 -0.123851
0.072538 -0.038535 0.144412
0.101375 -0.028447 0.169263
-0.176024 -0.252921 -0.147799
-0.192863 -0.029858 -0.055094
-0.217704 -0.158514 -0.136487
-0.279670 0.114951 -0.055938
-0.249682 0.032202 -0.073142
0.109099 -0.190211 0.093449
-0.335166 0.058167 -0.130863
-0.347142 0.080477 -0.129859
-0.240474 -0.014282 -0.091554
0.099478 -0.053807 0.146770
-0.292075 0.078105 -0.090114
-0.284783 0.171941 -0.042731
-0.141763 -0.196727 -0.106336
-0.308716 -0.005430 -0.146390
-0.040266 -0.193623 -0.027658
-0.015478 -0.193626 -0.010347
-0.027032 -0.231412 -0.038335
-0.280929 0.187236 -0.039010
-0.349030 0.104536 -0.131608
-0.279920 0.141226 -0.060220
-0.012394 -0.220180 -0.023308
0.110191 -0.220387 0.067788
0.008015 -0.025536 0.081628
-0.293135 0.210281 -0.042287
0.127600 -0.138070 0.116143
-0.290718 -0.037238 -0.156866
-0.073486 0.009183 0.033283
-0.251645 0.034086 -0.094657
-0.259758 -0.106107 -0.169102
-0.351314 0.127694 -0.131289
-0.082251 -0.005165 0.015218
-0.355656 0.149818 -0.126782
0.127726 -0.240429 0.060622
0.113014 -0.023033 0.148961
-0.292970 0.079503 -0.112319
-0.285031 0.096953 -0.098924
-0.245348 0.052960 -0.088132
-0.134016 -0.241937 -0.146465
-0.359197 0.173675 -0.126549
0.102548 -0.044692 0.125140
0.128953 -0.118517 0.109121
-0.169369 -0.205242 -0.157847
0.075407 -0.039711 0.105619
-0.337267 0.085299 -0.153831
-0.225019 -0.132556 -0.167957
-0.159908 -0.227255 -0.162834
-0.174951 -0.149596 -0.137505
-0.264212 -0.065031 -0.167453
-0.202610 -0.144343 -0.156423
0.093019 -0.031183 0.120926
-0.290277 -0.015567 -0.164665
-0.268911 0.056026 -0.115585
0.128167 -0.184370 0.073982
-0.320456 0.052365 -0.158293
-0.033627 -0.025181 0.027962
-0.363190 0.197483 -0.125964
-0.178841 0.005676 -0.070386
0.159133 -0.015300 0.169825
0.087766 0.021102 0.134814
0.123336 -0.062868 0.120328
-0.136677 -0.202054 -0.142913
-0.243357 0.019889 -0.119830
-0.306126 0.033311 -0.164448
-0.269375 -0.036657 -0.169010
0.125681 -0.205848 0.053073
-0.366643 0.222181 -0.126002
-0.341669 0.125157 -0.153413
0.149169 -0.040238 0.142661
-0.285011 0.096711 -0.125312
-0.218527 -0.110610 -0.171757
-0.255571 0.040781 -0.129913
0.137442 -0.017703 0.139031
0.133247 -0.223809 0.039600
-0.280628 0.003684 -0.170612
-0.288915 0.195790 -0.088350
0.146153 -0.035523 0.133927
-0.278873 0.144363 -0.108909
0.084543 -0.051534 0.077464
-0.232813 -0.068942 -0.174719
-0.300653 0.053566 -0.170352
0.115447 -0.022146 0.110394
-0.313317 0.074493 -0.171823
-0.279741 0.116980 -0.125980
0.228150 -0.086163 0.162376
-0.187678 -0.120400 -0.168815
-0.242422 0.017555 -0.146453
-0.161315 -0.135799 -0.155932
-0.213014 -0.088845 -0.174995
0.147375 -0.178179 0.057604
-0.282567 0.172533 -0.109186
-0.289679 0.084307 -0.156764
0.096620 -0.029746 0.083715
-0.249709 -0.015186 -0.174917
0.140479 -0.195693 0.037449
0.077075 -0.037778 0.060389
-0.074485 -0.057968 -0.063314
-0.360980 0.246305 -0.146274
-0.320729 0.120805 -0.172542
0.056523 -0.036020 0.041862
-0.342415 0.187500 -0.162446
-0.264201 0.046254 -0.167107
-0.252845 0.024866 -0.167828
-0.229441 -0.028650 -0.175362
-0.238526 0.003945 -0.168071
-0.279110 0.155092 -0.129810
-0.209582 -0.049128 -0.175664
-0.172552 -0.098707 -0.171349
-0.324336 0.152418 -0.172786
0.141916 -0.016216 0.104608
-0.283175 0.104349 -0.162171
-0.131704 -0.130941 -0.155292
-0.282498 0.180092 -0.129350
0.171221 -0.013412 0.124775
0.054887 -0.033443 0.030146
-0.192196 -0.064017 -0.175557
-0.150031 -0.114885 -0.167918
-0.298680 0.114378 -0.176552
0.098229 -0.028699 0.060075
0.154723 -0.201117 0.019532
-0.090408 -0.132710 -0.137005
0.120004 -0.020589 0.074612
0.158189 -0.177364 0.029386
0.188772 -0.079356 0.096832
0.064444 -0.136364 -0.021618
-0.277667 0.134042 -0.159929
0.189729 -0.177941 0.048790
-0.342887 0.232077 -0.166694
-0.039510 -0.040775 -0.058093
0.235904 -0.039813 0.145098
-0.279812 0.164077 -0.149579
0.093910 -0.007230 0.054440
0.235675 -0.058454 0.131271
-0.325339 0.204148 -0.173043
-0.100497 0.051417 -0.068461
-0.105030 -0.125094 -0.155900
0.069130 -0.042783 0.012047
-0.299395 0.164461 -0.175852
0.187568 -0.013978 0.109339
-0.169487 -0.040309 -0.171832
0.100500 -0.027924 0.037278
-0.006555 -0.004644 -0.031945
-0.320498 0.249055 -0.160799
-0.222893 -0.024340 -0.211905
0.120747 -0.020172 0.051746
-0.190407 -0.022852 -0.186780
-0.304844 0.192107 -0.175387
-0.296132 0.216737 -0.161945
-0.149345 -0.055493 -0.175706
0.170841 -0.179665 0.007895
0.145349 -0.016791 0.064282
0.229973 -0.053631 0.108305
-0.128774 -0.078291 -0.173764
0.125202 -0.035274 0.035568
-0.047066 -0.125021 -0.136771
0.258753 -0.180198 0.064921
0.065836 -0.045678 -0.014701
-0.229203 -0.002508 -0.223272
0.229045 -0.015314 0.116545
-0.221933 0.019586 -0.208438
-0.065045 -0.121009 -0.153596
0.323685 -0.201707 0.094904
0.299485 -0.193285 0.079986
-0.094444 -0.098255 -0.169178
0.077498 -0.244257 -0.111056
0.164798 -0.174961 -0.017332
0.286626 -0.188989 0.060912
-0.108443 -0.059321 -0.175687
0.150226 -0.178540 -0.036385
-0.129595 -0.022821 -0.175824
-0.198064 0.020621 -0.208824
0.064522 -0.047729 -0.039963
0.081226 -0.201288 -0.101695
0.098205 -0.254395 -0.115778
-0.069578 -0.099220 -0.168623
0.265485 -0.181320 0.041081
0.104159 -0.026579 -0.005220
0.162974 -0.236117 -0.062992
0.099099 -0.034213 -0.015622
0.124440 -0.019190 0.009173
0.114811 -0.188678 -0.079321
-0.187313 -0.002573 -0.222863
-0.070667 -0.021536 -0.141051
0.188527 -0.230351 -0.046072
0.133969 -0.182462 -0.063473
0.146319 -0.238342 -0.080792
-0.103271 -0.038741 -0.175650
-0.151146 -0.021486 -0.205122
0.186003 -0.157608 -0.014353
-0.002911 -0.116646 -0.137073
0.000008 -0.008747 -0.084742
0.252185 -0.016821 0.096651
0.094397 -0.030248 -0.024755
0.217649 -0.234370 -0.029743
-0.162685 0.024070 -0.197871
-0.018438 -0.113589 -0.152337
0.053181 -0.118300 -0.107345
0.085970 -0.032112 -0.042590
0.185768 -0.173184 -0.035677
-0.058499 -0.073322 -0.172207
0.118005 -0.243332 -0.119899
-0.038943 -0.094594 -0.168213
0.158890 -0.207755 -0.075929
0.058691 -0.051839 -0.076405
0.098142 0.000982 -0.022495
0.188611 -0.192429 -0.047358
0.131489 -0.220506 -0.103250
0.098453 -0.215753 -0.126748
-0.083061 -0.021973 -0.172956
0.167097 -0.184687 -0.063108
0.211586 -0.196026 -0.035605
0.123818 -0.198230 -0.103573
0.116987 -0.021915 -0.025537
-0.155287 0.003899 -0.220878
0.075335 -0.037818 -0.068071
0.025217 -0.109571 -0.140395
-0.115057 -0.019492 -0.205323
0.234086 -0.236914 -0.046119
0.198375 -0.132816 -0.023765
-0.123846 0.024495 -0.194568
-0.037915 -0.065780 -0.171918
-0.058793 -0.039183 -0.175525
0.223328 -0.171917 -0.027919
0.230342 -0.150933 -0.013479
0.153306 -0.015213 -0.008748
0.225749 -0.216161 -0.050051
0.055210 -0.056345 -0.103200
-0.133538 0.003635 -0.219369
0.057158 -0.118875 -0.131892
-0.009205 -0.085465 -0.168183
0.108947 -0.024218 -0.053254
0.218307 -0.067700 0.005594
-0.085324 -0.019201 -0.200316
-0.035130 -0.022970 -0.168630
0.245166 -0.048958 0.028143
-0.009572 -0.063648 -0.171523
0.232107 -0.186712 -0.051892
0.030983 -0.096785 -0.159114
0.128232 -0.017390 -0.049266
-0.105299 0.020120 -0.210656
0.080863 -0.032426 -0.096338
0.055580 -0.056296 -0.129720
0.012148 -0.070640 -0.170637
0.258457 -0.240361 -0.069011
-0.014537 -0.033936 -0.175129
0.158462 -0.014570 -0.037410
0.063018 -0.116469 -0.156986
0.265612 -0.178312 -0.037122
0.001624 -0.019851 -0.157964
-0.077163 0.015131 -0.203284
0.094108 -0.118383 -0.143800
0.249900 -0.206800 -0.071045
0.011813 -0.048322 -0.173120
0.050306 -0.093495 -0.167571
0.122009 -0.019729 -0.079682
0.126274 -0.121423 -0.129323
0.102991 -0.025727 -0.105027
0.052185 -0.066292 -0.163902
0.034321 -0.045536 -0.168311
0.147070 -0.051626 -0.087350
0.143880 -0.002088 -0.066813
0.084823 -0.031121 -0.129173
0.164421 -0.014108 -0.062075
0.279976 -0.182377 -0.056894
0.242085 -0.094195 -0.047421
0.283181 -0.244860 -0.090264
0.269308 -0.207623 -0.087536
0.065319 -0.043604 -0.162775
0.065827 -0.077614 -0.182221
0.294978 -0.187639 -0.074630
0.135483 -0.113571 -0.160166
0.092578 -0.080058 -0.180464
0.107485 -0.024808 -0.145216
0.125961 -0.019153 -0.129809
0.080960 -0.061616 -0.184694
0.289427 -0.201535 -0.100199
0.171723 -0.013187 -0.108921
0.176792 -0.115832 -0.155827
0.299421 -0.231351 -0.122284
0.321114 -0.252393 -0.118249
0.096329 -0.040892 -0.187010
0.102959 -0.022299 -0.176543
0.152478 -0.095418 -0.176324
0.328671 -0.194333 -0.097399
0.117125 -0.049737 -0.185903
0.307576 -0.210486 -0.122054
0.204572 -0.117915 -0.152723
0.140226 -0.071334 -0.182219
0.226234 -0.118612 -0.149755
0.192434 -0.096934 -0.174740
0.162925 -0.066060 -0.183137
0.142401 -0.012471 -0.175897
0.182919 -0.076523 -0.181343
0.165297 -0.044195 -0.184834
0.261586 -0.115154 -0.157173
0.187757 -0.045879 -0.184234
0.249312 -0.100079 -0.172684
0.223028 -0.077195 -0.181325
0.211541 -0.054091 -0.183737
0.191740 -0.016042 -0.182438
0.213443 -0.007111 -0.162927
0.321227 -0.116752 -0.151160
0.252347 -0.064081 -0.183304
0.233521 -0.006676 -0.173799
0.230928 -0.025686 -0.185831
0.300728 -0.093836 -0.175473
0.280154 -0.072758 -0.181365
0.251789 -0.035671 -0.185185
0.360967 -0.119533 -0.147707
0.263310 -0.016119 -0.182035
0.339004 -0.106268 -0.169743
0.321756 -0.073314 -0.180786
0.306537 -0.052329 -0.183717
0.341042 -0.083906 -0.179963
0.303201 -0.029171 -0.184128
0.340073 -0.039477 -0.180527
0.359015 -0.067447 -0.179563
