-0.107500 0.161423 0.446556
-0.120524 0.162011 0.414922
-0.131570 0.161264 0.388555
-0.050403 0.161886 0.445063
-0.093734 -0.171199 0.249950
-0.063060 0.161931 0.414247
-0.054300 -0.037142 0.333250
-0.089254 0.164355 0.390896
-0.082239 -0.158210 0.249756
-0.001612 -0.156925 0.308797
-0.033308 -0.125001 0.299196
-0.062746 -0.172959 0.249082
-0.008105 -0.129974 0.307538
0.017844 -0.171376 0.307891
-0.075533 0.162515 0.384375
-0.075613 -0.124125 0.258621
-0.071162 -0.146241 0.248862
-0.040315 0.168071 0.409192
-0.031752 -0.093438 0.299532
-0.061712 -0.155533 0.249351
-0.004686 -0.151392 0.291988
-0.058678 0.172136 0.391644
-0.043644 -0.170929 0.249627
-0.031289 -0.072982 0.300139
-0.083851 0.161615 0.363270
-0.061242 -0.134355 0.249279
-0.022959 -0.112607 0.286030
-0.042908 -0.149173 0.250237
-0.081060 0.170835 0.363475
0.005940 -0.165631 0.277186
-0.023431 -0.123425 0.273932
-0.025062 -0.167895 0.249779
-0.030868 -0.042768 0.300247
-0.091881 0.162671 0.344907
-0.009145 -0.130997 0.276298
-0.043209 -0.129647 0.249626
-0.022072 -0.082825 0.286353
-0.003318 -0.155350 0.266678
-0.032538 0.102999 0.358904
-0.027186 -0.113058 0.264152
-0.044131 -0.104180 0.255756
-0.009821 -0.135290 0.264485
-0.022030 -0.092447 0.273723
-0.030654 -0.012158 0.301324
0.061085 0.150694 0.436571
-0.021225 -0.051424 0.287765
-0.014813 -0.140695 0.249257
0.003046 -0.169753 0.249451
-0.023729 -0.126971 0.249158
-0.061441 0.132607 0.335119
-0.036067 -0.083501 0.257789
0.015760 0.182806 0.410215
-0.021516 -0.062852 0.274455
-0.030469 0.013565 0.300568
-0.043553 -0.064254 0.256592
-0.026329 -0.073042 0.264731
-0.021007 -0.022395 0.287668
0.025775 -0.172873 0.252951
0.042810 -0.074244 0.308820
0.051314 0.151359 0.412162
-0.021278 -0.042460 0.274581
-0.113641 0.161906 0.295411
-0.030263 0.034938 0.300959
-0.042746 -0.043082 0.256659
0.044509 0.158229 0.407896
-0.025885 -0.052105 0.264877
-0.053120 0.164974 0.337973
-0.021018 -0.001976 0.288029
0.004158 0.159897 0.375672
-0.030342 0.054511 0.300588
-0.025497 -0.032592 0.266053
0.000959 0.155207 0.367131
-0.021350 0.066778 0.311161
-0.012264 0.172383 0.363248
0.042710 0.150693 0.393264
-0.020484 -0.012402 0.275937
-0.034932 -0.023961 0.259424
-0.122078 0.161483 0.275332
0.038034 0.051122 0.342883
-0.021096 0.023399 0.287583
-0.030257 0.075228 0.300697
-0.042452 0.001510 0.258156
-0.047299 0.164848 0.323404
-0.025551 0.002341 0.266658
-0.020440 0.013195 0.275269
-0.021127 0.043516 0.287749
0.013579 0.014153 0.300056
0.104856 0.150970 0.423831
-0.130790 0.161865 0.256691
-0.030619 0.095712 0.300645
-0.042303 0.022463 0.258152
-0.034236 0.012847 0.259837
0.012694 0.088803 0.326348
-0.021097 0.064062 0.288530
-0.020410 0.033630 0.275613
-0.025290 0.023289 0.265917
-0.016581 0.136033 0.319074
-0.051745 0.152759 0.301219
-0.042439 0.042899 0.257755
0.096599 0.150517 0.404399
-0.031140 0.126171 0.300084
-0.020732 0.054621 0.275547
0.133089 0.164720 0.432487
-0.025822 0.043491 0.265434
-0.047598 0.041092 0.247996
-0.031292 0.147621 0.300955
-0.021316 0.104474 0.287462
-0.025682 0.063360 0.265723
-0.047589 0.131302 0.278879
-0.041902 0.074146 0.257765
-0.000456 0.143202 0.316599
0.088074 0.150808 0.382508
-0.021039 0.083773 0.275157
0.038824 0.164620 0.352628
-0.071191 0.164420 0.271385
-0.028498 0.158770 0.300192
0.067893 0.162121 0.370239
0.007789 -0.008421 0.251421
-0.042195 0.094423 0.257766
-0.085773 0.154188 0.251963
0.131419 0.151942 0.406738
0.088087 0.149979 0.374815
-0.021945 0.135396 0.287605
0.079093 0.091230 0.337171
0.081890 0.151120 0.364730
-0.021492 0.114298 0.274580
-0.026063 0.103847 0.265690
-0.042575 0.114492 0.258156
-0.001460 -0.051820 0.215000
-0.022006 0.157242 0.287584
-0.026315 0.123985 0.266025
-0.082668 0.163061 0.240648
0.131334 0.150672 0.388706
0.072543 0.151642 0.343061
0.131006 0.168712 0.390377
-0.027003 0.145001 0.265590
0.052926 0.137962 0.319777
-0.042822 0.158342 0.258164
0.065948 0.152120 0.325119
-0.095004 0.163443 0.212262
0.128547 0.150063 0.367788
-0.050060 0.156438 0.238237
0.014455 0.159008 0.286166
0.005603 0.153579 0.270422
0.130675 0.172042 0.367060
-0.102787 0.163734 0.192624
0.056841 0.152377 0.303248
0.075368 0.176241 0.325815
0.130725 0.154656 0.349180
0.042679 0.164567 0.290212
-0.111285 0.162528 0.172318
0.112225 0.150381 0.328698
0.069707 0.174454 0.306721
-0.092085 0.170947 0.186713
0.044876 0.151924 0.276328
-0.117195 0.162811 0.157914
0.057079 0.101344 0.258989
0.103664 0.151176 0.307622
-0.035993 0.179163 0.216808
-0.049219 0.163536 0.198722
0.130221 0.164435 0.327669
-0.126146 0.161663 0.138238
0.018406 0.138324 0.231183
-0.030620 0.113470 0.184321
0.130112 0.152567 0.315930
0.096961 0.151104 0.289984
0.000606 0.154214 0.219236
-0.057459 0.162752 0.179741
0.091614 0.151028 0.277289
0.045634 0.138789 0.237188
0.050703 0.047653 0.199671
0.129840 0.174335 0.311194
0.099552 0.157980 0.281977
-0.065490 0.163198 0.161571
0.130002 0.162511 0.299471
0.052525 0.149171 0.237718
0.084600 0.151818 0.260886
-0.068590 0.174818 0.158136
-0.012632 0.159160 0.190485
0.129679 0.151316 0.288509
0.075767 0.151551 0.238774
-0.079346 0.163088 0.128706
0.012478 0.045524 0.144195
0.033959 0.094872 0.172640
-0.087921 0.163006 0.109845
0.066123 0.150946 0.217327
0.126687 0.150489 0.258530
0.129290 0.171956 0.268494
0.088259 0.152336 0.219472
0.117668 0.150699 0.238192
-0.043844 0.140141 0.114221
-0.099853 0.162498 0.082073
0.055346 0.151323 0.191570
0.129075 0.164629 0.245921
-0.105593 0.162053 0.068182
0.110508 0.150400 0.220429
0.045397 0.150567 0.169401
0.047853 0.152680 0.172618
0.008469 0.163759 0.143233
-0.113173 0.161538 0.048651
-0.038439 0.177022 0.109509
0.101713 0.150816 0.199984
0.128900 0.153456 0.219893
0.096341 0.150156 0.186721
-0.051141 0.163421 0.083494
0.128478 0.174348 0.215400
0.089385 0.150872 0.171022
0.127993 0.152146 0.199065
0.012026 0.147801 0.112238
-0.072398 0.137915 0.044594
-0.128715 0.161067 0.010853
-0.063457 0.162691 0.055135
0.084974 0.150984 0.157804
0.006616 0.096774 0.074562
0.031102 -0.021929 0.036957
-0.071128 0.162328 0.036863
0.127801 0.166685 0.183638
0.077305 0.150840 0.140566
0.072108 0.151173 0.128523
0.127679 0.150470 0.167525
-0.020982 0.018377 -0.002054
-0.080191 0.161849 0.013737
0.084919 0.118132 0.114708
-0.052468 0.162819 0.032537
0.038037 0.170976 0.101716
0.086699 0.185447 0.142820
0.122224 0.150406 0.149723
0.088497 0.151840 0.124178
-0.088650 0.161713 -0.004061
0.060153 0.150845 0.098944
0.127067 0.170087 0.152779
-0.093812 0.162045 -0.017495
0.113855 0.149792 0.129464
0.127199 0.163601 0.137309
0.046928 0.149788 0.069176
0.127404 0.153104 0.127247
0.105513 0.150197 0.109156
-0.105074 0.162206 -0.044837
0.100045 0.149437 0.097544
-0.085183 0.176077 -0.030748
-0.023413 0.153261 0.001807
-0.114587 0.161933 -0.067976
0.027890 0.073084 -0.003626
0.050696 0.160577 0.053002
0.091670 0.149901 0.077325
0.127255 0.161558 0.107628
-0.054733 0.162692 -0.030813
-0.122605 0.161665 -0.085872
-0.006954 0.139074 -0.011744
0.085027 0.150321 0.060708
-0.062189 0.162581 -0.049502
-0.130674 0.160781 -0.105540
0.126406 0.165693 0.088581
0.013184 0.156539 -0.005972
-0.071755 0.164469 -0.067650
-0.071371 0.162079 -0.071732
0.126345 0.149919 0.069842
0.071410 0.150594 0.027978
0.118792 0.149401 0.048903
0.063054 0.150720 0.008322
0.125679 0.168799 0.060057
0.113721 0.149455 0.037163
-0.088238 0.162368 -0.111281
-0.061541 0.134181 -0.104554
0.054482 0.150660 -0.011833
-0.026277 -0.046307 -0.166060
0.105317 0.149788 0.016844
0.125326 0.172154 0.040952
0.045910 0.150365 -0.033054
0.093518 0.162768 0.007815
0.125665 0.152503 0.026101
-0.105360 0.162199 -0.149774
-0.024842 0.125801 -0.108368
0.038611 0.149626 -0.049922
0.093065 0.149511 -0.011921
0.062239 0.166247 -0.027769
0.053286 0.141640 -0.046237
0.048365 0.076677 -0.080537
0.088440 0.149829 -0.023413
0.043085 0.164772 -0.050855
0.124934 0.165141 0.007886
-0.002647 0.063631 -0.134743
0.125032 0.150542 -0.001983
-0.118629 0.161764 -0.182236
-0.060190 0.154585 -0.140920
-0.056043 0.162223 -0.134846
-0.025948 -0.124209 -0.249877
-0.072866 -0.168150 -0.310740
0.081557 0.150515 -0.042732
-0.002097 -0.152312 -0.250725
-0.126185 0.162039 -0.200076
0.124747 0.164113 -0.010806
0.022586 0.041081 -0.143703
-0.005937 -0.130090 -0.249311
0.124320 0.149697 -0.019772
-0.065207 0.162225 -0.156355
-0.132166 0.161560 -0.213974
-0.100728 0.153307 -0.195293
0.027700 -0.170170 -0.252093
0.003725 -0.159157 -0.265863
-0.027240 -0.114501 -0.269325
0.002305 0.170051 -0.111571
0.069352 0.150838 -0.070596
0.121687 0.149415 -0.033143
-0.072305 -0.124441 -0.310474
-0.044327 -0.168106 -0.310011
0.025467 0.149071 -0.104881
-0.004384 -0.146711 -0.269211
-0.032603 -0.084923 -0.262908
-0.074137 0.162639 -0.178227
0.019666 0.161666 -0.108311
0.065162 0.150987 -0.081861
0.013496 -0.166268 -0.273199
-0.005475 -0.124535 -0.267940
-0.043337 -0.145126 -0.310469
0.112734 0.148669 -0.053516
-0.004275 -0.145885 -0.281797
-0.081474 0.162836 -0.195082
-0.044909 -0.123938 -0.305815
0.124688 0.167562 -0.041887
-0.017597 -0.168806 -0.311017
-0.025971 -0.067840 -0.267791
0.021109 -0.004906 -0.202710
-0.028912 -0.122739 -0.299039
-0.023475 -0.112767 -0.290592
-0.031380 -0.037737 -0.261374
-0.044861 -0.106472 -0.306292
0.052835 0.150636 -0.110217
-0.025543 -0.054589 -0.267350
0.000413 -0.153239 -0.296039
-0.022135 -0.095785 -0.286402
-0.016944 -0.150537 -0.310643
-0.004836 -0.123442 -0.289715
-0.094845 0.162622 -0.225224
0.048119 0.151061 -0.121658
-0.030976 -0.015847 -0.261501
-0.033608 -0.095901 -0.303105
-0.021137 -0.075383 -0.282797
0.123995 0.161502 -0.061320
0.006833 -0.160826 -0.306661
0.097580 0.150604 -0.089796
-0.002227 -0.148005 -0.308816
-0.016137 -0.128714 -0.310657
0.123701 0.150757 -0.074858
-0.043854 -0.068233 -0.305942
-0.030806 0.005660 -0.260830
-0.020594 -0.054404 -0.281903
-0.024785 0.050344 -0.234982
0.019002 -0.168343 -0.308432
-0.028389 -0.075294 -0.299829
0.092472 0.149959 -0.101649
-0.103830 0.163302 -0.248345
-0.020372 -0.037201 -0.281352
0.035967 0.150297 -0.149909
-0.043549 -0.046074 -0.304985
0.123340 0.164885 -0.082210
0.007797 -0.015157 -0.254029
0.023541 0.120297 -0.178028
-0.023775 0.158898 -0.197682
-0.027481 -0.044997 -0.298873
0.084755 0.150876 -0.120625
-0.024714 0.023890 -0.266601
-0.043163 -0.024888 -0.305313
-0.066333 0.153401 -0.240258
-0.057398 0.164321 -0.231568
0.079851 0.151435 -0.133219
-0.021969 -0.015534 -0.290247
-0.027454 -0.024088 -0.298792
-0.030875 0.062817 -0.260500
0.122922 0.149518 -0.103599
-0.028194 0.154349 -0.215591
-0.042817 -0.007758 -0.304554
-0.024366 0.045520 -0.267208
0.095284 0.158303 -0.124976
-0.073183 0.173761 -0.247246
-0.042720 0.005707 -0.304837
0.051197 0.148067 -0.165778
-0.125760 0.161367 -0.297851
0.072136 0.151325 -0.151584
-0.021742 0.014928 -0.289854
-0.066638 0.165424 -0.252873
-0.026921 0.006641 -0.298337
-0.030933 0.092989 -0.260851
0.119596 0.149225 -0.120850
0.122809 0.167712 -0.112355
-0.024609 0.075762 -0.267379
0.067398 0.151533 -0.163718
-0.042661 0.031835 -0.305334
-0.132050 0.162451 -0.313208
-0.026473 0.024148 -0.298432
-0.033495 -0.024538 -0.328729
0.032534 -0.074248 -0.303896
0.045179 0.172734 -0.178316
-0.021358 0.045067 -0.289946
-0.026862 0.036775 -0.298427
-0.042573 0.053304 -0.304972
-0.019669 0.067030 -0.281678
-0.055008 0.133280 -0.277611
0.059222 0.151260 -0.182751
0.062007 0.123289 -0.193164
-0.025703 0.115000 -0.267168
0.122527 0.166418 -0.134238
-0.043245 0.075780 -0.304601
-0.032153 0.062419 -0.302478
0.048950 0.013164 -0.262690
0.122415 0.152081 -0.143375
-0.032504 0.156919 -0.260972
0.102245 0.150353 -0.162049
-0.087209 0.163484 -0.301949
-0.027508 0.074648 -0.298304
-0.022085 0.083419 -0.290536
0.051287 0.151444 -0.201855
-0.025623 0.137156 -0.267554
-0.043300 0.106558 -0.305324
-0.032221 0.093145 -0.302519
-0.022437 0.104981 -0.290564
0.094753 0.150595 -0.180330
-0.020559 0.122674 -0.281269
0.077005 0.165370 -0.187876
0.043254 0.151649 -0.221259
-0.099843 0.163814 -0.331659
0.049175 0.127314 -0.235909
0.019380 0.165594 -0.239918
0.122489 0.165610 -0.162924
-0.044128 0.132766 -0.305220
0.010543 0.090194 -0.284192
0.121753 0.150759 -0.171810
-0.027884 0.122695 -0.299035
-0.023013 0.135474 -0.290834
0.034720 0.150895 -0.240535
-0.021487 0.155058 -0.281762
-0.043964 0.155572 -0.304594
0.082451 0.151174 -0.210646
-0.108266 0.163571 -0.351768
0.024072 0.170480 -0.248456
-0.027162 0.157065 -0.294072
-0.028372 0.155521 -0.298429
-0.029456 0.109451 -0.321404
0.121347 0.150042 -0.191602
-0.115555 0.162896 -0.369138
0.121246 0.173399 -0.183201
-0.059212 0.166094 -0.324841
-0.063944 0.164356 -0.335940
0.070128 0.152104 -0.240040
-0.124619 0.162217 -0.389241
0.121182 0.167335 -0.200372
0.053817 0.114891 -0.280930
-0.071992 0.163842 -0.355611
0.061816 0.151443 -0.261653
-0.134185 0.162367 -0.409892
-0.053115 0.138039 -0.359931
0.121022 0.153423 -0.220415
0.120841 0.171759 -0.212037
0.004272 0.170676 -0.304461
-0.080932 0.163267 -0.376127
0.100586 0.150800 -0.243693
-0.066662 0.141042 -0.378367
-0.039949 0.154256 -0.358636
0.047940 0.152254 -0.292867
0.120570 0.165137 -0.231727
0.120107 0.151589 -0.240335
0.093053 0.151029 -0.262885
0.034546 0.063679 -0.349087
0.076226 0.184483 -0.260409
-0.092829 0.163931 -0.404207
0.049404 0.109636 -0.329206
0.119929 0.163886 -0.252298
0.035534 0.152305 -0.322770
-0.101723 0.163798 -0.424769
0.082034 0.152589 -0.291352
0.058380 0.174165 -0.300762
-0.107557 0.162492 -0.437855
0.119689 0.150263 -0.272276
0.075802 0.160104 -0.301594
0.072861 0.152400 -0.313155
0.014841 0.133767 -0.367127
-0.061541 0.163264 -0.414790
0.031746 0.168887 -0.339942
0.119224 0.171364 -0.282797
-0.071048 0.162527 -0.434904
0.061052 0.152395 -0.341737
0.119382 0.152861 -0.301828
0.098275 0.149864 -0.321970
0.048228 0.151717 -0.370122
-0.006797 0.145092 -0.420628
0.118213 0.173511 -0.320204
0.038871 0.151633 -0.391661
0.118546 0.151303 -0.331139
0.079673 0.152193 -0.370344
0.045538 0.169028 -0.388504
0.117092 0.150169 -0.349803
0.090167 0.162361 -0.363753
0.071479 0.152197 -0.390761
0.117806 0.172345 -0.348988
0.107993 0.150351 -0.370207
0.118129 0.158946 -0.360071
0.077533 0.161581 -0.392607
0.063942 0.151716 -0.408429
0.054099 0.151233 -0.428455
0.117836 0.152909 -0.381404
0.095330 0.150881 -0.401368
0.043724 0.150917 -0.450853
0.116576 0.173599 -0.385054
0.117741 0.151172 -0.399014
0.083738 0.151825 -0.431122
0.116830 0.163360 -0.409152
0.075845 0.151418 -0.449048
0.065596 0.166879 -0.451317
0.110986 0.150119 -0.429388
0.116127 0.171496 -0.418973
0.102404 0.150705 -0.450364
0.115993 0.164894 -0.451173
