-0.060142 0.178204 -0.097396
-0.079400 0.170841 0.074990
-0.029074 0.173981 -0.180757
-0.022135 0.185570 -0.106506
-0.043884 0.175952 -0.048634
-0.074543 0.171173 -0.157549
-0.035539 0.178190 0.026409
-0.056568 0.179705 0.088689
-0.082015 0.167847 -0.047684
-0.043682 0.167382 -0.098946
-0.021884 0.179431 -0.010456
-0.068656 0.173651 0.026655
-0.039284 0.184148 -0.007788
-0.070296 0.173677 0.156429
-0.061491 0.183295 -0.001466
-0.050948 0.172803 -0.160023
-0.038246 0.175048 0.053503
-0.068631 0.172462 -0.195573
-0.036650 0.173042 -0.138928
-0.066556 0.175173 -0.076871
-0.038729 0.162779 0.020944
-0.077371 0.162828 0.040868
-0.093595 0.162028 0.016166
-0.069543 0.161819 0.010209
-0.027227 0.163573 0.005614
-0.048151 0.162856 -0.044951
-0.014919 0.162279 -0.007465
-0.082762 0.162096 0.022589
-0.104151 0.162365 -0.029039
-0.062491 0.166570 -0.003353
-0.073286 0.162538 -0.029486
-0.104815 0.162194 0.005280
-0.081286 0.163110 -0.041158
-0.037109 0.163596 -0.016168
-0.096543 0.163615 -0.047890
-0.095771 0.162246 -0.006419
-0.055683 0.163369 0.016438
-0.062006 0.162611 -0.016901
-0.061276 0.163262 0.049308
-0.069171 0.162919 0.025435
-0.049735 0.163154 -0.029538
-0.074649 0.162473 -0.009219
-0.050572 0.162727 0.035410
-0.027724 0.161333 -0.039863
-0.090375 0.162456 0.037072
-0.025984 0.163098 0.032883
-0.079588 0.162797 0.000164
-0.067262 0.162648 -0.048812
-0.104428 0.163283 0.022027
-0.050670 0.163003 0.004265
-0.089301 0.162695 -0.024854
-0.085580 0.163617 -0.016734
0.059083 0.165772 0.072349
0.129847 0.169161 0.133409
0.093196 0.156815 -0.040628
0.086760 0.168875 0.035670
0.130959 0.163229 0.085374
0.127602 0.164981 -0.105271
0.133996 0.164095 0.110623
0.125938 0.155079 0.059898
0.110587 0.164887 0.010649
0.115130 0.172229 0.077093
0.128977 0.160963 -0.015500
0.055911 0.164731 -0.026637
0.103688 0.172224 -0.018591
0.077698 0.165542 0.098492
0.138311 0.162645 -0.079160
0.127301 0.168231 -0.021109
0.122936 0.163335 0.015124
0.106644 0.167622 -0.071257
0.132727 0.167547 0.066084
0.117997 0.161883 0.103943
0.057513 0.156310 0.004151
0.125831 0.155355 -0.024645
0.128481 0.166584 0.035341
0.094912 0.156972 0.063317
0.127323 0.171809 0.040275
0.104178 0.165038 0.148408
0.109492 0.166141 0.041669
0.126071 0.164232 -0.075887
0.127050 0.163752 0.080937
0.080234 0.165487 -0.088670
0.125235 0.164398 -0.049249
0.091209 0.162017 -0.015131
-0.122334 0.178107 0.010304
-0.053987 0.181607 0.046261
-0.096527 0.171100 -0.062815
-0.106258 0.179876 -0.008685
-0.007580 0.180380 0.015265
-0.045377 0.179622 -0.104194
-0.032821 0.175659 0.039963
-0.053853 0.170915 -0.001447
-0.082815 0.175229 -0.019295
-0.079916 0.179991 0.011766
-0.025891 0.173804 -0.036970
-0.120656 0.173291 -0.052359
-0.085511 0.184674 -0.038447
-0.107550 0.176439 0.034571
-0.021647 0.173981 -0.077171
-0.010729 0.181170 -0.050921
-0.059990 0.175166 -0.029013
-0.078419 0.180738 -0.078528
-0.029303 0.176958 0.000774
-0.066492 0.175870 0.025300
-0.116418 0.169806 -0.023023
-0.064268 0.171083 -0.052852
-0.001525 0.178613 -0.016721
-0.096068 0.172709 0.017425
-0.040585 0.180845 -0.021058
-0.087643 0.178064 0.055058
-0.072799 0.176617 -0.004599
-0.054146 0.172890 -0.074244
-0.045257 0.177473 0.019843
-0.105775 0.178178 -0.095544
-0.042550 0.176035 -0.055834
-0.102140 0.176837 -0.039675
-0.033123 0.181988 0.067286
0.032636 0.183578 0.102781
-0.010647 0.176022 0.001430
-0.015197 0.183516 0.052648
0.074420 0.182252 0.077839
0.039500 0.182284 -0.031713
0.054601 0.179021 0.095733
0.031862 0.175070 0.060264
0.002951 0.178579 0.041172
0.010420 0.186629 0.069737
0.057040 0.177838 0.026677
-0.036026 0.179285 0.009559
0.002583 0.187448 0.025774
-0.019068 0.181205 0.093183
0.058226 0.177668 -0.007969
0.069267 0.184084 0.015305
0.026805 0.179745 0.034496
0.008577 0.184270 -0.012153
0.058755 0.181489 0.061122
0.021262 0.179360 0.083534
-0.030226 0.173684 0.037096
0.022676 0.173370 0.010209
0.079985 0.182015 0.044901
-0.006696 0.178026 0.075958
0.044331 0.184341 0.042599
0.002893 0.181250 0.109519
0.015841 0.179954 0.054708
0.030438 0.177473 -0.007095
0.040467 0.181085 0.078864
-0.018441 0.181982 -0.026236
0.040425 0.179781 0.010061
-0.014959 0.180605 0.021888
-0.020623 0.170186 0.182373
0.041212 0.172641 0.226105
-0.003661 0.162377 0.114227
-0.005038 0.173420 0.167526
0.089010 0.170316 0.191467
0.053901 0.170205 0.078968
0.068577 0.166006 0.212699
0.041187 0.158779 0.175619
0.013186 0.165021 0.155523
0.021379 0.175800 0.188125
0.069316 0.165437 0.140216
-0.025077 0.165561 0.123423
0.012606 0.176391 0.137452
-0.008957 0.168960 0.207887
0.067267 0.159638 0.102015
0.079610 0.171155 0.126974
0.036455 0.167655 0.150078
0.019681 0.171277 0.099863
0.071493 0.167751 0.178908
0.030969 0.164621 0.203661
-0.016789 0.158976 0.151838
0.035456 0.153721 0.121527
0.086520 0.169160 0.158059
0.005236 0.162980 0.190495
0.054282 0.172582 0.155825
0.015303 0.170277 0.227896
0.023331 0.167899 0.171618
0.044881 0.164807 0.104156
0.048784 0.170449 0.195405
-0.006245 0.166848 0.086193
0.050605 0.169382 0.124202
-0.005878 0.167083 0.138199
0.121487 0.151026 0.171705
0.120682 0.150530 0.199665
0.117187 0.150509 0.140818
0.121129 0.150725 0.129471
0.121275 0.151250 0.150269
0.122995 0.152823 0.042039
0.124409 0.153725 0.135014
0.121762 0.151487 0.164363
0.110021 0.150449 0.061074
0.119655 0.152722 0.113097
0.120601 0.150988 0.070148
0.102287 0.150095 0.125643
0.116922 0.150918 0.054594
0.125072 0.152646 0.111403
0.114052 0.151310 0.027832
0.109338 0.149916 0.101253
0.121546 0.151374 0.143175
0.123724 0.152526 0.087092
0.121384 0.151532 0.213972
0.120726 0.151593 0.154319
0.124549 0.151590 0.079497
0.124929 0.152917 0.104319
0.120032 0.151790 0.179070
0.124801 0.152026 0.052537
0.117995 0.150485 0.184075
0.124496 0.152753 0.189736
0.119703 0.150963 0.112461
0.121023 0.152767 0.010077
0.111454 0.150822 0.149870
0.123756 0.152747 0.128104
0.116390 0.151484 0.089197
0.120084 0.151616 0.095372
-0.027189 0.184018 0.146143
0.045532 0.189471 0.185321
-0.001421 0.177075 0.078461
-0.007493 0.188290 0.129759
0.091721 0.184228 0.155676
0.056894 0.186207 0.042969
0.069342 0.182004 0.176495
0.046308 0.175872 0.136361
0.016040 0.181307 0.119745
0.018880 0.186699 0.151515
0.073540 0.181746 0.105702
-0.027710 0.179611 0.089360
0.016423 0.193127 0.104814
-0.009635 0.183072 0.171380
0.074190 0.178257 0.068024
0.085903 0.187870 0.089950
0.039684 0.182967 0.113874
0.020664 0.186627 0.067445
0.071872 0.184784 0.143184
0.034678 0.180906 0.162233
-0.018857 0.175951 0.116841
0.036285 0.173430 0.087320
0.095546 0.184877 0.123416
0.004960 0.177732 0.154223
0.062337 0.188646 0.119253
0.012929 0.184549 0.193050
0.026408 0.183241 0.134834
0.045237 0.180514 0.069119
0.050747 0.184902 0.156026
-0.004764 0.185029 0.047186
0.054051 0.183263 0.087883
-0.002333 0.182642 0.101348
-0.064425 0.163495 0.008734
-0.093129 0.163266 0.026620
-0.106455 0.162651 0.003950
-0.089080 0.162450 -0.001550
-0.056383 0.163974 -0.004433
-0.071308 0.163527 -0.047365
-0.048445 0.162817 -0.015847
-0.097715 0.162573 0.010860
-0.116102 0.162273 -0.033588
-0.081987 0.167870 -0.011647
-0.087875 0.163031 -0.034549
-0.116960 0.162691 -0.005252
-0.095349 0.163437 -0.043595
-0.062211 0.164200 -0.022755
-0.108869 0.163844 -0.049313
-0.109099 0.162613 -0.016526
-0.077523 0.163678 0.004151
-0.079124 0.163120 -0.023354
-0.081317 0.163973 0.033439
-0.087603 0.163539 0.012224
-0.070315 0.163930 -0.034042
-0.088906 0.162755 -0.017379
-0.075363 0.163156 0.020273
-0.056544 0.162449 -0.042902
-0.105272 0.163204 0.023033
-0.055841 0.163560 0.019635
-0.097303 0.163160 -0.010302
-0.085726 0.163284 -0.050378
-0.115974 0.163207 0.008932
-0.072077 0.163588 -0.005732
-0.102578 0.163470 -0.030275
-0.098084 0.163817 -0.024127
0.046313 0.151105 0.113418
-0.015230 0.152992 0.132483
-0.062930 0.152388 0.115110
0.006005 0.152098 0.104291
0.058346 0.151532 0.101867
0.036009 0.151503 0.066233
0.062262 0.151249 0.086297
-0.030083 0.151040 0.112197
-0.099491 0.152112 0.078780
0.022104 0.155672 0.094644
-0.012395 0.152016 0.073972
-0.118613 0.150876 0.105193
-0.033370 0.152980 0.070372
0.040005 0.152256 0.082641
-0.074655 0.154347 0.065498
-0.079535 0.151230 0.095143
0.024460 0.151176 0.113525
0.002658 0.150855 0.090727
0.018239 0.153590 0.137855
0.001002 0.152460 0.120282
0.020562 0.151685 0.079305
-0.019377 0.150526 0.091953
0.031991 0.152968 0.126230
0.054908 0.150701 0.071711
-0.048717 0.153552 0.131038
0.055781 0.152234 0.125374
-0.013980 0.150875 0.105058
0.004035 0.152358 0.066646
-0.093606 0.153664 0.119106
0.036747 0.153401 0.104798
-0.057483 0.152977 0.082948
-0.041838 0.152318 0.092441
0.107970 0.168104 0.174703
0.028002 0.169438 0.191880
-0.026611 0.169711 0.175280
0.056889 0.168448 0.166502
0.122285 0.168008 0.163429
0.094240 0.169746 0.129512
0.123136 0.168220 0.148182
0.009649 0.167701 0.173427
-0.069115 0.170039 0.144609
0.078047 0.169674 0.157174
0.024985 0.169848 0.135886
-0.085164 0.167781 0.166920
0.000921 0.169774 0.137473
0.097320 0.168180 0.144357
-0.043167 0.171135 0.127562
-0.048997 0.167477 0.160105
0.080579 0.167673 0.176306
0.045009 0.167447 0.154349
0.069852 0.170362 0.197777
0.048114 0.168641 0.182220
0.070666 0.167756 0.141192
0.019877 0.166084 0.154155
0.088860 0.171023 0.186652
0.119445 0.169426 0.136903
-0.013208 0.171611 0.192661
0.116772 0.169149 0.187542
0.033013 0.169198 0.169013
0.049046 0.169109 0.131174
-0.061726 0.170378 0.180087
0.096263 0.171331 0.165693
-0.025405 0.169219 0.145839
-0.006414 0.168927 0.158613
-0.055556 0.163697 -0.003486
-0.092551 0.163530 0.014477
-0.107998 0.162756 -0.005971
-0.085996 0.162497 -0.010234
-0.045407 0.164187 -0.016200
-0.065168 0.163305 -0.052958
-0.034591 0.162930 -0.026736
-0.097447 0.162604 -0.000670
-0.118110 0.162821 -0.039476
-0.078932 0.168187 -0.020805
-0.088667 0.162901 -0.041073
-0.118553 0.163024 -0.014828
-0.096543 0.163734 -0.050247
-0.055466 0.164128 -0.031690
-0.110948 0.164113 -0.054349
-0.110203 0.162797 -0.023798
-0.071972 0.163937 -0.005316
-0.078291 0.163003 -0.030684
-0.076828 0.163854 0.020350
-0.084993 0.163384 0.002596
-0.067469 0.163633 -0.041235
-0.090346 0.163186 -0.025648
-0.066859 0.163159 0.009431
-0.046436 0.162244 -0.048507
-0.105423 0.163137 0.011131
-0.043493 0.163728 0.007251
-0.095304 0.163353 -0.018407
-0.084065 0.163238 -0.054211
-0.117865 0.163423 -0.001425
-0.067631 0.163547 -0.015438
-0.103865 0.163564 -0.037954
-0.099800 0.163995 -0.031842
0.111750 0.149812 0.143671
0.081322 0.152355 0.165000
0.049276 0.151411 0.132070
0.087107 0.149796 0.119889
0.117514 0.150276 0.124957
0.106659 0.152011 0.059894
0.119011 0.150858 0.106821
0.068581 0.150499 0.140107
0.023412 0.151447 0.074956
0.098813 0.153184 0.107911
0.084507 0.152008 0.075353
0.011906 0.150450 0.119818
0.068541 0.151220 0.067194
0.113849 0.152249 0.091180
0.040309 0.154641 0.054500
0.036679 0.151251 0.105501
0.098694 0.151140 0.130453
0.095365 0.151020 0.096390
0.099672 0.152318 0.178399
0.089505 0.151709 0.139812
0.106062 0.152134 0.079277
0.081593 0.151671 0.101392
0.100697 0.152694 0.155961
0.116365 0.150753 0.068162
0.057105 0.152128 0.160497
0.116190 0.151272 0.156561
0.073586 0.150576 0.114663
0.089324 0.153051 0.051324
0.027242 0.152997 0.138521
0.109541 0.153169 0.118358
0.051480 0.151835 0.080863
0.064052 0.152000 0.096768
0.128606 0.163770 0.168880
0.123310 0.165626 0.190869
0.099970 0.166390 0.146316
0.125515 0.165658 0.137092
0.126811 0.160289 0.150736
0.125900 0.166706 0.079139
0.125925 0.166902 0.140364
0.114719 0.167811 0.162387
0.073096 0.167398 0.093904
0.127703 0.159457 0.124742
0.118503 0.166366 0.097020
0.057797 0.168063 0.133619
0.112204 0.163055 0.087249
0.128784 0.166469 0.121582
0.096034 0.168561 0.069907
0.090213 0.164979 0.120677
0.127275 0.166586 0.147525
0.121817 0.167919 0.109791
0.126913 0.168028 0.209614
0.123177 0.167780 0.154376
0.127243 0.164955 0.106314
0.116404 0.167995 0.120719
0.124941 0.167322 0.174991
0.127435 0.164649 0.088040
0.109310 0.168802 0.180886
0.127032 0.166942 0.185354
0.117621 0.167190 0.131429
0.121395 0.168418 0.059224
0.081560 0.168740 0.156616
0.126908 0.167809 0.133760
0.104834 0.167236 0.109723
0.109795 0.166488 0.117150
0.025758 0.150450 0.081271
-0.049302 0.152393 0.100200
-0.095004 0.151574 0.083231
-0.022583 0.151458 0.071868
0.040499 0.150419 0.072020
0.008518 0.151317 0.028788
0.043954 0.151433 0.053842
-0.065031 0.150259 0.079961
-0.129754 0.152099 0.041874
-0.005558 0.154320 0.061112
-0.046618 0.151687 0.037799
-0.147956 0.149862 0.071874
-0.068931 0.152999 0.033640
0.016515 0.151735 0.048260
-0.109057 0.154012 0.027064
-0.113553 0.150914 0.060882
-0.004076 0.150636 0.082903
-0.028870 0.150352 0.055610
-0.011900 0.154041 0.105249
-0.030029 0.151677 0.088896
-0.007711 0.150930 0.044693
-0.051958 0.149704 0.057682
0.006557 0.153248 0.095997
0.035596 0.150144 0.036299
-0.084532 0.153060 0.100203
0.035615 0.151920 0.094004
-0.045007 0.150351 0.072273
-0.027052 0.151815 0.027897
-0.125342 0.153415 0.087447
0.012857 0.153530 0.072996
-0.092839 0.152022 0.048868
-0.075098 0.151508 0.059225
0.125750 0.150794 0.155966
0.126757 0.150419 0.182315
0.126268 0.159301 0.123685
0.126522 0.151760 0.118397
0.124924 0.147084 0.135586
0.126861 0.163870 0.038348
0.126476 0.165611 0.127129
0.128256 0.166651 0.148235
0.126277 0.166000 0.057725
0.125956 0.151835 0.098593
0.126110 0.152131 0.066692
0.124173 0.153950 0.110198
0.125091 0.152460 0.053690
0.127720 0.157500 0.110737
0.126529 0.151227 0.026797
0.124988 0.148316 0.085649
0.126346 0.153390 0.130452
0.126899 0.161386 0.072043
0.126063 0.156480 0.196715
0.126263 0.156385 0.142298
0.126951 0.155399 0.078523
0.128179 0.169347 0.091562
0.126006 0.160408 0.162047
0.126595 0.157167 0.043510
0.127342 0.155784 0.168570
0.126450 0.160337 0.174103
0.127342 0.158617 0.097715
0.126336 0.159487 0.010603
0.126211 0.159152 0.134629
0.127152 0.165890 0.112825
0.126195 0.153379 0.094430
0.127068 0.162374 0.086075
0.116413 0.151293 0.120322
0.092669 0.151897 0.135795
0.077555 0.151795 0.116151
0.095868 0.150756 0.109279
0.122009 0.151901 0.107996
0.112297 0.152387 0.069849
0.127148 0.151692 0.096687
0.087179 0.151217 0.120838
0.064327 0.151249 0.081467
0.103190 0.155045 0.101733
0.098327 0.152098 0.080899
0.060082 0.151240 0.107981
0.089201 0.151909 0.073673
0.118889 0.152647 0.090177
0.073689 0.153729 0.067813
0.072190 0.151098 0.097868
0.106003 0.151996 0.114678
0.106192 0.151603 0.093177
0.103924 0.152869 0.143002
0.097887 0.152526 0.121328
0.112825 0.152967 0.081760
0.096870 0.152038 0.096447
0.107575 0.152267 0.129762
0.122441 0.151372 0.074211
0.079647 0.152286 0.132987
0.122627 0.152164 0.129582
0.087741 0.151400 0.103101
0.099499 0.152903 0.066955
0.064881 0.152456 0.119631
0.112308 0.152943 0.107277
0.080588 0.152376 0.084718
0.087662 0.152228 0.091415
-0.088520 0.163840 -0.031409
-0.114685 0.163309 -0.013328
-0.127391 0.162734 -0.037715
-0.111368 0.162656 -0.043718
-0.080564 0.163629 -0.045388
-0.094371 0.163851 -0.092379
-0.073489 0.162860 -0.057190
-0.119001 0.162625 -0.029556
-0.136615 0.162431 -0.077687
-0.104612 0.167759 -0.053960
-0.108443 0.163222 -0.078584
-0.137918 0.162458 -0.047143
-0.116415 0.163627 -0.087541
-0.085617 0.164502 -0.064945
-0.129406 0.163792 -0.094622
-0.129871 0.162682 -0.059536
-0.100516 0.163769 -0.037586
-0.100367 0.163469 -0.066365
-0.103692 0.164336 -0.005641
-0.109348 0.163845 -0.029435
-0.092770 0.164166 -0.077187
-0.109432 0.163055 -0.060046
-0.098776 0.163584 -0.020417
-0.080574 0.162867 -0.086859
-0.126061 0.163659 -0.017451
-0.080991 0.163694 -0.020173
-0.119248 0.163127 -0.052958
-0.107410 0.163672 -0.096007
-0.136295 0.163329 -0.032275
-0.094694 0.164112 -0.047501
-0.123267 0.163647 -0.073523
-0.118731 0.163908 -0.066941
0.094935 0.150723 0.106860
0.047510 0.153106 0.124257
0.008250 0.152339 0.105446
0.060554 0.151230 0.095232
0.104226 0.151301 0.093583
0.085981 0.152141 0.052715
0.107816 0.151253 0.078289
0.033666 0.151173 0.105700
-0.021915 0.152073 0.064930
0.074921 0.154477 0.085178
0.051519 0.152377 0.062546
-0.036017 0.150739 0.094958
0.032464 0.152532 0.056994
0.093031 0.152583 0.071948
-0.002641 0.154522 0.051105
-0.006086 0.151174 0.084764
0.076270 0.151110 0.104138
0.064529 0.151293 0.079499
0.074855 0.153404 0.132112
0.060077 0.152748 0.111365
0.078984 0.152233 0.066282
0.046146 0.151128 0.081111
0.081665 0.153136 0.119384
0.101264 0.151069 0.057951
0.018794 0.153560 0.123634
0.102698 0.152213 0.117504
0.043919 0.150918 0.093359
0.061029 0.152694 0.050935
-0.017531 0.153391 0.109941
0.087967 0.153477 0.095062
0.011989 0.152790 0.069493
0.026626 0.152527 0.080209
-0.126334 0.175107 -0.042449
-0.081963 0.179315 0.001855
-0.113608 0.170238 -0.122243
-0.116839 0.178008 -0.061907
-0.031416 0.178696 -0.032444
-0.068174 0.178633 -0.165918
-0.053493 0.172848 -0.005517
-0.078799 0.169581 -0.048508
-0.100730 0.174445 -0.075001
-0.098275 0.183179 -0.034814
-0.051466 0.172882 -0.093073
-0.126253 0.171732 -0.109524
-0.109350 0.183134 -0.096751
-0.118062 0.175129 -0.012353
-0.044497 0.171839 -0.139337
-0.036105 0.181232 -0.105580
-0.081319 0.174138 -0.083864
-0.101687 0.177023 -0.139173
-0.049749 0.175742 -0.052413
-0.089953 0.175106 -0.017830
-0.124214 0.167010 -0.078058
-0.085044 0.167801 -0.112404
-0.026521 0.177427 -0.071540
-0.110675 0.171901 -0.033531
-0.070940 0.179437 -0.073214
-0.104763 0.176834 0.014259
-0.096473 0.174907 -0.056730
-0.078173 0.172048 -0.136629
-0.067538 0.177031 -0.027162
-0.120466 0.175362 -0.153585
-0.068092 0.176090 -0.118073
-0.119593 0.175447 -0.095773
-0.087184 0.183040 -0.031735
-0.009777 0.184268 0.001858
-0.058759 0.175019 -0.105119
-0.068100 0.183053 -0.051748
0.033719 0.182885 -0.029941
-0.003229 0.183239 -0.145772
0.010002 0.178754 -0.007134
-0.013385 0.175266 -0.046396
-0.044951 0.179218 -0.064746
-0.037722 0.182314 -0.032827
0.012985 0.177541 -0.081936
-0.087809 0.178770 -0.094219
-0.042589 0.188789 -0.082554
-0.069029 0.181233 -0.011651
0.016638 0.178636 -0.120500
0.030004 0.183858 -0.094830
-0.019105 0.179537 -0.071848
-0.036956 0.185798 -0.121038
0.012271 0.181374 -0.041676
-0.025700 0.180237 -0.020069
-0.081669 0.175014 -0.068321
-0.024295 0.175541 -0.096055
0.039224 0.181377 -0.060425
-0.056779 0.176316 -0.030786
0.001934 0.184474 -0.063101
-0.047328 0.182100 0.007636
-0.030656 0.180245 -0.049808
-0.013774 0.178304 -0.117661
-0.005807 0.180849 -0.024927
-0.067404 0.182346 -0.135557
-0.002431 0.178996 -0.099454
-0.063047 0.180424 -0.084279
-0.092775 0.164253 -0.042094
-0.120708 0.163480 -0.021679
-0.132539 0.163130 -0.049628
-0.117256 0.162771 -0.055351
-0.084680 0.163585 -0.057233
-0.099642 0.163980 -0.103822
-0.076117 0.163010 -0.068807
-0.124712 0.163034 -0.040169
-0.140903 0.162948 -0.089263
-0.110821 0.167364 -0.066160
-0.114910 0.163395 -0.090290
-0.141373 0.162859 -0.059140
-0.122256 0.163797 -0.098952
-0.090578 0.164390 -0.076971
-0.134163 0.164221 -0.105917
-0.134551 0.162930 -0.071652
-0.106184 0.164133 -0.048930
-0.106745 0.163536 -0.078172
-0.109357 0.164526 -0.013036
-0.115109 0.163879 -0.040236
-0.098773 0.164256 -0.089047
-0.116092 0.163755 -0.072041
-0.103571 0.163770 -0.030020
-0.084416 0.162993 -0.098445
-0.131470 0.163777 -0.027475
-0.084480 0.163980 -0.029404
-0.125024 0.163535 -0.065264
-0.113445 0.164016 -0.107299
-0.140612 0.163366 -0.043786
-0.100360 0.164355 -0.059611
-0.128309 0.163876 -0.085636
-0.124377 0.163983 -0.079148
-0.066158 0.170120 -0.011890
0.006405 0.177056 0.031388
-0.039974 0.162023 -0.109111
-0.044277 0.178186 -0.044132
0.040453 0.166524 -0.005527
0.008143 0.168875 -0.156969
0.024283 0.163912 0.025252
0.002596 0.157721 -0.025211
-0.018646 0.167693 -0.055362
-0.019502 0.178148 -0.009813
0.021669 0.163171 -0.075886
-0.063487 0.164953 -0.093632
-0.017063 0.182074 -0.081269
-0.054948 0.171865 0.012707
0.026988 0.164496 -0.130501
0.038292 0.176281 -0.097548
-0.003095 0.170437 -0.061967
-0.025418 0.170700 -0.125538
0.020305 0.174427 -0.023772
-0.010791 0.168023 0.007695
-0.069676 0.161621 -0.062667
-0.005353 0.156257 -0.094442
0.037134 0.172206 -0.043048
-0.041797 0.163242 -0.010556
0.019792 0.180515 -0.048591
-0.031726 0.172381 0.044561
-0.013918 0.171310 -0.035960
0.000970 0.167856 -0.122273
0.010346 0.170064 -0.004352
-0.049717 0.168297 -0.152730
0.011768 0.167693 -0.105882
-0.037545 0.166141 -0.080333
-0.016679 0.183511 0.031166
0.053209 0.186572 0.068136
0.007565 0.177610 -0.038494
0.001997 0.185904 0.015346
0.097226 0.184709 0.040581
0.062504 0.185270 -0.074026
0.076661 0.181164 0.060619
0.052923 0.177239 0.022754
0.022296 0.180543 0.002611
0.027900 0.187715 0.032921
0.079268 0.180640 -0.012445
-0.019634 0.181343 -0.028817
0.021180 0.190336 -0.012906
-0.001829 0.183231 0.057802
0.082194 0.180038 -0.049259
0.092022 0.186896 -0.024599
0.047043 0.182137 -0.004177
0.028217 0.186992 -0.052282
0.078903 0.184271 0.024440
0.041816 0.181329 0.046731
-0.013956 0.175596 -0.000976
0.043142 0.175655 -0.030123
0.102526 0.184192 0.007540
0.011930 0.179358 0.038890
0.066587 0.187307 0.004031
0.020867 0.183440 0.075360
0.035152 0.182614 0.017343
0.051675 0.179951 -0.048649
0.061526 0.183189 0.042089
0.000201 0.184965 -0.067287
0.062107 0.182212 -0.030065
0.003482 0.182942 -0.016995
0.101273 0.151402 0.084157
0.073838 0.152132 0.098477
0.055254 0.151869 0.082482
0.078636 0.150949 0.076161
0.108363 0.151915 0.073742
0.096731 0.152243 0.041001
0.114310 0.151436 0.063306
0.067744 0.151213 0.085401
0.039737 0.151236 0.051732
0.086932 0.155250 0.069209
0.079058 0.151961 0.050843
0.034098 0.151231 0.074887
0.068566 0.152086 0.044086
0.102956 0.152572 0.058702
0.050481 0.153409 0.039809
0.049000 0.151256 0.066073
0.089943 0.151816 0.081472
0.087450 0.151450 0.062127
0.088070 0.152951 0.104366
0.080279 0.152407 0.087750
0.095137 0.152800 0.051859
0.076955 0.151662 0.064715
0.092927 0.152108 0.093556
0.107814 0.151324 0.045056
0.058988 0.152500 0.096583
0.109136 0.152069 0.092858
0.069623 0.151343 0.071421
0.081462 0.152700 0.039202
0.040897 0.152257 0.086058
0.095870 0.152793 0.074502
0.058509 0.152404 0.054993
0.066673 0.152077 0.061007
0.127056 0.161198 0.140541
0.126060 0.162030 0.162024
0.112015 0.165514 0.116728
0.126637 0.162669 0.109185
0.125528 0.156122 0.123353
0.125116 0.166883 0.052390
0.124718 0.167655 0.114965
0.120510 0.168753 0.134505
0.094427 0.168043 0.066516
0.127073 0.155670 0.095793
0.123185 0.163983 0.070616
0.083524 0.166258 0.104781
0.119481 0.159246 0.060473
0.127450 0.165520 0.097603
0.110298 0.165156 0.043576
0.106225 0.161425 0.090179
0.127214 0.164438 0.119313
0.123962 0.167578 0.080209
0.126813 0.167041 0.179957
0.125162 0.166379 0.126655
0.126885 0.163841 0.080036
0.121545 0.169363 0.091739
0.124921 0.166782 0.146500
0.125921 0.163513 0.059308
0.118297 0.167214 0.152091
0.125891 0.166443 0.157280
0.122194 0.166601 0.100689
0.123181 0.167268 0.031959
0.100745 0.167675 0.127306
0.125887 0.168379 0.105809
0.116389 0.164667 0.086041
0.118671 0.166299 0.088485
0.106063 0.164267 -0.027534
0.007744 0.165577 -0.001816
-0.042507 0.162161 -0.028612
0.042921 0.163029 -0.030880
0.127849 0.166133 -0.044821
0.084496 0.162668 -0.093586
0.156531 0.163987 -0.058116
-0.005779 0.163271 -0.026823
-0.053106 0.164260 -0.076604
0.043597 0.169309 -0.052768
0.001620 0.162517 -0.076983
-0.057858 0.163859 -0.042379
-0.013018 0.164555 -0.095134
0.096215 0.164953 -0.064843
-0.043770 0.165755 -0.098539
-0.032071 0.162450 -0.043890
0.071326 0.164582 -0.026343
0.024750 0.163204 -0.063288
0.055337 0.162759 0.002957
0.030724 0.163141 -0.014125
0.054249 0.162664 -0.077385
-0.008731 0.165458 -0.057258
0.096795 0.161655 -0.006305
0.125025 0.161257 -0.083233
-0.017933 0.162289 -0.010084
0.141521 0.164596 -0.015354
0.016651 0.163932 -0.041487
0.031424 0.163624 -0.096320
-0.055213 0.164304 -0.019824
0.068825 0.163377 -0.043509
-0.025608 0.164109 -0.073418
-0.033148 0.165038 -0.062038
-0.116828 0.166097 -0.002579
-0.131198 0.164648 0.047492
-0.136306 0.168159 -0.036003
-0.133228 0.164007 -0.044535
-0.106057 0.162778 -0.025599
-0.120463 0.168177 -0.124376
-0.093563 0.169173 -0.041032
-0.133820 0.173245 -0.004335
-0.136673 0.170789 -0.103676
-0.126895 0.164381 -0.066021
-0.128768 0.164896 -0.099229
-0.137929 0.164906 -0.052071
-0.133323 0.164858 -0.109169
-0.115520 0.165045 -0.060900
-0.134877 0.165366 -0.131926
-0.136351 0.162837 -0.075920
-0.129472 0.163385 -0.029939
-0.129728 0.168232 -0.088443
-0.126030 0.167010 0.076455
-0.130897 0.165895 -0.010016
-0.119815 0.166646 -0.087837
-0.129304 0.178494 -0.069235
-0.122363 0.167844 0.016259
-0.106214 0.166963 -0.114327
-0.133676 0.166772 0.020307
-0.105976 0.168829 0.036674
-0.135112 0.165214 -0.064631
-0.129686 0.166277 -0.146252
-0.138810 0.167135 -0.018447
-0.123688 0.173420 -0.050473
-0.132877 0.164426 -0.078993
-0.132522 0.168654 -0.078469
-0.096400 0.160639 -0.024089
-0.032012 0.163448 0.015691
-0.071912 0.154626 -0.097800
-0.079030 0.163114 -0.044810
0.010565 0.161310 -0.016453
-0.024073 0.162264 -0.138700
-0.010846 0.156927 0.004975
-0.032944 0.151394 -0.033844
-0.058755 0.158030 -0.056537
-0.055501 0.166000 -0.018954
-0.011593 0.156687 -0.072529
-0.092944 0.157567 -0.087203
-0.059851 0.169082 -0.075412
-0.081899 0.161013 -0.000628
-0.007969 0.155608 -0.114708
0.003556 0.164092 -0.088564
-0.038545 0.160080 -0.062804
-0.055170 0.164830 -0.113747
-0.010549 0.162196 -0.031403
-0.045065 0.158560 -0.006834
-0.091371 0.155025 -0.060786
-0.040448 0.152901 -0.087550
0.009488 0.161739 -0.051262
-0.071337 0.155419 -0.020811
-0.022054 0.165749 -0.052364
-0.061730 0.160382 0.022262
-0.049348 0.160498 -0.039704
-0.033366 0.157776 -0.112111
-0.028298 0.161035 -0.014450
-0.079194 0.161864 -0.128389
-0.025662 0.159241 -0.093530
-0.075129 0.158824 -0.076564
0.098546 0.151313 0.078344
0.067081 0.151870 0.095408
0.046732 0.152078 0.076175
0.073233 0.150533 0.069744
0.105410 0.151566 0.065765
0.093907 0.152219 0.033671
0.112701 0.151776 0.055272
0.061097 0.151346 0.079828
0.029946 0.151567 0.045842
0.082775 0.155255 0.061935
0.073656 0.151631 0.043874
0.023913 0.151324 0.068400
0.061859 0.151619 0.037186
0.099733 0.152389 0.051390
0.042570 0.153537 0.033132
0.040822 0.150853 0.059043
0.086352 0.151816 0.075381
0.082720 0.151095 0.055115
0.083529 0.152752 0.101643
0.074583 0.152001 0.082855
0.091080 0.152634 0.044561
0.070810 0.152244 0.057541
0.089362 0.151740 0.088809
0.105488 0.151525 0.037752
0.050316 0.152509 0.092487
0.107413 0.152449 0.088139
0.062807 0.151251 0.064761
0.076477 0.152594 0.033829
0.031153 0.151998 0.080432
0.091953 0.153207 0.067226
0.050882 0.152568 0.047651
0.059453 0.152199 0.053699
0.069003 0.163167 -0.044440
-0.020199 0.164266 -0.017936
-0.055963 0.162173 -0.044785
0.009289 0.161481 -0.047614
0.092386 0.164702 -0.061560
0.048461 0.162060 -0.108492
0.120426 0.162952 -0.074151
-0.029685 0.162514 -0.042452
-0.065400 0.163694 -0.091717
0.011195 0.168111 -0.068651
-0.022822 0.161973 -0.092350
-0.066632 0.163169 -0.056734
-0.035348 0.163658 -0.109491
0.060028 0.163645 -0.080190
-0.058335 0.164625 -0.112644
-0.049937 0.162000 -0.061705
0.035974 0.164014 -0.042192
-0.003049 0.162358 -0.078879
0.021590 0.162380 -0.013579
0.000009 0.162321 -0.030529
0.022998 0.162384 -0.093053
-0.031141 0.164483 -0.072755
0.057388 0.161365 -0.022695
0.087775 0.160912 -0.100754
-0.039516 0.161578 -0.025492
0.101268 0.164103 -0.030869
-0.011883 0.163464 -0.058267
0.000576 0.162823 -0.111528
-0.066960 0.163292 -0.037522
0.033677 0.162444 -0.058840
-0.044459 0.163379 -0.088282
-0.049743 0.164046 -0.077413
-0.130791 0.164025 0.003615
-0.129176 0.162178 0.060596
-0.131921 0.174398 -0.053694
-0.132128 0.161990 -0.064833
-0.130482 0.159641 -0.027349
-0.129913 0.177416 -0.181690
-0.125122 0.181813 -0.044274
-0.129480 0.184841 -0.004488
-0.130727 0.182923 -0.149423
-0.128566 0.158303 -0.090582
-0.131242 0.164488 -0.139417
-0.133504 0.166853 -0.077925
-0.131712 0.162450 -0.154938
-0.129354 0.169635 -0.073337
-0.131439 0.165223 -0.192918
-0.131977 0.158708 -0.112741
-0.132902 0.164911 -0.043947
-0.131829 0.175964 -0.133729
-0.131411 0.171409 0.092251
-0.131134 0.169458 -0.015987
-0.128106 0.168886 -0.121353
-0.127360 0.189429 -0.099263
-0.132729 0.176103 0.019437
-0.128443 0.171158 -0.166632
-0.129789 0.168315 0.028782
-0.128034 0.176489 0.050347
-0.131396 0.171878 -0.092328
-0.131709 0.172684 -0.215923
-0.133265 0.174091 -0.028748
-0.129020 0.182584 -0.075292
-0.131294 0.165121 -0.105380
-0.130406 0.176470 -0.110980
0.099671 0.165169 0.113349
0.010508 0.166638 0.131281
-0.039560 0.166689 0.115920
0.042483 0.165939 0.107222
0.115839 0.164618 0.102625
0.082410 0.167053 0.069766
0.115699 0.166154 0.086292
-0.007354 0.165387 0.113298
-0.077386 0.167147 0.084549
0.064844 0.167076 0.097059
0.012658 0.166594 0.076830
-0.092392 0.164270 0.108046
-0.012210 0.168108 0.077223
0.087018 0.165291 0.083277
-0.054806 0.168389 0.068756
-0.059059 0.165145 0.099498
0.066435 0.164944 0.117252
0.032528 0.165031 0.095463
0.054896 0.168918 0.137076
0.032508 0.165683 0.121975
0.057339 0.165057 0.081670
0.005881 0.165794 0.094298
0.079694 0.168566 0.127048
0.111806 0.165952 0.076818
-0.029481 0.169386 0.132417
0.108083 0.166537 0.127222
0.017117 0.166021 0.108653
0.035495 0.166700 0.072023
-0.071420 0.168763 0.120203
0.086085 0.169212 0.107325
-0.037833 0.166183 0.086812
-0.019192 0.165231 0.097354
-0.078179 0.177999 -0.004854
-0.005891 0.180731 0.034977
-0.051656 0.170816 -0.077911
-0.058221 0.179462 -0.024850
0.035483 0.177280 0.001365
0.000159 0.177956 -0.116404
0.011686 0.174441 0.024283
-0.007841 0.170305 -0.018796
-0.035566 0.174665 -0.032745
-0.031505 0.181219 0.000561
0.015202 0.173456 -0.050708
-0.078338 0.174618 -0.068240
-0.034764 0.182767 -0.052592
-0.061823 0.177480 0.020456
0.017227 0.172681 -0.089851
0.030538 0.179457 -0.066267
-0.014203 0.175729 -0.043896
-0.031889 0.180459 -0.091934
0.015950 0.178697 -0.012980
-0.020623 0.176013 0.011612
-0.070141 0.171932 -0.038134
-0.017685 0.169836 -0.067374
0.039199 0.178148 -0.033142
-0.048877 0.173241 0.000458
0.007376 0.180248 -0.035891
-0.040887 0.177600 0.041921
-0.024250 0.176135 -0.018955
-0.009351 0.173827 -0.087488
-0.003292 0.176401 0.004038
-0.059176 0.178836 -0.111471
0.000221 0.174712 -0.070236
-0.052291 0.176224 -0.055484
-0.123893 0.179034 -0.100865
-0.063133 0.182147 -0.058466
-0.102855 0.172754 -0.183221
-0.109393 0.181258 -0.121633
-0.013093 0.180695 -0.093557
-0.051479 0.181796 -0.224844
-0.037286 0.175190 -0.063937
-0.061571 0.171721 -0.111490
-0.088443 0.176992 -0.134313
-0.085773 0.185355 -0.095549
-0.033288 0.175935 -0.152766
-0.121754 0.175085 -0.169987
-0.094758 0.187832 -0.153673
-0.112120 0.178383 -0.070681
-0.025765 0.174562 -0.197839
-0.015444 0.183845 -0.166603
-0.065650 0.177510 -0.144660
-0.086946 0.181457 -0.198645
-0.033222 0.179159 -0.112419
-0.074433 0.178141 -0.081178
-0.121348 0.169584 -0.137935
-0.070488 0.170827 -0.172364
-0.007351 0.180317 -0.131084
-0.102270 0.174437 -0.091483
-0.050999 0.184170 -0.134653
-0.094360 0.179964 -0.046106
-0.081064 0.178110 -0.117034
-0.061887 0.174687 -0.194583
-0.050517 0.179744 -0.088587
-0.112540 0.179645 -0.215346
-0.049312 0.178135 -0.176271
-0.109140 0.178727 -0.156776
-0.004951 0.163318 -0.061737
-0.057641 0.163403 -0.041907
-0.077722 0.162493 -0.063660
-0.044228 0.161879 -0.067348
0.009927 0.163965 -0.076137
-0.017624 0.162977 -0.116651
0.025869 0.162746 -0.087290
-0.063493 0.162595 -0.059560
-0.088445 0.163371 -0.101833
-0.038635 0.167955 -0.081287
-0.055675 0.162391 -0.102852
-0.088843 0.162947 -0.073593
-0.064450 0.163946 -0.115204
-0.007326 0.163785 -0.092745
-0.081120 0.164218 -0.118941
-0.078090 0.162586 -0.081710
-0.026208 0.164016 -0.062477
-0.041821 0.162810 -0.091964
-0.034099 0.163372 -0.036567
-0.045936 0.162913 -0.053628
-0.027020 0.163111 -0.103648
-0.058958 0.163587 -0.086217
-0.015962 0.162702 -0.046240
0.007308 0.161612 -0.111442
-0.071480 0.162470 -0.045861
0.013133 0.163782 -0.050839
-0.056408 0.163500 -0.076499
-0.045313 0.163253 -0.118593
-0.088620 0.163466 -0.058286
-0.023922 0.163042 -0.074988
-0.072313 0.163274 -0.099746
-0.070544 0.163939 -0.091937
0.123412 0.149862 0.117963
0.122636 0.149302 0.146503
0.118906 0.153111 0.086900
0.124423 0.150987 0.077871
0.119945 0.147744 0.095243
0.124489 0.156603 0.006601
0.123038 0.158924 0.086352
0.124718 0.159021 0.109195
0.109074 0.157216 0.022900
0.122847 0.151499 0.058438
0.124093 0.149934 0.029610
0.096804 0.150186 0.072498
0.119150 0.151486 0.016150
0.124904 0.153773 0.065144
0.115479 0.149655 -0.005983
0.110989 0.148122 0.052009
0.124686 0.151530 0.090064
0.125013 0.155777 0.040838
0.124892 0.153587 0.164624
0.124051 0.152984 0.100704
0.125307 0.151177 0.040462
0.125763 0.163262 0.055607
0.123801 0.154952 0.125049
0.123430 0.152832 0.011386
0.120072 0.152312 0.131270
0.124541 0.155881 0.136786
0.123330 0.153223 0.062925
0.123743 0.154141 -0.022022
0.111667 0.153009 0.096794
0.125509 0.159848 0.075106
0.119596 0.151404 0.051463
0.123187 0.155682 0.051065
0.065037 0.151124 0.049464
0.011242 0.152740 0.068653
-0.032210 0.152471 0.051175
0.028558 0.151852 0.041180
0.075020 0.151611 0.036888
0.057731 0.151523 0.006322
0.080937 0.151299 0.023548
-0.001649 0.151182 0.048859
-0.065070 0.151959 0.018603
0.044042 0.155443 0.031874
0.016301 0.152034 0.013732
-0.082513 0.151006 0.042124
-0.003662 0.152208 0.010612
0.060473 0.152473 0.020996
-0.041426 0.153967 0.006526
-0.045533 0.150963 0.032453
0.046664 0.151478 0.049328
0.028965 0.150749 0.028446
0.041972 0.153202 0.074005
0.025496 0.152501 0.056972
0.044315 0.151855 0.017336
0.009177 0.151013 0.029259
0.052511 0.152365 0.061489
0.072776 0.151024 0.010383
-0.019763 0.153374 0.066727
0.074494 0.152437 0.061134
0.010263 0.150946 0.040900
0.028376 0.152271 0.008464
-0.060332 0.152985 0.055789
0.056267 0.153452 0.041023
-0.025848 0.152978 0.021584
-0.011416 0.152479 0.029433
0.119917 0.150291 0.077803
0.113019 0.150462 0.101481
0.102357 0.149746 0.056313
0.115096 0.150197 0.045281
0.119631 0.150349 0.058346
0.120388 0.151669 -0.016897
0.122158 0.151674 0.045500
0.111034 0.150209 0.072224
0.087665 0.149185 -0.003200
0.115955 0.152703 0.033104
0.113971 0.150850 0.001210
0.077021 0.149396 0.044439
0.107289 0.150330 -0.009458
0.122654 0.151789 0.025836
0.097160 0.151219 -0.025952
0.092298 0.149952 0.026993
0.117775 0.151090 0.055600
0.119383 0.151296 0.018124
0.117905 0.151023 0.116580
0.114888 0.151026 0.064692
0.121557 0.151394 0.006814
0.116664 0.151190 0.027468
0.116524 0.151309 0.085838
0.122133 0.150931 -0.009267
0.104114 0.150124 0.090227
0.122662 0.151488 0.092561
0.110196 0.150463 0.035614
0.115551 0.152211 -0.036123
0.090466 0.149996 0.062964
0.120629 0.151915 0.045125
0.102892 0.150695 0.011576
0.109029 0.150681 0.021172
0.044408 0.151250 0.043172
-0.023681 0.152913 0.065429
-0.071364 0.152336 0.044737
0.001445 0.152442 0.032649
0.056428 0.151382 0.030260
0.034138 0.151449 -0.005880
0.060796 0.151655 0.014724
-0.037921 0.150870 0.041142
-0.107893 0.152421 0.006790
0.018707 0.155201 0.021936
-0.018676 0.152124 0.001175
-0.129387 0.151041 0.034487
-0.040139 0.153177 0.000070
0.036179 0.152494 0.009533
-0.081374 0.154218 -0.006204
-0.087592 0.151258 0.022526
0.020827 0.151579 0.042665
-0.003188 0.150612 0.017988
0.012076 0.153599 0.071192
-0.005670 0.152389 0.050393
0.014612 0.151236 0.006768
-0.026144 0.150622 0.019278
0.028444 0.152884 0.056704
0.053948 0.150963 -0.000411
-0.058927 0.153784 0.062842
0.053263 0.152578 0.058040
-0.020534 0.150868 0.033431
-0.001148 0.152206 -0.003689
-0.103067 0.153624 0.049793
0.034030 0.153559 0.033102
-0.065141 0.152894 0.011353
-0.048660 0.152219 0.020367
0.098114 0.167762 0.078630
0.012357 0.168709 0.096238
-0.036253 0.169173 0.080958
0.043289 0.168317 0.072578
0.116009 0.167519 0.069865
0.081819 0.169559 0.037465
0.116102 0.168158 0.053709
-0.005404 0.167079 0.078382
-0.071301 0.169189 0.051771
0.064598 0.169253 0.064347
0.013460 0.168914 0.043850
-0.085755 0.166729 0.073494
-0.011341 0.169776 0.044791
0.086224 0.167989 0.051791
-0.051838 0.170477 0.037251
-0.054340 0.167470 0.065994
0.066636 0.166748 0.082944
0.032088 0.166719 0.061474
0.056071 0.170643 0.100448
0.033207 0.167691 0.088052
0.057284 0.167000 0.049278
0.006994 0.166658 0.060673
0.079601 0.169929 0.091589
0.110978 0.168598 0.044514
-0.026361 0.171371 0.096804
0.108206 0.168861 0.091649
0.018507 0.168149 0.074539
0.035166 0.168386 0.040477
-0.066136 0.169960 0.085724
0.084463 0.170991 0.073339
-0.034989 0.168643 0.055173
-0.017286 0.167873 0.064750
0.100728 0.150019 0.051590
0.048193 0.153050 0.070700
-0.001325 0.151463 0.047408
0.063885 0.150290 0.035500
0.110155 0.150003 0.036071
0.091222 0.151509 -0.010966
0.111209 0.150607 0.018624
0.029891 0.150102 0.048892
-0.039564 0.151705 0.001614
0.080157 0.153263 0.024441
0.047708 0.152019 -0.001344
-0.057015 0.150002 0.036185
0.026380 0.152690 -0.005274
0.096964 0.151451 0.008670
-0.015172 0.154191 -0.014349
-0.020534 0.150824 0.025595
0.080167 0.150607 0.045729
0.064491 0.150554 0.019568
0.078539 0.152877 0.081475
0.062203 0.151551 0.053098
0.080658 0.151138 0.003546
0.042648 0.151044 0.020884
0.085941 0.153159 0.064618
0.106632 0.150215 -0.003803
0.012479 0.152895 0.069151
0.107199 0.151362 0.063856
0.044383 0.150066 0.035938
0.062472 0.152608 -0.013387
-0.032524 0.153777 0.052189
0.094912 0.153213 0.035495
0.001549 0.151934 0.004972
0.018323 0.151706 0.020345
-0.053306 0.164154 -0.086485
-0.088763 0.163893 -0.068300
-0.103819 0.163356 -0.090342
-0.082965 0.162992 -0.094950
-0.044517 0.164315 -0.099934
-0.062643 0.163751 -0.137286
-0.034969 0.163279 -0.110837
-0.093871 0.163206 -0.084408
-0.114647 0.163385 -0.124148
-0.075593 0.168654 -0.105178
-0.084463 0.163457 -0.125690
-0.115435 0.163619 -0.099408
-0.092399 0.164331 -0.134413
-0.053280 0.164508 -0.116458
-0.106966 0.164763 -0.138766
-0.106527 0.163253 -0.108915
-0.069284 0.164495 -0.089897
-0.074138 0.163541 -0.114951
-0.073525 0.164389 -0.062036
-0.081321 0.163909 -0.081791
-0.064186 0.164052 -0.125759
-0.086038 0.163726 -0.110433
-0.064988 0.163679 -0.074023
-0.045438 0.162769 -0.132884
-0.102120 0.163766 -0.072017
-0.042859 0.164175 -0.075980
-0.092321 0.164036 -0.103385
-0.080375 0.163951 -0.138414
-0.114229 0.163854 -0.085710
-0.064145 0.164033 -0.100225
-0.099962 0.164039 -0.122866
-0.095288 0.164355 -0.116803
-0.139596 0.167172 -0.089984
-0.098686 0.171369 -0.043170
-0.125187 0.162527 -0.174885
-0.130597 0.171230 -0.117358
-0.058564 0.167646 -0.079332
-0.089913 0.167597 -0.221943
-0.077638 0.164544 -0.052420
-0.096726 0.159904 -0.100735
-0.112984 0.164888 -0.123684
-0.114084 0.170718 -0.082011
-0.080010 0.165468 -0.144308
-0.135589 0.164405 -0.161937
-0.118491 0.175574 -0.150911
-0.131988 0.167361 -0.062480
-0.073141 0.163623 -0.197109
-0.064830 0.172328 -0.163377
-0.101960 0.166893 -0.136469
-0.116187 0.168682 -0.190686
-0.078464 0.170758 -0.099528
-0.107892 0.167102 -0.065553
-0.137989 0.163584 -0.130767
-0.101350 0.161422 -0.162504
-0.059992 0.170384 -0.120827
-0.125619 0.163435 -0.084888
-0.089781 0.172260 -0.122366
-0.120942 0.166822 -0.030342
-0.111943 0.167612 -0.106652
-0.096306 0.164615 -0.190197
-0.093575 0.168029 -0.079136
-0.130319 0.169105 -0.212798
-0.089571 0.166321 -0.173443
-0.127402 0.166109 -0.147388
0.033834 0.151124 0.030804
-0.034194 0.153111 0.052828
-0.078061 0.152342 0.031758
-0.009323 0.152324 0.019401
0.045343 0.151297 0.017475
0.023189 0.151480 -0.021431
0.049497 0.151855 0.001566
-0.048255 0.150855 0.028552
-0.111477 0.152877 -0.008926
0.008081 0.155172 0.007778
-0.026631 0.152557 -0.013713
-0.131795 0.151151 0.021366
-0.047697 0.153560 -0.014701
0.025730 0.152394 -0.005125
-0.086873 0.154458 -0.021865
-0.093197 0.151519 0.007716
0.009314 0.151732 0.029941
-0.011714 0.150801 0.003243
0.000863 0.153755 0.058102
-0.016125 0.152602 0.037868
0.004487 0.151517 -0.008502
-0.034050 0.151067 0.004172
0.016754 0.153087 0.044294
0.042872 0.151040 -0.015419
-0.068279 0.154179 0.050599
0.041805 0.152474 0.045842
-0.031621 0.151131 0.019381
-0.010505 0.152349 -0.018921
-0.108050 0.153932 0.037434
0.023854 0.153771 0.019578
-0.072539 0.152933 -0.003338
-0.055898 0.152295 0.005829
-0.059278 -0.113022 -0.312818
-0.053912 -0.127275 -0.297943
-0.050856 0.027459 -0.316421
-0.060777 -0.132671 -0.328006
-0.053945 -0.090253 -0.302470
-0.054513 -0.064549 -0.327694
-0.046403 0.047445 -0.298165
-0.047285 0.050494 -0.303773
-0.049979 0.002167 -0.303297
-0.054987 -0.183802 -0.304302
-0.051016 -0.014263 -0.309131
-0.061157 -0.022085 -0.318881
-0.057330 -0.152278 -0.337505
-0.060799 -0.025728 -0.309302
-0.040441 0.024819 -0.317706
-0.047789 -0.106104 -0.324580
-0.058257 -0.055478 -0.314160
-0.061822 -0.087902 -0.330517
-0.058075 -0.098979 -0.309758
-0.052423 -0.004987 -0.292436
-0.061249 0.029513 -0.313364
-0.045950 0.073948 -0.304165
-0.044629 -0.021988 -0.305882
-0.057162 0.018288 -0.303468
-0.055039 -0.137939 -0.319064
-0.053806 -0.035993 -0.276791
-0.049040 -0.066767 -0.309169
-0.053817 0.008931 -0.323030
-0.050474 -0.016208 -0.300082
-0.061129 0.000141 -0.320125
-0.055985 -0.037712 -0.316531
-0.058112 -0.048865 -0.315124
0.113500 0.150882 0.033687
0.085362 0.151914 0.049488
0.065617 0.151953 0.031367
0.090776 0.150659 0.024124
0.119669 0.151496 0.021134
0.109623 0.151854 -0.011043
0.125407 0.151470 0.010574
0.078819 0.151140 0.034260
0.048890 0.151047 0.000138
0.099689 0.154648 0.016581
0.091929 0.151851 -0.001490
0.042343 0.151076 0.023447
0.080302 0.151449 -0.007553
0.114981 0.152296 0.005932
0.061154 0.153328 -0.011931
0.059029 0.150767 0.014048
0.102629 0.151447 0.029724
0.100202 0.151111 0.010347
0.100513 0.152631 0.056258
0.091985 0.152217 0.036538
0.107925 0.152542 -0.000549
0.089142 0.151616 0.012373
0.104476 0.151811 0.043411
0.119448 0.151227 -0.007541
0.068824 0.152486 0.047194
0.120912 0.152091 0.042838
0.080553 0.151056 0.019484
0.094390 0.152339 -0.011422
0.050053 0.152162 0.035069
0.108686 0.152834 0.022629
0.069380 0.152376 0.002462
0.078002 0.152007 0.008697
0.093328 0.170353 0.056277
0.007052 0.170961 0.074970
-0.036553 0.171960 0.059086
0.038083 0.170990 0.050083
0.112903 0.170863 0.047961
0.076669 0.171973 0.012965
0.113257 0.171088 0.031501
-0.009121 0.168984 0.056094
-0.067591 0.171281 0.028029
0.058480 0.172741 0.042074
0.011817 0.171350 0.019611
-0.081752 0.169208 0.051639
-0.014153 0.171831 0.020529
0.081730 0.171121 0.029449
-0.051417 0.173253 0.013785
-0.052576 0.170026 0.042924
0.060908 0.168853 0.060638
0.028137 0.168881 0.037519
0.050333 0.172963 0.077893
0.027961 0.169991 0.066342
0.053866 0.169207 0.026110
0.004609 0.167907 0.037272
0.075417 0.172206 0.069771
0.107157 0.171566 0.020473
-0.028176 0.173567 0.074519
0.104139 0.171419 0.069391
0.013709 0.170427 0.051442
0.031386 0.170519 0.016488
-0.064231 0.171942 0.064390
0.079620 0.172981 0.050939
-0.035414 0.171264 0.032956
-0.018349 0.170636 0.041920
0.029531 0.150756 0.002484
-0.033439 0.152627 0.023841
-0.075902 0.151983 0.003223
-0.011450 0.151809 -0.008806
0.039801 0.151155 -0.011036
0.019390 0.151060 -0.049973
0.044470 0.151522 -0.026631
-0.047287 0.150525 0.000506
-0.108723 0.152044 -0.037240
0.005095 0.154995 -0.020181
-0.025921 0.152275 -0.041782
-0.127772 0.150693 -0.007028
-0.046769 0.152637 -0.043804
0.022934 0.152121 -0.033012
-0.085389 0.154055 -0.050814
-0.091017 0.150939 -0.019992
0.006342 0.151435 0.001159
-0.011881 0.150561 -0.024821
-0.000622 0.153302 0.029362
-0.016617 0.152476 0.009146
0.004118 0.151549 -0.036946
-0.032955 0.150565 -0.023856
0.012514 0.152698 0.015920
0.037622 0.150572 -0.044311
-0.066216 0.153426 0.021674
0.037377 0.152069 0.016314
-0.032453 0.150796 -0.009182
-0.011406 0.151999 -0.048526
-0.105237 0.153440 0.008694
0.020133 0.153392 -0.008782
-0.070817 0.152695 -0.032012
-0.054554 0.152148 -0.022562
-0.018576 0.176759 0.017325
0.046462 0.181610 0.056946
0.001430 0.169791 -0.047260
-0.001847 0.181393 0.002260
0.092759 0.176931 0.027303
0.057916 0.178052 -0.082416
0.071292 0.175040 0.045911
0.046085 0.168242 0.008892
0.017178 0.173080 -0.009718
0.022778 0.179560 0.021284
0.074387 0.173436 -0.024127
-0.021659 0.172993 -0.038198
0.017854 0.184718 -0.025044
-0.004453 0.176155 0.041438
0.072946 0.170659 -0.059236
0.085102 0.179807 -0.038270
0.041228 0.175061 -0.014123
0.024382 0.179917 -0.059100
0.073352 0.175974 0.014724
0.035951 0.173076 0.033601
-0.012271 0.169303 -0.012317
0.038311 0.166434 -0.040547
0.094326 0.176891 -0.004896
0.007717 0.170502 0.025157
0.061751 0.181118 -0.008490
0.017917 0.176519 0.062652
0.028687 0.176144 0.005937
0.048011 0.171879 -0.057961
0.051897 0.177788 0.027814
-0.000375 0.177755 -0.075365
0.055195 0.176006 -0.038952
-0.000390 0.175510 -0.026185
0.124503 0.149706 0.054606
0.125198 0.149151 0.074148
0.124704 0.158796 0.030021
0.124929 0.150254 0.026536
0.123880 0.144954 0.038888
0.125722 0.161920 -0.030448
0.125166 0.163739 0.033461
0.126161 0.165196 0.049792
0.124911 0.164336 -0.016654
0.124436 0.150506 0.011570
0.124757 0.151704 -0.011259
0.124854 0.153187 0.020158
0.124249 0.150455 -0.020171
0.126071 0.156337 0.021406
0.125318 0.150403 -0.037495
0.124354 0.147207 0.001151
0.125020 0.152368 0.035592
0.125614 0.159819 -0.007535
0.124542 0.155457 0.085947
0.124279 0.155485 0.045043
0.125414 0.154809 -0.002583
0.126091 0.166623 0.006075
0.124107 0.159264 0.059681
0.125333 0.155828 -0.027645
0.125727 0.154899 0.064129
0.125201 0.158946 0.069308
0.125553 0.157959 0.010376
0.124929 0.158028 -0.047853
0.125149 0.158388 0.038957
0.125546 0.164235 0.022404
0.125168 0.152147 0.009135
0.125402 0.161118 0.002299
-0.069253 0.164001 -0.130143
-0.103670 0.163480 -0.111604
-0.118250 0.162968 -0.134397
-0.098606 0.162586 -0.138823
-0.060711 0.164248 -0.144063
-0.078400 0.163651 -0.183848
-0.051503 0.163063 -0.155290
-0.108735 0.162754 -0.127855
-0.128099 0.162928 -0.169771
-0.091228 0.168645 -0.149390
-0.099038 0.163133 -0.171468
-0.128268 0.163157 -0.143720
-0.106761 0.163755 -0.180760
-0.068231 0.164439 -0.161026
-0.120856 0.164529 -0.185318
-0.119790 0.162823 -0.153687
-0.085123 0.164332 -0.133669
-0.088832 0.163274 -0.160503
-0.089527 0.164081 -0.105814
-0.096902 0.163791 -0.125059
-0.079206 0.164070 -0.171539
-0.100728 0.163446 -0.155090
-0.080934 0.163249 -0.117583
-0.061041 0.162504 -0.178749
-0.116660 0.163273 -0.115346
-0.059094 0.163910 -0.119435
-0.107832 0.163672 -0.147710
-0.096054 0.163702 -0.184844
-0.127607 0.163362 -0.129545
-0.079794 0.163887 -0.144330
-0.113718 0.163830 -0.168324
-0.110043 0.164074 -0.161931
-0.120296 0.162129 -0.101681
-0.064499 0.166466 -0.055487
-0.097792 0.155607 -0.188858
-0.105143 0.167010 -0.126862
-0.024612 0.162618 -0.091822
-0.056882 0.164102 -0.231422
-0.044973 0.158043 -0.062657
-0.063529 0.152015 -0.113634
-0.083584 0.159238 -0.135794
-0.084585 0.170007 -0.093279
-0.045877 0.158822 -0.155455
-0.114684 0.158645 -0.174518
-0.089514 0.173834 -0.159630
-0.109267 0.162520 -0.071089
-0.039478 0.157007 -0.205454
-0.031344 0.167536 -0.175706
-0.070153 0.162699 -0.147687
-0.085952 0.165550 -0.202406
-0.045839 0.165054 -0.112962
-0.075330 0.160377 -0.080198
-0.118917 0.156175 -0.142371
-0.069224 0.153971 -0.174619
-0.028877 0.164871 -0.133028
-0.101679 0.156570 -0.092940
-0.055329 0.171082 -0.137332
-0.092503 0.162708 -0.044011
-0.081317 0.162797 -0.118023
-0.062092 0.159029 -0.199320
-0.059383 0.163279 -0.092163
-0.105489 0.163547 -0.224653
-0.056471 0.160657 -0.182695
-0.102254 0.159771 -0.159894
0.015654 0.150486 -0.022218
-0.050491 0.152407 0.000055
-0.088021 0.151309 -0.022318
-0.026627 0.151474 -0.034795
0.027652 0.150797 -0.034437
0.002781 0.150969 -0.081535
0.031854 0.151162 -0.051421
-0.063720 0.149679 -0.024080
-0.117956 0.151980 -0.067098
-0.011374 0.154517 -0.046627
-0.042123 0.152000 -0.071095
-0.136005 0.149958 -0.033683
-0.062684 0.153376 -0.074378
0.009448 0.151911 -0.059246
-0.098809 0.153617 -0.082687
-0.103448 0.150690 -0.047494
-0.010375 0.151211 -0.023551
-0.027786 0.150479 -0.053115
-0.017558 0.153518 0.006191
-0.032672 0.151996 -0.016095
-0.010826 0.150914 -0.064292
-0.048137 0.150159 -0.050797
-0.002093 0.152792 -0.008356
0.024653 0.150129 -0.072998
-0.081504 0.153223 -0.002608
0.024167 0.152019 -0.007093
-0.048107 0.150308 -0.035659
-0.027597 0.151732 -0.082023
-0.115710 0.153356 -0.016502
0.005698 0.153432 -0.034745
-0.084627 0.152294 -0.059906
